# .PCD v0.7 - Point Cloud Data file format
VERSION 0.7
FIELDS x y z rgba
SIZE 4 4 4 4
TYPE F F F U
COUNT 1 1 1 1
WIDTH 1131
HEIGHT 1
VIEWPOINT 0 0 0 1 0 0 0
POINTS 1131
DATA ascii
0.020209018 0.1165852 1.1024421 9935247
0.025948243 0.11728056 1.1022722 9934992
-0.11814612 -0.16811348 1.1167561 929696
-0.1139086 -0.16863891 1.1189297 1984411
0.14834918 -0.17383783 1.1108187 13424882
-0.1188805 -0.15849933 1.1145742 2512540
-0.1142316 -0.16059363 1.1176802 2906513
0.14981157 -0.16794387 1.1083827 8955594
0.15539995 -0.16677231 1.1046644 14080986
-0.12549606 -0.14417312 1.1155107 2381461
-0.12251462 -0.14948118 1.1173084 2776212
0.15034173 -0.15834579 1.1072192 3697834
-0.12570183 -0.13824755 1.1164057 2841752
-0.12363312 -0.142672 1.1194694 2906774
0.15256888 -0.14850707 1.1077222 2646183
-0.12717356 -0.12763451 1.1175736 2907034
-0.1232456 -0.13201272 1.1195562 2775704
0.15349647 -0.1398094 1.1088748 3696546
0.15569609 -0.135345 1.1082816 3761571
-0.12789127 -0.11813942 1.1162703 2973083
0.15757407 -0.12930328 1.1076128 3368880
-0.12863013 -0.10789356 1.1158433 3039134
0.15827973 -0.11770993 1.1073045 3500454
-0.12843664 -0.09744174 1.115634 3171232
0.15754712 -0.10924779 1.1084189 3631529
-0.12869626 -0.088652097 1.1150231 3302564
0.15628864 -0.098767519 1.1042669 3697839
0.15678833 -0.099061601 1.1072503 3763633
-0.12838107 -0.078108609 1.1159115 3368355
0.15775384 -0.087831661 1.1070389 3436468
0.17219208 -0.084728524 1.1069096 10992842
-0.12566601 -0.067782663 1.1159238 3697068
0.15621501 -0.074860461 1.1114943 3765679
0.15917359 -0.077429444 1.1065588 3830452
0.17199267 -0.080467261 1.1069552 11387079
-0.12435403 -0.060031477 1.1137542 3631022
-0.12207909 -0.056898024 1.1132129 3500456
0.15574208 -0.067898944 1.108683 3830449
0.16235702 -0.068611205 1.1059922 5207985
0.16895832 -0.069894239 1.1098145 10334913
-0.12409098 -0.048026618 1.1159298 3434161
0.15519962 -0.058940485 1.1085285 3893939
0.16224408 -0.059672438 1.1075032 8428221
-0.12387234 -0.038027368 1.119589 6194370
-0.1192251 -0.036098517 1.1203215 4421311
0.15355469 -0.047064636 1.1107422 5734064
0.15975061 -0.050973266 1.111607 10203587
-0.11765108 -0.029484555 1.1203345 6852289
0.15222155 -0.041073993 1.1087285 8955077
0.026830994 0.09311156 1.1170287 9737616
-0.088621691 -0.20603339 1.1261435 7635861
-0.085176714 -0.2066725 1.1286997 8100012
-0.098426774 -0.19577533 1.129208 10535920
-0.091576606 -0.1986818 1.1266162 5996227
-0.085046269 -0.20308453 1.1287289 6394567
-0.10826987 -0.18431267 1.1216127 8431615
-0.10128193 -0.18703303 1.1241434 1526185
-0.095066972 -0.18968526 1.1280177 1262491
0.12856039 -0.19498846 1.1222368 11717846
-0.1165055 -0.17545387 1.121948 7571711
-0.10956393 -0.17798765 1.1232675 1917611
-0.1025691 -0.18079363 1.1268061 2379673
-0.095844463 -0.18401265 1.1292377 2644619
0.13039836 -0.18817735 1.1222434 5010097
0.13770601 -0.18544883 1.1188996 10599906
0.14481887 -0.1844874 1.1178323 14081762
-0.10922681 -0.16918531 1.125995 2709143
0.13182525 -0.17762186 1.1222974 2909858
0.13836838 -0.17735156 1.1182786 4026283
0.14583759 -0.17778364 1.1143613 12307424
-0.11576724 -0.155147 1.1221135 2775446
-0.11145286 -0.15954286 1.1248507 2775442
0.13996828 -0.16846274 1.1191304 3105445
0.14478439 -0.16776419 1.1139863 2578854
-0.11746988 -0.14789915 1.124388 2775449
-0.11320658 -0.1504972 1.1287479 2906778
0.14269504 -0.15876585 1.1205372 3564451
0.14595738 -0.15787253 1.1164432 3433893
-0.12096842 -0.13909855 1.125718 2840984
0.14453658 -0.15065652 1.1221565 3565217
0.14822741 -0.14862815 1.1167258 3499430
-0.12544009 -0.12697297 1.122672 2841497
-0.12234029 -0.12891302 1.1285619 2907290
0.15095882 -0.13811652 1.1190737 3237547
-0.12522699 -0.1175313 1.1243538 2973083
-0.12237924 -0.11815257 1.1286627 3038877
0.15443629 -0.12855953 1.1202378 3827369
0.15694407 -0.12753615 1.1139852 3564710
-0.12588297 -0.10754256 1.1257243 3039391
-0.12319809 -0.10958602 1.1294343 3170977
0.15506575 -0.11848596 1.1201299 3565735
0.15725492 -0.11898588 1.1140549 3500198
-0.12564559 -0.099371389 1.1279367 3170977
0.15564023 -0.10947696 1.1195288 3631790
0.15674378 -0.1112183 1.1221467 3434923
-0.12544774 -0.08881028 1.127028 3302823
0.15572563 -0.098021619 1.119799 3566513
-0.12509435 -0.07880418 1.1257758 3368614
0.15515915 -0.088739201 1.119941 3632560
-0.1242702 -0.071133748 1.1271555 3565995
0.1542924 -0.078522667 1.1187899 3895728
-0.12074208 -0.056215823 1.1287862 3697842
0.1522731 -0.068473935 1.1174777 4158132
-0.11881818 -0.047965821 1.1275666 3502262
0.1515678 -0.057783082 1.1187991 4027837
-0.11584775 -0.038547698 1.1269764 3698611
0.14725663 -0.046207264 1.1230409 4619197
0.15277332 -0.049462974 1.1172998 4946612
-0.12198186 -0.031851351 1.1234472 7180220
-0.11407229 -0.02919548 1.1304324 4815032
0.14738666 -0.03972061 1.1224301 5209534
0.15194458 -0.038071621 1.1149681 8425655
0.027893716 0.089019582 1.1199597 9474444
-0.061811991 -0.21744424 1.1348851 8300241
-0.079821624 -0.20856428 1.1318829 7642055
-0.072295107 -0.20951124 1.1337801 4815810
-0.065622643 -0.21321663 1.1350414 5210825
-0.088528998 -0.19632581 1.1319002 932767
-0.081640244 -0.20003438 1.133339 2382238
-0.073070727 -0.20340432 1.1353613 2251168
0.1103646 -0.2067734 1.1296906 6518691
0.11618902 -0.20594527 1.1280899 11319227
-0.089952506 -0.18954387 1.1338744 2447513
-0.084624745 -0.19322687 1.1358109 2513045
0.11834149 -0.19779845 1.1284754 4617903
0.12528679 -0.19804144 1.1253108 10929103
-0.099011198 -0.17817959 1.1338459 2971544
-0.093225576 -0.18216047 1.1341769 2774929
0.12072968 -0.18860605 1.1278728 2909086
0.12559316 -0.18781343 1.1253961 3105187
-0.10610299 -0.16471219 1.1327335 2709911
-0.10159811 -0.16995686 1.1349005 2644371
0.1274856 -0.17806509 1.126044 3368356
-0.10813525 -0.15803449 1.1346769 2775444
-0.10329478 -0.16234234 1.1353371 2709910
0.13228925 -0.16837412 1.1269712 3368613
0.13654992 -0.16554773 1.1252656 3499683
-0.11104369 -0.14935142 1.1345284 2841497
0.13443111 -0.16100964 1.1293749 3237027
0.13917178 -0.15844785 1.1265848 3302821
-0.11657554 -0.13754615 1.1338789 2645144
-0.11307895 -0.13942048 1.136295 2775964
0.14267507 -0.14864081 1.127417 3237542
0.14686285 -0.14520319 1.1264712 3106215
-0.11807196 -0.12909512 1.1348867 2907291
0.14440896 -0.13914907 1.1279367 3499683
0.14753264 -0.13726752 1.1263335 3303338
-0.11866669 -0.11914933 1.1359432 3039134
0.14946237 -0.12884277 1.1266212 3499947
-0.12336291 -0.10465234 1.1338207 3236770
-0.12125944 -0.10904826 1.1370503 3236770
0.15158628 -0.11840874 1.1270593 3500458
-0.12312749 -0.09817683 1.1338735 3237027
-0.12129396 -0.09863776 1.1378149 3302821
0.15434797 -0.10795686 1.127539 3632048
-0.12277436 -0.088463567 1.1339526 3302824
-0.12095927 -0.08943177 1.1378899 3302569
0.1529419 -0.099010706 1.1275612 3632047
-0.12287629 -0.079382278 1.1340399 3434408
-0.11989346 -0.077153653 1.1379709 3434665
0.14994299 -0.087845713 1.1273931 4026292
-0.12206809 -0.06903705 1.1341109 3631531
-0.12019144 -0.068312138 1.138062 3631531
0.15029745 -0.079864047 1.1260817 4157366
-0.12183267 -0.062561542 1.1341637 4025255
-0.11842941 -0.057577156 1.1363921 3632304
0.15017602 -0.068059117 1.1257502 4289211
-0.11466353 -0.048710782 1.1357869 3568048
0.1474351 -0.057190683 1.1266022 4094399
0.14964545 -0.061671373 1.1278267 4224702
-0.11318919 -0.042701129 1.1340821 3764911
-0.10951903 -0.038536582 1.1365091 3895729
0.14521143 -0.048690267 1.1275376 4487616
-0.11365213 -0.02459196 1.1372657 6458567
-0.10887741 -0.028534554 1.136482 3895996
0.14550979 -0.03764819 1.1265757 5735616
0.15247114 -0.034641273 1.1259893 9477559
-0.11308536 -0.021936066 1.1382734 6852289
-0.10983764 -0.022053316 1.1381724 5933254
0.060266033 0.073512346 1.1298264 9474701
-0.025100242 -0.22932513 1.1456525 7248329
0.0076281456 -0.2320928 1.1438203 5801654
0.015666813 -0.23124856 1.1430473 5210039
0.028465852 -0.23235492 1.1439776 6328255
0.036123835 -0.2326314 1.1437397 7379645
0.047676012 -0.2329267 1.1433817 8430007
0.055560052 -0.23140405 1.1391513 8625323
-0.06291458 -0.21976395 1.1388996 9678537
-0.051900692 -0.2202166 1.1450865 4422071
-0.042552426 -0.22124282 1.146264 2778029
-0.032866158 -0.22340859 1.1459461 2513574
-0.025358796 -0.22639333 1.1456877 2315684
0.0045172768 -0.22820255 1.1447524 2120102
0.016551249 -0.22863701 1.1443784 2185635
0.029719014 -0.22801648 1.1439793 2186146
0.035149209 -0.22930844 1.1438004 2316696
0.050544757 -0.22767243 1.1433423 4486314
0.058049716 -0.2275319 1.1411117 5997746
0.06932053 -0.22498433 1.1416465 6063288
0.078069776 -0.22384414 1.1425315 6589614
0.086157389 -0.2243553 1.1422782 8757678
-0.067911871 -0.20761232 1.1391659 1855898
-0.061189406 -0.21039173 1.1421732 2249885
-0.053474411 -0.21301472 1.1459484 2381985
-0.045408711 -0.21544093 1.1464056 3039902
0.072255731 -0.21804507 1.142764 2841504
0.078292608 -0.21771505 1.1425815 3302564
0.087889396 -0.21579371 1.1409702 4420011
0.097577356 -0.21527408 1.1362939 6984117
0.10703598 -0.21284011 1.1337389 6254993
-0.078639492 -0.19670503 1.1403972 2710418
-0.070930272 -0.20027861 1.1437098 2775447
-0.064208508 -0.20277496 1.1463006 2906776
0.09065026 -0.2080031 1.1418914 3171492
0.099115744 -0.20691131 1.1388397 3237285
0.10735777 -0.20595935 1.1343645 3629215
-0.081148468 -0.18969384 1.1445413 2775191
-0.073069818 -0.1935001 1.1467923 2906012
0.10145278 -0.19779718 1.1403865 3040421
0.10834627 -0.19633439 1.1368004 3105703
0.11414701 -0.19677249 1.1336691 2777257
-0.096098416 -0.17503425 1.1403344 2710677
-0.08937192 -0.17919309 1.1436203 2709909
-0.08321622 -0.18304622 1.1458671 2709910
0.10991126 -0.18803555 1.1404099 3368100
0.11741733 -0.18643454 1.1357988 3302561
-0.096992016 -0.16847897 1.1435353 2710421
-0.092190102 -0.17153959 1.1474503 2644886
0.11229436 -0.1803664 1.1418823 3040936
0.1203771 -0.1775403 1.1395719 3237031
0.12679093 -0.17484528 1.1364851 3368615
-0.10625103 -0.15507847 1.1408315 2776209
-0.1008419 -0.15979668 1.1453738 2841240
0.12278005 -0.16915262 1.1416638 3237287
0.12915245 -0.16711284 1.1363413 3302822
-0.10686955 -0.14843655 1.1454476 2710683
-0.10221256 -0.15192199 1.1480737 2841499
0.13179711 -0.15880664 1.1388929 3237541
0.13674539 -0.15623754 1.1349509 3237798
-0.10866646 -0.13981563 1.1461927 2907293
0.13387822 -0.15013123 1.1414989 3237797
0.13854563 -0.14771406 1.1363752 3303334
-0.11466555 -0.12786178 1.1424857 2907805
-0.11234237 -0.12963231 1.1484582 2907805
0.14080293 -0.13844737 1.1389486 3434407
-0.11477913 -0.11855702 1.1441001 3039392
-0.11204232 -0.11988249 1.1493398 3039391
0.1430884 -0.12895018 1.1388392 3500202
0.14717379 -0.12613758 1.1333084 3631274
-0.11753495 -0.10929942 1.1461382 3170979
0.1454767 -0.11877994 1.1409882 3631791
0.14870854 -0.11828026 1.1351126 3566510
-0.11752631 -0.098952927 1.1474154 3105957
0.14502147 -0.10763249 1.1398827 3632305
0.15003042 -0.10886191 1.1337142 3501227
-0.11761338 -0.088899091 1.1452245 3237546
0.14486703 -0.098542877 1.1390923 3698099
0.14931017 -0.099041954 1.1338941 3698094
-0.11662941 -0.07918223 1.1455225 3434923
0.14645575 -0.089324966 1.1396747 3895479
0.14843825 -0.091357909 1.1335919 3895477
-0.11585189 -0.068751469 1.1462146 3566256
0.14716595 -0.078051791 1.1410913 4027579
0.14957561 -0.077535376 1.137687 4157882
-0.11455774 -0.059876535 1.1455003 3567024
0.14545932 -0.06844224 1.1407229 4159422
0.14964274 -0.068704069 1.136166 4289724
-0.1119557 -0.050109439 1.1433136 3567791
-0.10862154 -0.048338126 1.1485636 3764403
0.14407034 -0.058336124 1.1393683 4356797
-0.10674471 -0.039415065 1.1424903 3830196
0.1417301 -0.048655242 1.1385961 4619718
-0.10480542 -0.02859582 1.1448698 3896507
0.13809088 -0.036627628 1.1393086 4817095
0.14249349 -0.037337907 1.1359428 4948420
-0.11203843 -0.019164175 1.146271 6916535
-0.10458636 -0.01996132 1.1457267 5210049
0.13754237 -0.03022977 1.141497 5013440
0.1419417 -0.029952168 1.1390297 5998788
0.039894477 0.047451094 1.1410739 5859448
0.04802876 0.047250018 1.1389639 6122362
0.05367931 0.047150224 1.1417907 6319482
0.064948037 0.047978222 1.1454542 5330522
0.040590517 0.051888391 1.139569 5792108
0.048421741 0.052455738 1.1388 5527648
0.053837921 0.051512897 1.1418263 5067354
-0.019269351 -0.22953258 1.1484728 4354997
-0.011893965 -0.23084328 1.1502349 4684224
-0.0020418391 -0.23089246 1.1484642 4289976
0.0089923944 -0.22898322 1.147609 2054307
0.019392535 -0.22990808 1.1472807 2777510
0.024836898 -0.23120341 1.1471014 4026798
0.041289665 -0.2317974 1.14659 5604271
0.045188487 -0.23029 1.1464841 4881326
-0.037853058 -0.21850178 1.1491464 3039902
-0.029930282 -0.21971031 1.1493919 2710943
-0.021454059 -0.22194943 1.1519164 2645152
-0.011587391 -0.22519301 1.154947 2514339
-0.0016697533 -0.22544302 1.1541061 2514851
0.0082812142 -0.22328258 1.1522862 2842787
0.018103637 -0.22319528 1.1497838 2908579
0.027793769 -0.22315392 1.1499754 3039651
0.037985388 -0.22423443 1.1507638 2908578
0.047349252 -0.22369802 1.1502308 2778020
0.05735923 -0.22237796 1.1476126 2646433
0.066783205 -0.22539264 1.1458656 5012145
0.078253604 -0.22708863 1.1454972 8955830
-0.050555348 -0.20962101 1.1499051 2841242
-0.040735584 -0.21206631 1.1516292 2775960
-0.031723797 -0.21368349 1.1532716 2841500
-0.022290584 -0.21622801 1.1566931 2907551
0.0093974322 -0.21663445 1.1557152 3105184
0.01861467 -0.21659842 1.1554321 3170722
0.028554827 -0.21695727 1.1551232 3302053
0.038699143 -0.21677034 1.1548131 3170723
0.04922501 -0.21622834 1.1544945 3105188
0.058522969 -0.21575603 1.1524979 3170467
0.068007454 -0.215857 1.1483176 3236258
0.078206792 -0.21276489 1.1460761 3171236
-0.066749938 -0.19768059 1.1502278 2906776
-0.060272597 -0.20016147 1.151149 2907033
-0.051754311 -0.2014848 1.1545674 2841497
-0.042559061 -0.20590749 1.1574119 2775704
0.059760954 -0.21033911 1.1542251 3105443
0.068596646 -0.2106581 1.1539506 3105443
0.079475813 -0.20732042 1.1523832 3105956
0.0878288 -0.20472041 1.1486119 3105956
-0.077319503 -0.18631124 1.1506581 2644884
-0.070295461 -0.1901599 1.1534081 2775705
-0.061955936 -0.19335707 1.1557901 2841497
0.083356373 -0.20012701 1.1535944 3172006
0.091061614 -0.19801331 1.1523765 3040421
0.096926853 -0.19585332 1.1497149 2974628
-0.085775159 -0.17721578 1.1510023 2645144
-0.079109922 -0.17925075 1.153839 2710425
-0.073864959 -0.18217564 1.155164 2776216
0.10071224 -0.18734679 1.1499276 3171493
0.10567007 -0.18526809 1.1466428 3237026
-0.088439792 -0.16911817 1.1537489 2710424
-0.082036056 -0.17159241 1.1574883 2710937
0.10395977 -0.18095568 1.1531386 3302823
0.11033551 -0.17707226 1.1498191 3172005
0.11621327 -0.17413494 1.148823 3172006
-0.0967701 -0.15740716 1.1515239 2841498
-0.092320316 -0.16013007 1.1562876 2907290
0.11319719 -0.1702252 1.1529541 3303592
0.11952048 -0.16705829 1.151455 3237544
0.12561819 -0.16287218 1.1446363 3303337
-0.098173372 -0.14890766 1.1533611 2973342
-0.093507774 -0.15225179 1.1594756 3038879
0.12345076 -0.159437 1.1520718 3237544
0.12777761 -0.15652497 1.1474302 3303336
-0.10579256 -0.13706642 1.1529903 2973342
-0.099710532 -0.14048928 1.157274 2973600
0.13155164 -0.14753973 1.148598 3368872
-0.1070419 -0.12916446 1.1544557 3039392
-0.10147551 -0.13023132 1.1599246 3236259
0.13324788 -0.13816917 1.1503836 3500460
0.13758408 -0.13583483 1.144519 3434923
-0.10777402 -0.11949343 1.155104 3170978
0.13464114 -0.12929226 1.1513401 3500719
0.139319 -0.12693195 1.1478832 3500718
-0.11401354 -0.10807231 1.1525112 3237029
-0.11007048 -0.10963491 1.1583787 3237286
0.14006341 -0.11811893 1.1507154 3697329
-0.11369437 -0.099293642 1.1525829 3237543
-0.11089195 -0.099020459 1.1600031 3172263
0.14159584 -0.10905304 1.1502467 3697843
-0.11355457 -0.089680053 1.1556692 3303340
-0.1112891 -0.08872956 1.1606109 3303852
0.14176214 -0.098610036 1.1507386 3764149
-0.11335522 -0.079894207 1.1527522 3500716
-0.11034521 -0.078700684 1.1606748 3501229
0.14503556 -0.088273309 1.1493044 3764661
-0.11269701 -0.071860291 1.1528064 3566512
-0.10927095 -0.068595365 1.1570972 3632306
0.14242503 -0.077963382 1.1493794 3896764
-0.10832034 -0.059002958 1.1571569 3698357
0.13687915 -0.067734331 1.1518419 4291265
0.14049643 -0.068989411 1.1461923 4225217
-0.10639502 -0.050056081 1.1568168 3764408
0.13798919 -0.058159865 1.1512295 4554434
0.14041661 -0.057924125 1.1451539 4488640
-0.10302885 -0.039465174 1.157612 3895997
-0.098697782 -0.036445837 1.1607084 4027323
0.13795954 -0.047346108 1.1503301 4817354
-0.10124759 -0.029961325 1.1541768 3962044
-0.097051576 -0.028954655 1.1599268 4093118
0.12918289 -0.034715377 1.1537185 5014224
0.1343485 -0.037603185 1.1495309 4751563
-0.099813551 -0.019584268 1.1528949 4290235
-0.094793364 -0.019674197 1.1572753 4158908
-0.088429473 -0.017638996 1.160567 4028609
0.12772195 -0.027605355 1.1520506 4817874
0.13424842 -0.027513303 1.1466259 5145287
-0.092235953 -0.013097018 1.1551232 4487616
-0.086633749 -0.010669254 1.1592424 4356800
0.11932564 -0.014777772 1.1522053 5276623
0.12543651 -0.017981924 1.1482716 5604813
0.1347428 -0.019524619 1.1465735 6720449
-0.084239103 -0.0037759095 1.1605667 5671109
0.11771453 -0.0091623589 1.1537362 5802961
0.1239211 -0.010122463 1.1494391 6787017
0.042312287 0.0093576163 1.1567976 12972031
-0.012579756 0.021275133 1.1565948 5869264
0.019714383 0.016443051 1.1575581 7515376
0.027186789 0.015804462 1.1573224 8764660
0.036767267 0.015016042 1.1570206 10146554
0.043356542 0.013745502 1.1568062 10870005
-0.070124999 0.031718791 1.1524576 8028800
-0.064993061 0.031899765 1.1523014 7305855
-0.0080912411 0.022241294 1.1584667 5671370
-0.0047778562 0.022121675 1.1583637 5869265
0.018415844 0.021284327 1.157643 6988787
0.02283369 0.021124825 1.1575056 7185904
0.10930309 0.026854217 1.1549003 6314850
-0.06359259 0.036854729 1.1523043 8028802
0.10633915 0.030501723 1.1550252 6117979
0.082543544 0.041956142 1.1478589 5593178
0.084737249 0.041876942 1.1477907 5658970
-0.016806386 -0.21942618 1.1604971 2973083
-0.011305358 -0.22073498 1.1603158 2973595
-0.0018508732 -0.22065118 1.1606929 2973598
-0.036352098 -0.20761845 1.1612074 2842012
-0.030029945 -0.20923445 1.160998 2776219
-0.020742498 -0.21206421 1.1622108 2907806
-0.011158163 -0.21380371 1.163535 2907807
-0.0006259568 -0.21472628 1.1633781 2973599
0.0082476698 -0.21268412 1.1604563 3039136
0.019035768 -0.21208826 1.1607971 3170723
0.028987046 -0.21232265 1.159822 3236770
0.038771346 -0.21220943 1.1588552 3170979
0.047815736 -0.21232244 1.1585761 3170980
0.054525804 -0.21089938 1.158383 3171236
-0.047112286 -0.19834828 1.1616241 2842012
-0.040448327 -0.20086774 1.1628511 2842011
-0.030896001 -0.20348115 1.1635407 2842012
-0.02262263 -0.20524278 1.1648093 2907805
0.023755828 -0.2083097 1.163355 3302309
0.029768171 -0.20736 1.1620356 3302308
0.038374774 -0.20753846 1.1604115 3171236
0.049065091 -0.2084818 1.1585734 3171236
0.059780359 -0.20750791 1.1599205 3105443
0.069641344 -0.20593446 1.1589649 3171492
0.076221034 -0.20428123 1.1577774 3040420
-0.067766264 -0.18650052 1.1623689 2841497
-0.059083395 -0.18956926 1.1626071 2907291
-0.050709262 -0.192535 1.1636719 2907549
-0.044019822 -0.1939799 1.1655716 2907551
0.073091485 -0.19895062 1.161925 3040420
0.080109075 -0.19734588 1.1598284 3106213
0.08795128 -0.19500889 1.1575027 3106214
-0.068971008 -0.17998251 1.1644673 2907290
-0.062449835 -0.18311137 1.1657386 2973340
0.0845358 -0.19045162 1.161652 3302823
0.090587571 -0.1882641 1.1590849 3237030
0.096849956 -0.18508275 1.1590998 3237031
-0.085881218 -0.16586274 1.1631171 2841497
-0.077603452 -0.16964784 1.1633611 2842012
-0.071495771 -0.17212602 1.1656183 2907547
0.10228249 -0.17758256 1.1581471 3368361
0.10745092 -0.17450787 1.1570932 3237285
-0.087143928 -0.15989605 1.1632112 2973085
-0.080294766 -0.16039059 1.1657343 3039135
0.10482134 -0.1705272 1.1572109 3368615
0.11148196 -0.16744114 1.1577624 3237799
0.11614587 -0.16427478 1.1569207 3303337
-0.09406209 -0.14669383 1.1635462 2973857
-0.088719606 -0.15043162 1.1649036 3039137
-0.082749918 -0.1515485 1.1671555 3104930
0.11378043 -0.16002978 1.1590338 3172264
0.12006044 -0.15735327 1.1575315 3238059
-0.094923444 -0.13846344 1.1646495 3039650
-0.090985253 -0.14222762 1.167495 3105700
0.12369533 -0.14774689 1.1589967 3369132
0.12783319 -0.14804359 1.1567118 3434410
-0.097343586 -0.12981339 1.1655188 3171236
0.12591216 -0.13970813 1.1600498 3500719
0.12932752 -0.1375161 1.1587645 3435183
-0.10409672 -0.11746609 1.1641256 3302823
-0.099440664 -0.11963677 1.1666304 3171495
0.13044991 -0.12745135 1.1586413 3566514
-0.10548314 -0.10878715 1.165704 3368873
-0.10179701 -0.11011174 1.1673247 3368875
0.13346526 -0.11835299 1.1576142 3697588
-0.10601959 -0.099705718 1.1670173 3303850
0.13546072 -0.10884073 1.1602709 3763892
0.13860184 -0.10824277 1.1567496 3698099
-0.10702378 -0.089448713 1.1660761 3435181
-0.10111883 -0.090171158 1.1682891 3435438
0.13686463 -0.098763011 1.1608928 3829942
0.13964036 -0.098290741 1.1579534 3764149
-0.10562512 -0.079823025 1.1665225 3501229
0.13735001 -0.085412271 1.1610017 3896505
0.14156929 -0.088431194 1.1586611 3830455
-0.10468344 -0.069985986 1.1661229 3632563
-0.10026941 -0.066807374 1.1684794 3567542
0.13517442 -0.078149691 1.1585631 4027837
0.14022619 -0.081878416 1.156944 3896505
-0.10356614 -0.059959713 1.1659763 3829940
-0.10002673 -0.060132004 1.1685338 3699127
0.13406183 -0.068499938 1.1599256 4291009
-0.10279597 -0.049835656 1.1655128 3895737
-0.098992541 -0.049188267 1.1686035 4027576
0.13470191 -0.058472358 1.1593318 4422849
-0.10139595 -0.043179538 1.164731 4158911
-0.09671738 -0.039663229 1.1666209 4093372
0.13498445 -0.04872793 1.1589131 4817355
-0.092645787 -0.030401416 1.1661197 4093630
-0.087692551 -0.027156658 1.1684602 4094397
0.12795267 -0.037725341 1.159954 5080014
0.13227722 -0.041068781 1.1575667 4883149
-0.090299673 -0.022856228 1.1645783 4028348
-0.085659884 -0.020476922 1.1659584 4028864
0.12380218 -0.027922109 1.1597277 4949202
-0.081742816 -0.011022106 1.166244 4029123
-0.077380449 -0.0089619309 1.1683118 3963586
0.11810951 -0.017852746 1.1608853 5146069
0.12130553 -0.022354208 1.1580774 5080276
-0.080707952 -0.0032187328 1.1644654 5342665
-0.073392488 -0.0013648793 1.1682596 4882633
-0.0098674651 0.00011223555 1.1663203 6070261
-0.0031950288 -0.00012865663 1.166113 6528744
0.003477403 -0.0003695488 1.1659056 8827627
0.019046415 -0.0009316355 1.1654217 10340848
0.027761012 -0.0018828362 1.165145 8895736
0.035234131 -0.002852872 1.1649063 6266608
0.10953993 -0.0047475472 1.1616038 5475287
0.11383789 -0.0084092468 1.1597703 5475028
-0.069766879 0.0045153126 1.1662017 5999306
-0.063073158 0.005383864 1.1660039 5540557
-0.054413617 0.0084136501 1.1650988 5803727
-0.041564815 0.009673655 1.1673834 4950220
-0.032652941 0.0082266629 1.167096 5016280
-0.022972558 0.0072689354 1.1663893 5411294
-0.012992702 0.0069100782 1.1642383 5806569
-0.002964098 0.0065474585 1.1655675 7120874
0.0066596279 0.0069423765 1.1658756 12379901
0.017146006 0.0060597807 1.1630174 13891069
0.026921563 0.0054735467 1.1620374 12969723
0.036901556 0.0053432211 1.162614 9946095
0.046966389 0.0047448575 1.162702 10013177
0.056753192 0.0062752441 1.1621743 7449069
0.063536137 0.0078596994 1.1641355 5411552
0.10672748 -0.0007423386 1.1602266 6526426
-0.039408036 0.01454699 1.1673623 6264275
-0.031869266 0.01509928 1.1646345 5803990
-0.022325613 0.015397422 1.162843 5345755
-0.01228364 0.016297467 1.1625426 5412839
-0.0026668049 0.016539663 1.1627495 5676266
0.0063999398 0.015271202 1.1648173 7253489
0.01615807 0.014752433 1.1626544 8436213
0.026014969 0.012171917 1.161327 12051453
0.040583678 0.016086794 1.1609154 10082302
0.048388563 0.01506488 1.1606659 10607102
0.056833453 0.013914116 1.1603956 7515119
0.063883066 0.013034649 1.1615047 6068200
-0.00026096217 0.022002228 1.1622258 6001365
0.0041721044 0.021842182 1.1620882 6396124
0.11676 0.023550555 1.1586425 6447199
-0.0073890295 -0.21016258 1.1682975 3039391
0.00021287613 -0.20987676 1.1695672 3039135
0.01158089 -0.21084744 1.1677079 3104930
-0.035995983 -0.19795147 1.1692902 2776478
-0.029597379 -0.19909504 1.1710838 2842271
-0.019697767 -0.20111075 1.1729438 2907807
-0.010532409 -0.20330636 1.1731558 2908063
-0.00052147917 -0.20452709 1.1739416 2973600
0.0098097073 -0.20391318 1.1731627 3105187
0.019711798 -0.20391178 1.1719383 3236773
0.0294342 -0.20291698 1.1709678 3237029
0.040368833 -0.20339799 1.1706939 3171237
0.049904916 -0.20467384 1.1680877 3171236
0.059454124 -0.20345329 1.1672282 3105444
0.068318278 -0.20227641 1.166043 3171493
-0.047756232 -0.18867701 1.1729393 2841758
-0.039724451 -0.19128236 1.1734686 2907551
-0.030777175 -0.19273576 1.1760051 2842271
-0.02010981 -0.19431995 1.1768396 2908064
-0.013409749 -0.19568731 1.1766208 2973857
0.0079365252 -0.19645797 1.1759574 3105444
0.020830544 -0.19592306 1.1755661 3237030
0.030830242 -0.1966936 1.174451 3302823
0.040506132 -0.19626001 1.1740345 3171495
0.049894854 -0.19518489 1.1732873 3105703
0.059578553 -0.1957916 1.1727751 3105703
0.069334745 -0.19562975 1.1705757 3105702
0.077665232 -0.19340178 1.1675531 3105958
-0.058791324 -0.18056291 1.1718 2973598
-0.050733335 -0.18261138 1.1758885 2907551
-0.040858526 -0.18484858 1.1775652 2908065
0.071526036 -0.187326 1.1740872 3237288
0.080287725 -0.18690822 1.1713759 3302823
0.088924915 -0.18515156 1.168141 3237287
-0.067739196 -0.1689741 1.1733932 3105183
-0.060306579 -0.17264545 1.1763929 2974112
-0.052037142 -0.17515998 1.1779987 2842786
0.08209914 -0.18022776 1.1738279 3171750
0.090809822 -0.17691892 1.1722567 3172008
0.098798133 -0.17541537 1.1676894 3303081
-0.075570978 -0.1589846 1.171535 3104930
-0.069251023 -0.16158441 1.1773196 3170978
0.093639955 -0.1686824 1.1735801 3303337
0.10139574 -0.16742325 1.171102 3368873
0.10827907 -0.16633824 1.1676943 3237543
-0.084868066 -0.14586911 1.1739434 3040164
-0.078254305 -0.14987636 1.1748263 3105701
-0.071912505 -0.15455934 1.1788007 3302822
0.1033639 -0.15848632 1.1733756 3303597
0.1107133 -0.15628703 1.1688042 3238059
0.11783995 -0.15347072 1.1669739 3303852
-0.087042816 -0.13946092 1.1751814 3106213
-0.079230376 -0.14182132 1.1791437 3172007
0.11206987 -0.14729455 1.1730115 3369387
0.11989166 -0.14730638 1.168969 3435181
-0.093891621 -0.12894951 1.1730436 3237030
-0.087216921 -0.12990004 1.1771652 3237800
-0.08090023 -0.13360147 1.1792712 3303594
0.11411276 -0.14131725 1.1732043 3500972
0.12256858 -0.13731483 1.1697297 3500976
0.12720676 -0.13453782 1.1648604 3500977
-0.094638832 -0.11967373 1.1749312 3237545
-0.089918017 -0.12154321 1.1787709 3303852
0.12480032 -0.12789749 1.1730001 3566772
0.12798414 -0.1283108 1.1688962 3566515
-0.096791364 -0.1098813 1.1752272 3369389
0.12600268 -0.1184013 1.1730511 3763639
0.1292464 -0.11754224 1.1680679 3763639
-0.1031248 -0.095790803 1.1736348 3435181
-0.097792752 -0.099699602 1.1766744 3435438
0.12704746 -0.10734523 1.1731215 3895737
0.131872 -0.10735707 1.1677939 3764149
-0.10235696 -0.089346513 1.174738 3435438
-0.096889481 -0.090208888 1.1786257 3501231
0.12725177 -0.10172532 1.1731672 3961530
0.13261038 -0.097893491 1.1678588 3961528
0.13982666 -0.094751433 1.1648412 3895735
-0.10172129 -0.08011692 1.1754044 3501489
-0.09736146 -0.080075592 1.1781546 3501490
0.12790561 -0.083741605 1.1733139 4159679
0.13329521 -0.08857698 1.1683736 3962041
0.13990784 -0.092518702 1.1648593 3895735
-0.10195382 -0.072754405 1.1744792 3501747
-0.096952699 -0.069764577 1.1770213 3567541
0.12738816 -0.077345334 1.173389 4225473
0.13093644 -0.077943355 1.1692723 4159424
-0.09484452 -0.059673768 1.1759827 3764919
0.12746087 -0.068469346 1.1734691 4422597
0.13130298 -0.067861773 1.1693544 4357059
-0.094002657 -0.04992412 1.1758757 3896505
-0.089111209 -0.05002119 1.1802982 3962298
0.12772197 -0.057849456 1.1735594 4685767
0.13166951 -0.057780199 1.1694366 4422851
-0.092267707 -0.040840149 1.174077 4027836
-0.08703199 -0.039306931 1.1792421 4028094
0.12616888 -0.047175787 1.1715873 4948684
0.13184234 -0.049238138 1.1665089 4751818
-0.090327702 -0.032786228 1.1724912 4093632
-0.08445733 -0.029593863 1.1781895 4094399
0.11987135 -0.036557484 1.1739981 5080784
0.12399306 -0.037734985 1.169058 5211343
-0.080951303 -0.021260493 1.1766757 4094402
-0.074237898 -0.018458582 1.1791329 4226244
-0.067662522 -0.017031826 1.1799446 4620744
-0.013694242 -0.017854765 1.1782777 5412064
0.0087755173 -0.018665977 1.1775794 6463211
0.016698778 -0.022791848 1.1772976 6397929
0.026398662 -0.022500895 1.1770021 6397929
0.035692528 -0.020924002 1.176731 6003432
0.11713095 -0.027153343 1.1716682 5081042
0.1220543 -0.030393288 1.165984 5081041
-0.072753385 -0.010653473 1.1740236 4160963
-0.064489506 -0.010058001 1.179054 4752075
-0.049318947 -0.0075649619 1.1794684 4949201
-0.042598452 -0.0083703175 1.1792543 5016022
-0.033089042 -0.0098285675 1.1782814 5213659
-0.023319624 -0.01108139 1.177405 5411552
-0.013499826 -0.012221865 1.1775236 5740773
-0.0033785366 -0.012599908 1.1780093 6003172
0.0067195371 -0.012958169 1.1772953 6331366
0.016727418 -0.013272725 1.1743834 6989552
0.026830211 -0.013644919 1.1744695 6792432
0.03688556 -0.013995111 1.1735067 5937640
0.045466423 -0.013407797 1.1754997 5806054
0.056248054 -0.012501679 1.176177 5674725
0.063029848 -0.011621058 1.1759768 5674983
0.10872005 -0.015802875 1.1745332 5146841
0.11448091 -0.018027604 1.1686183 5080789
-0.069105484 -0.0022530556 1.1721218 4554184
-0.065540276 -0.0015792921 1.1750199 4751049
-0.050202541 -0.0018894598 1.1775471 4818129
-0.042792618 -0.0021481737 1.1765164 5015507
-0.033366829 -0.002447024 1.1728221 5147609
-0.023310058 -0.0027950332 1.1712091 5346018
-0.013613787 -0.0035488978 1.1735164 5937898
-0.0031966008 -0.0046737045 1.173408 6462952
0.0072479136 -0.0042953417 1.1722012 8303605
0.016576489 -0.004726924 1.1708939 8501495
0.026362378 -0.006052196 1.1697673 7252467
0.037704214 -0.0059254244 1.1702592 6069484
0.046908338 -0.0051764399 1.1708449 6135528
0.057090443 -0.0059532598 1.1736223 5741031
0.066525415 -0.0061108544 1.1749198 5543655
0.076071784 -0.0051660091 1.1756356 5477092
0.08617378 -0.0042032525 1.175334 5739747
0.097524397 -0.0048631504 1.1749789 5280481
0.10652567 -0.0077849105 1.1709808 5015513
0.11186596 -0.0099321902 1.1684879 4949463
-0.062166698 0.0042034462 1.1719682 4818122
-0.05270765 0.0048555508 1.1716835 5147606
-0.044001546 0.0052864626 1.1714199 4818639
-0.035385646 0.0032365769 1.171136 5344472
0.0092697553 0.0021833107 1.1697533 12971007
0.013712972 0.001463972 1.16961 12905215
0.038262274 0.00057768077 1.1688471 5807584
0.051652808 9.4242394e-005 1.1684309 6004710
0.057745215 0.00083243847 1.1682504 5807083
0.066682786 0.0029698759 1.1701299 5477863
0.075239301 0.0022046044 1.1723944 5542628
0.08703173 -0.0012330189 1.1753352 5673698
0.097613879 0.00035718828 1.1735237 5804766
0.10298317 -0.0017589256 1.1668357 5147865
0.069912709 0.010613345 1.1679671 5412324
-0.0066748243 -0.19888486 1.1803862 3039650
-0.00025657937 -0.19976187 1.1801808 3039650
-0.026679087 -0.19025779 1.1810812 2842271
-0.019915331 -0.19050199 1.180871 2973857
-0.0096025467 -0.19197673 1.1818041 2973857
0.00011371262 -0.19409177 1.1827495 3039395
0.010808892 -0.19253598 1.1816862 3171237
0.020134501 -0.19144776 1.1806982 3237030
0.030503085 -0.19127513 1.180853 3302569
0.038821347 -0.19171506 1.180388 3237546
-0.045945473 -0.17907615 1.1817771 2908065
-0.038411643 -0.18031608 1.1815341 2973857
-0.029772706 -0.18240106 1.1822495 2973857
-0.02007195 -0.18466273 1.1830486 2973858
-0.011760913 -0.18580776 1.1846658 3105444
0.01990984 -0.18695116 1.1836815 3237030
0.031652711 -0.18586434 1.1833305 3302825
0.040581442 -0.18572876 1.1827495 3171754
0.05035688 -0.18658653 1.1807479 3171752
0.060686231 -0.1865309 1.1798422 3171753
0.069215119 -0.18371576 1.1791942 3237546
0.077482894 -0.18159635 1.1779591 3303592
-0.056767404 -0.16922109 1.1822011 2908579
-0.048600249 -0.17170359 1.1839281 2908579
-0.038802098 -0.17353565 1.1845194 3105444
-0.030191563 -0.17562449 1.1853268 3105443
0.06435179 -0.179491 1.1823844 3303339
0.072417811 -0.17749643 1.1808208 3303082
0.080817379 -0.17567275 1.1784832 3237545
0.08682926 -0.17289963 1.1777524 3303850
-0.065375738 -0.15761761 1.1825733 3302822
-0.058857992 -0.1621795 1.1845819 3040165
-0.0518222 -0.16623214 1.1860788 3040167
0.075991899 -0.17084658 1.1821066 3303598
0.082164012 -0.1670641 1.1810102 3238061
0.090734154 -0.16529384 1.1788145 3303596
0.098471209 -0.16315651 1.1774848 3369131
-0.074762918 -0.14673886 1.1829628 3171751
-0.068433151 -0.15061429 1.1841447 3368615
-0.061590679 -0.15454867 1.1864874 3171751
0.10056888 -0.15666516 1.1789812 3369134
-0.07647942 -0.13961895 1.1830815 3369130
-0.070346408 -0.14182612 1.185874 3434922
0.10209224 -0.14706126 1.1805718 3435183
-0.077849418 -0.13097642 1.1845378 3434923
0.10510384 -0.14007181 1.1806964 3501232
0.11195179 -0.13717963 1.1799006 3435694
0.11866023 -0.13565364 1.177119 3501232
-0.085668176 -0.1195407 1.1845506 3369646
-0.08004126 -0.12351388 1.1860083 3435182
0.11605372 -0.12810276 1.1812711 3567282
0.12010691 -0.12769635 1.1789674 3567027
-0.093619123 -0.10653368 1.1839151 3501231
-0.089097604 -0.11065248 1.1864893 3435439
0.1163417 -0.1201816 1.1813357 3829686
0.12148803 -0.11753836 1.1794232 3829431
-0.093496121 -0.10315031 1.1839427 3501231
-0.088945478 -0.10008586 1.1854987 3567024
0.12414736 -0.10825197 1.1798723 3830201
-0.092983596 -0.089052945 1.1840576 3632818
-0.08972244 -0.089907914 1.1859504 3698612
0.12662765 -0.097718731 1.1792266 3896507
-0.09263508 -0.079466745 1.1841357 3633333
-0.088715568 -0.079827003 1.1868132 3764919
0.12681888 -0.087506674 1.1788151 4093886
-0.092766188 -0.070653707 1.1842214 3633334
-0.088600606 -0.069896087 1.187302 3830201
0.12419038 -0.077786848 1.1797086 4291523
-0.087850541 -0.0596021 1.1858402 3896506
0.12406307 -0.067286044 1.1791873 4619975
-0.084225588 -0.050176371 1.1858637 4028348
0.11868669 -0.055680636 1.1818613 5146320
0.12299883 -0.058050483 1.1807063 4883148
-0.082211539 -0.040816367 1.1844593 3962814
-0.0771081 -0.039661698 1.1868858 3963072
0.11797029 -0.046809703 1.1804649 5146577
0.12160896 -0.048548151 1.1783358 5080527
-0.080517307 -0.031797349 1.1842049 4028607
-0.074216485 -0.030294344 1.1861596 4291526
-0.024222266 -0.030125774 1.1864917 5147865
-0.016748786 -0.030168973 1.1862615 5344731
-0.00042806007 -0.029851727 1.1857628 5345501
0.0063585304 -0.03009674 1.1855519 5739743
0.016404947 -0.032681704 1.183885 5936862
0.025459873 -0.033019587 1.183937 5871068
0.035725944 -0.032290064 1.1846286 5739228
0.053864658 -0.031811841 1.1840754 5213656
0.1164156 -0.037865315 1.1804955 4949970
-0.072235726 -0.022892796 1.1840329 4422856
-0.063583888 -0.018454537 1.1856271 4686797
-0.053178921 -0.017702751 1.1854961 4884690
-0.042800441 -0.019528896 1.1866609 4950486
-0.032409899 -0.020656765 1.1854972 5213659
-0.023949809 -0.022119254 1.1833559 5279707
-0.013829395 -0.023625925 1.183431 5345244
-0.0036190655 -0.022360504 1.1830399 5411808
0.0061826007 -0.023827218 1.1825229 5806052
0.015366902 -0.02727887 1.181299 6068964
0.027377695 -0.028088912 1.1809223 6068963
0.037518255 -0.026080325 1.1815526 6003173
0.046054885 -0.024676114 1.1821805 5608417
0.056261923 -0.025058798 1.1824635 5411038
0.063160285 -0.025348954 1.1838496 5279709
0.10783744 -0.02519653 1.1815538 5212630
0.11329311 -0.028972253 1.1796067 5015248
-0.059738055 -0.012898259 1.1837412 4949712
-0.052974299 -0.013142452 1.183531 4949713
-0.042828653 -0.013508737 1.1832157 5016279
-0.033448212 -0.014223814 1.1829207 5213659
-0.024832964 -0.01528769 1.182646 5345501
0.047897942 -0.017348841 1.1803908 5871590
0.056373145 -0.017090186 1.1801327 5871847
0.066761367 -0.015247501 1.1818315 5543139
0.074088499 -0.014384545 1.1819 5280225
0.098635741 -0.015298903 1.182852 5411294
0.10436125 -0.016899236 1.1801144 5279196
0.076408282 -0.0093439966 1.1795886 5411556
0.086051777 -0.007998243 1.1793046 5412066
0.097324707 -0.0084052235 1.1789542 5477344
0.10400646 -0.010904998 1.1787256 5213404
0.0014416687 -0.18959494 1.1882269 3105189
-0.018567998 -0.18040982 1.1899277 3039906
-0.0089423116 -0.18289667 1.1900375 3039908
0.00059786998 -0.18441841 1.1916358 3105447
0.011144005 -0.18400085 1.1887308 3105702
0.02023986 -0.18307328 1.1877095 3171750
0.029230926 -0.18298447 1.1874338 3237289
0.040750679 -0.18154 1.187093 3237548
0.050964814 -0.18190876 1.1867757 3171752
0.060044043 -0.18223654 1.1864935 3171752
-0.045803167 -0.16795576 1.1898799 3039909
-0.037961654 -0.1689778 1.1905187 3105701
-0.029859789 -0.17193529 1.1918997 3105443
-0.020422529 -0.17768496 1.1930115 3040163
0.010355737 -0.17788357 1.1920635 3105960
0.021783322 -0.17718077 1.1917186 3105958
0.030901249 -0.17599107 1.1906489 3237545
0.041292712 -0.17529565 1.1892406 3237547
0.05132037 -0.17534044 1.1884264 3237544
0.0613841 -0.17547709 1.1882 3237545
0.070067897 -0.17379285 1.1869305 3303339
-0.056696102 -0.15812626 1.1903059 3172009
-0.048324101 -0.16161433 1.1924174 3105961
-0.039029963 -0.16418025 1.1937087 3171752
0.044898033 -0.16863617 1.1910871 3303337
0.05173029 -0.16888282 1.1908748 3303593
0.061851494 -0.1682705 1.1905693 3303594
0.071105272 -0.16597798 1.1890554 3303596
0.077890188 -0.16469052 1.1861074 3238062
-0.06376338 -0.14934443 1.1906046 3434409
-0.058005549 -0.1513394 1.1932341 3237547
-0.049725741 -0.15402034 1.1941317 3237805
0.072369762 -0.15872788 1.1903344 3238318
0.081728525 -0.15612186 1.1889503 3238572
0.091797598 -0.15625708 1.1869587 3434926
0.098276086 -0.15587664 1.1855624 3369134
-0.065735713 -0.14024551 1.191981 3435179
-0.059800349 -0.14249046 1.1941036 3369388
0.086637057 -0.14961037 1.1899803 3500977
0.092350446 -0.14626724 1.1888351 3435186
0.097709395 -0.14645785 1.185667 3500720
-0.073858589 -0.12920113 1.1921022 3566511
-0.068215922 -0.13229929 1.1935675 3566767
-0.061063729 -0.13515231 1.1946552 3500977
0.094105512 -0.13869685 1.1893516 3501234
0.10198997 -0.1365158 1.186378 3501490
-0.082994565 -0.11568023 1.1915078 3566770
-0.07632836 -0.12052836 1.1938592 3632306
-0.069842078 -0.12570974 1.1950126 3632563
0.104161 -0.12793952 1.1882299 3699127
0.11157815 -0.12690209 1.1858928 3633076
-0.083967999 -0.11006122 1.1925904 3566770
-0.077910073 -0.11120354 1.195395 3763892
0.10542601 -0.1189193 1.189687 3633335
0.11210038 -0.11694454 1.1870545 3764407
-0.083678119 -0.099999741 1.1944755 3698868
-0.079324216 -0.1007789 1.1955351 3699126
0.10643025 -0.10697816 1.1897669 3962811
0.11292361 -0.10729155 1.188397 3830969
0.12054536 -0.10776173 1.1853236 3830714
-0.084546372 -0.089990839 1.1927172 3699126
-0.079213709 -0.090770036 1.1956245 3830712
0.11400041 -0.097388484 1.1890227 4028606
0.12204589 -0.097746283 1.1853703 3962300
-0.083601333 -0.080538996 1.193453 3830970
-0.078620121 -0.080416486 1.1957022 3962813
0.11461937 -0.088351533 1.1896877 4291522
0.12239566 -0.088189669 1.185812 4094399
-0.083533175 -0.0704671 1.1936586 3962044
-0.078602292 -0.070965573 1.1957892 4093630
0.11658376 -0.07766898 1.1894596 4554438
0.12128256 -0.078553945 1.1855717 4357059
-0.082556881 -0.060449269 1.1933403 4093886
-0.077874608 -0.059910707 1.1958693 4291009
0.11511721 -0.067059785 1.1889805 4686026
0.12104093 -0.067338705 1.185683 4685769
-0.080724232 -0.053233087 1.1920168 4159935
-0.075550519 -0.050973065 1.1947372 4225985
0.1082526 -0.05685294 1.1901754 5015248
0.11420488 -0.058321271 1.1873108 5014991
-0.0722038 -0.041263476 1.1939845 4292037
-0.066860043 -0.043686673 1.195681 4619977
-0.043837361 -0.037673626 1.1950289 5279449
-0.035866406 -0.037961397 1.1947812 5016538
-0.023382023 -0.039552823 1.1943827 4950743
-0.013931353 -0.041571531 1.1940734 4950488
-0.0048383381 -0.041743241 1.1937922 5147351
0.0056343405 -0.041170746 1.1934756 5278422
0.016080014 -0.043856602 1.1922402 5212886
0.025418941 -0.04352368 1.1910946 5278423
0.035426527 -0.043051165 1.1912916 5147094
0.046339467 -0.043862492 1.1921992 4885460
0.055848211 -0.042694859 1.1911901 4950741
0.064990059 -0.042515155 1.1916384 5016279
0.10707936 -0.046939559 1.1889026 5212370
0.11434515 -0.048338242 1.186065 5212369
-0.069874696 -0.0343749 1.193859 4423370
-0.067699924 -0.031253129 1.1934209 4554187
-0.043196946 -0.032668866 1.1947888 5147610
-0.033376306 -0.032279529 1.1927563 5081818
-0.024363074 -0.034881108 1.1924552 5016538
-0.013168372 -0.033848815 1.1922539 5278938
-0.0040503629 -0.033571161 1.1919762 5344730
0.0063433126 -0.034816705 1.1905779 5673948
0.016444305 -0.037413951 1.1891761 5805277
0.025523534 -0.037741736 1.1888939 5541848
0.035778947 -0.036975071 1.1885858 5475544
0.046075627 -0.035073042 1.1882868 5213397
0.056717582 -0.036086425 1.1886564 5082070
0.066478193 -0.035670444 1.1900553 5016536
0.07553488 -0.033835381 1.1913946 5213915
0.086306773 -0.033246547 1.1910689 5279453
0.097221799 -0.034096874 1.1907254 5213659
0.10649321 -0.037340172 1.1888095 5212628
0.11303493 -0.037490461 1.1862057 5146833
-0.067208327 -0.025298722 1.1918602 4554443
-0.041947424 -0.024391681 1.1910919 5016281
-0.034717061 -0.025562227 1.1908588 5147611
-0.0036537275 -0.02759321 1.189885 5411294
0.067253709 -0.025605604 1.1877234 5148123
0.075972393 -0.025926575 1.1876525 5213915
0.086036094 -0.026532382 1.1888773 5213917
0.096800573 -0.026859835 1.1891204 5213659
0.10467333 -0.028861694 1.1868763 5212887
0.097765468 -0.019885793 1.1868384 5279708
0.10230508 -0.020049691 1.1866974 5411037
-0.014668934 -0.17867675 1.1978279 3106213
-0.0089516006 -0.17888317 1.1976503 3105959
0.0022959318 -0.1799438 1.1972947 3105706
0.012774238 -0.17966753 1.1969751 3105960
-0.025282316 -0.17142077 1.1982216 3105700
-0.017883584 -0.17294525 1.1987303 3105957
-0.0087311044 -0.17327568 1.1984459 3106216
0.0015896093 -0.17377624 1.1989744 3106217
0.012232859 -0.17364341 1.1984769 3171752
0.02012945 -0.17343129 1.1978983 3303337
0.031402402 -0.17117628 1.1964811 3369130
0.038263194 -0.17142399 1.1962678 3369132
-0.037452955 -0.15976414 1.1990372 3171753
-0.027803529 -0.16254921 1.2011027 3171752
-0.017468698 -0.16322283 1.2028598 3172010
-0.0083110761 -0.16484208 1.2035137 3172012
0.0017552506 -0.16479671 1.2040006 3237802
0.01242022 -0.16447447 1.2031299 3303338
0.021619108 -0.16483641 1.2030438 3369133
0.031878315 -0.16495736 1.2010064 3369388
0.041993223 -0.16498038 1.2000043 3303853
0.051248681 -0.16412035 1.1976873 3369643
0.061327972 -0.16366485 1.1958661 3303851
-0.054752335 -0.14744744 1.1993498 3303598
-0.046702251 -0.15058318 1.2007884 3303341
-0.038105384 -0.15266789 1.2039351 3303340
-0.028735615 -0.15447471 1.2064888 3369132
-0.020641945 -0.15665379 1.2062199 3303600
0.012739247 -0.15785894 1.2051824 3303598
0.025401078 -0.15831606 1.2047889 3435186
0.03288307 -0.15858617 1.2045563 3369391
0.04266721 -0.15893942 1.2042524 3369392
0.052556328 -0.15637329 1.2033564 3369390
0.062043287 -0.1556114 1.1994853 3435184
0.071361467 -0.15429142 1.1954091 3369392
-0.055424601 -0.14042154 1.200236 3369646
-0.048238337 -0.14304957 1.2047931 3303853
-0.041026376 -0.1466931 1.2069389 3173034
0.054810107 -0.1483081 1.2039776 3566773
0.063013986 -0.14728758 1.2030678 3566516
0.072792985 -0.14572829 1.1998467 3500977
0.082591996 -0.14670926 1.1968192 3500975
-0.065171085 -0.12808922 1.1998495 3632562
-0.05632218 -0.13151459 1.2025472 3501236
-0.048683159 -0.13201262 1.2068657 3501494
0.075457372 -0.13677308 1.2034496 3698612
0.08293087 -0.1373592 1.2008497 3567283
0.091788933 -0.1352092 1.1978928 3567283
0.099220626 -0.13238782 1.1947556 3501747
-0.072008029 -0.11818771 1.2001514 3895478
-0.066447511 -0.1209528 1.2024561 3698613
-0.057475537 -0.12227379 1.2063369 3633080
0.077136941 -0.13020344 1.2034589 3699128
0.083805166 -0.127251 1.2032813 3830713
0.093252756 -0.12719269 1.2017908 3699126
0.09991093 -0.12599811 1.1947936 3633333
-0.073023729 -0.11013275 1.2002573 3961271
-0.066147402 -0.11088606 1.2050415 3896247
-0.059422389 -0.11374234 1.2078098 3764921
0.083951399 -0.12030224 1.2033411 3962300
0.094879337 -0.11817866 1.2025541 3896506
0.102312 -0.11649957 1.1968088 3764920
-0.074000195 -0.10078587 1.2018747 3830712
-0.066975072 -0.10066169 1.2068292 4093627
0.098249972 -0.10744257 1.2030208 4028352
0.10349593 -0.10697781 1.1975278 3962812
-0.074009649 -0.090466768 1.2024709 3962556
-0.06745109 -0.091888875 1.2078146 4028606
0.098101765 -0.09702643 1.2031219 4357317
0.10437684 -0.097407214 1.1989233 4225985
0.10978241 -0.09382315 1.1947883 4225985
-0.073191218 -0.081482038 1.2025291 4028606
-0.068254016 -0.081905603 1.2083764 4094655
0.098919839 -0.089017257 1.2031709 4554695
0.10468618 -0.087025829 1.1984098 4554182
0.11084971 -0.085461572 1.1948329 4619462
-0.073532902 -0.070797101 1.2011083 4159424
-0.065337867 -0.070160672 1.2071642 4160448
-0.058940656 -0.068789095 1.2082117 4554440
0.099865913 -0.075675532 1.2032655 4620747
0.10532545 -0.076871589 1.2008355 4686026
0.11150815 -0.077848881 1.1948832 4619977
-0.07257688 -0.061158024 1.2006974 4291265
-0.064361446 -0.06150898 1.2056943 4357573
-0.058689453 -0.061879594 1.2082679 4751563
0.015460772 -0.061866067 1.2059884 4818903
0.023162521 -0.061375391 1.2057562 4819160
0.098334014 -0.06708733 1.2033921 4752590
0.10565738 -0.067675978 1.2009104 4817869
0.1106558 -0.069799826 1.1949841 4752076
-0.070243269 -0.051650539 1.2007138 4291778
-0.064121522 -0.051199578 1.2041106 4554440
-0.058396384 -0.053818524 1.2083336 4883149
-0.039692864 -0.0473825 1.2038163 5674209
-0.033956509 -0.047589596 1.203638 5082331
-0.02265124 -0.050854087 1.2051277 4950745
-0.013481166 -0.05290198 1.202359 4884953
-0.004309576 -0.053222321 1.2018739 4753366
0.0060845837 -0.05250993 1.2027615 4884692
0.016575035 -0.054505505 1.2015756 4884692
0.025371725 -0.054105636 1.2019643 4884692
0.035676539 -0.053306505 1.2041122 4950484
0.04651425 -0.054634131 1.201988 4950488
0.055324171 -0.054700188 1.2027105 4950489
0.066004284 -0.053645961 1.2034435 5411037
0.075018555 -0.053734511 1.2042327 5542623
0.089192495 -0.05222832 1.2038109 5213404
0.096857592 -0.055387791 1.203546 5081558
0.10500184 -0.057904195 1.2008711 5015248
-0.064635754 -0.041380122 1.2006366 4685772
-0.04238335 -0.04172818 1.2010407 5542365
-0.033428118 -0.042232405 1.2008127 4951002
-0.024745423 -0.043564077 1.1993899 4884951
-0.015561804 -0.045770045 1.1990871 4753366
-0.0017986298 -0.045121465 1.19867 4950484
0.0070528286 -0.045727383 1.1983924 5015763
0.0370376 -0.047669023 1.1974525 5015764
0.043898389 -0.047916718 1.1972393 4885461
0.055858746 -0.047366686 1.1968766 4884950
0.066731438 -0.046709999 1.1983956 5082072
0.076229438 -0.045937374 1.2010661 5542624
0.085830599 -0.047462128 1.203158 5279197
0.09593042 -0.046554398 1.2000545 5213144
0.10300515 -0.04928698 1.1954094 5212627
0.070530817 -0.039714459 1.1964965 5016538
0.076310515 -0.03820492 1.1963328 5213917
0.085929506 -0.036070332 1.1960568 5345245
0.096204832 -0.038758013 1.1963831 5213917
0.1874526 -0.044244841 1.2008641 13158081
-0.007994283 -0.15997526 1.2098024 3303598
0.0047094077 -0.16043389 1.2094076 3303850
-0.036017906 -0.14831999 1.2107719 3303853
-0.0263054 -0.15027067 1.2108126 3304111
-0.016768862 -0.15274945 1.2122455 3303857
-0.0076929294 -0.15340734 1.2126054 3303856
0.0027303658 -0.15381712 1.2125313 3369903
0.013087612 -0.15263802 1.2092222 3435441
0.022111148 -0.15387714 1.2089334 3435187
0.032600597 -0.15361793 1.2086133 3500978
0.043114513 -0.15372206 1.208289 3369649
0.049871627 -0.15234636 1.2080941 3435441
-0.04390743 -0.14055383 1.2110865 3370159
-0.037391111 -0.14156038 1.2108768 3370416
-0.026987534 -0.14221734 1.2128021 3436469
-0.016551752 -0.14293957 1.2152259 3502005
-0.0072746519 -0.14327449 1.2149376 3501749
0.0030355491 -0.14713173 1.2145848 3501493
0.01355516 -0.14386623 1.2130411 3567542
0.02286352 -0.14432248 1.2136886 3567541
0.033233099 -0.14454602 1.2121797 3633333
0.043505795 -0.1445958 1.2092996 3567541
0.052090365 -0.14416794 1.2081016 3633079
0.062195655 -0.14234608 1.2078079 3632566
-0.043984357 -0.13206708 1.2111675 3501750
-0.037068352 -0.13260816 1.2134511 3567798
-0.028623257 -0.13347846 1.2156848 3633848
-0.015181225 -0.1371807 1.2152371 3633591
-0.0082233977 -0.13743189 1.2150209 3699128
0.013851892 -0.1370672 1.2143456 3830714
0.024288628 -0.13744399 1.2140212 3764921
0.033811085 -0.13683732 1.2137341 3830712
0.044377644 -0.13630071 1.2130569 3830713
