# .PCD v0.7 - Point Cloud Data file format
VERSION 0.7
FIELDS x y z rgba
SIZE 4 4 4 4
TYPE F F F U
COUNT 1 1 1 1
WIDTH 174
HEIGHT 1
VIEWPOINT 0 0 0 1 0 0 0
POINTS 174
DATA ascii
-0.0091594197 -0.037935369 1.0785681 5134174
-0.00322886 -0.040238671 1.0758175 5134176
-0.0081949811 -0.035056308 1.0821615 4871515
-0.022415901 -0.052232504 1.0717285 4936281
-0.013251645 -0.055833489 1.0674261 5199967
-0.0086054429 -0.056811094 1.0662981 5397348
-0.028183233 -0.046356872 1.0784404 4673880
-0.020959299 -0.04672496 1.0750597 4870232
-0.01184292 -0.04915382 1.073356 5068382
-0.0023922734 -0.051321834 1.0717084 5068384
0.0055269934 -0.052715689 1.0716462 4476504
-0.025656885 -0.039590791 1.084711 4607822
-0.018899076 -0.039957717 1.0822543 4673623
-0.0086622816 -0.042605385 1.0791558 5134174
0.0015457496 -0.044163764 1.0774095 4739419
0.0088781416 -0.04686971 1.0762349 4081746
-0.023291942 -0.035872616 1.0920302 4410445
-0.014975147 -0.034570962 1.089017 4213839
-0.004996717 -0.036332995 1.0870136 4345429
0.0044724718 -0.038597472 1.0843767 4016211
0.012108013 -0.041333638 1.08296 3621193
-0.012726486 -0.031459421 1.092923 3884109
-0.0034842212 -0.032757297 1.0914824 3752784
0.0064236261 -0.034886599 1.0890216 3621192
0.013033934 -0.03699559 1.0865247 3686459
-0.034259137 -0.065911964 1.0711495 4673626
-0.026767863 -0.065870032 1.0668111 4870741
-0.018403899 -0.068542853 1.0639408 5265754
-0.0085964538 -0.070345685 1.0623097 5397604
0.00033972412 -0.07273531 1.0642277 4608350
-0.032398015 -0.057295024 1.075621 4673629
-0.024872731 -0.058200225 1.0711813 4870744
-0.017301738 -0.060565956 1.0678519 5134174
-0.0049425475 -0.062360719 1.0668919 5397606
0.0031423829 -0.066799611 1.0681721 4476760
0.010318808 -0.067350507 1.0711001 4015442
-0.036529504 -0.054493681 1.0861994 3883351
-0.033148758 -0.051133588 1.0821429 4475995
-0.0020544268 -0.058162078 1.0711199 5068641
0.0076283626 -0.059703335 1.0726584 4082513
0.01360378 -0.063682243 1.0749195 3752531
-0.03122168 -0.044017665 1.0891026 4079443
0.012320846 -0.054259166 1.0786254 3621705
0.015864495 -0.058988586 1.0777607 3751503
0.013137799 -0.048264481 1.0836936 3490378
-0.02903948 -0.088097394 1.062145 5002588
-0.025999241 -0.088750772 1.0613899 5528419
-0.036179952 -0.080226101 1.0717883 4739163
-0.03015043 -0.081117809 1.0660975 5002333
-0.021220544 -0.083195463 1.063594 5397092
-0.011851106 -0.084930129 1.0637773 5332066
-0.0057778191 -0.086759821 1.0642372 4740695
-0.036233321 -0.073485531 1.0717871 4082256
-0.029966503 -0.07422629 1.0681927 5068120
-0.0080546867 -0.080147743 1.0644338 5200736
0.00077363104 -0.081494853 1.066331 4345175
0.0080914535 -0.083583742 1.0675275 4278096
0.0063210167 -0.073862448 1.0706837 4147028
0.010704324 -0.078305811 1.071759 3819087
0.012913376 -0.070889503 1.0750449 3687502
-0.026056597 -0.10520536 1.058494 5528423
-0.021795223 -0.10576567 1.0578771 5397348
-0.033341497 -0.094279639 1.0634235 4804702
-0.024387175 -0.09588635 1.0606695 5462626
-0.015280195 -0.099436253 1.0605432 5003105
-0.0064954963 -0.099708371 1.0618563 4804440
-0.038926385 -0.087476492 1.0738952 3817824
-0.034377079 -0.0877994 1.0672001 4673622
-0.019135254 -0.091075018 1.0634143 5660265
-0.01162971 -0.09166117 1.0628254 5069150
-0.0021903701 -0.093395106 1.0640361 4475986
0.0043191351 -0.091962658 1.0659359 4014924
0.0024899542 -0.088662811 1.0668108 4606547
0.0086921677 -0.088780366 1.0675771 3620428
-0.034488708 -0.11336961 1.0593604 4079956
-0.028495163 -0.11352235 1.055637 5266270
-0.022816233 -0.11623584 1.056017 5002845
-0.035275429 -0.10756521 1.0633653 4079963
-0.028828576 -0.10910231 1.0583867 5330781
-0.018153701 -0.11121663 1.0585849 5002331
-0.013135353 -0.10705702 1.0612175 5001816
-0.0082930252 -0.10715312 1.0631014 4540755
-0.0018958114 -0.10305656 1.0663941 4213074
-0.032234088 -0.13026351 1.0575564 5265766
-0.032034703 -0.12511843 1.0593939 5068639
-0.023240946 -0.12554286 1.0582703 4214103
-0.037787028 -0.11572078 1.0627577 1580089
-0.017092822 -0.1194808 1.0595345 4145996
-0.012680143 -0.11609112 1.0627631 4212054
-0.038701035 -0.13191229 1.0601726 3618132
-0.033827122 -0.13368456 1.0580617 5199718
-0.027225111 -0.13437858 1.0573221 4214875
-0.047560848 -0.18204254 1.0232635 528927
-0.042903543 -0.18348438 1.0215591 1517876
-0.046968531 -0.198522 1.0219433 4419983
-0.059187576 -0.18982846 1.0293245 1651559
-0.05373583 -0.18803722 1.0266385 1782104
-0.04299153 -0.19035834 1.020595 4154236
-0.037073929 -0.19236745 1.0243031 3028033
-0.048820607 -0.18847239 1.03439 2369321
-0.041381083 -0.18732542 1.0302118 2040105
-0.042707928 -0.17399412 1.0461059 4146252
-0.06055472 -0.20059928 1.0318685 5077683
-0.054867692 -0.20248355 1.0275075 4617364
-0.04602972 -0.20463207 1.025003 4549258
-0.039284404 -0.20043963 1.0260825 6582660
-0.057913437 -0.19047651 1.0381109 7695014
-0.049442727 -0.19034979 1.0394883 2040625
-0.041353907 -0.19075757 1.0380687 2172202
-0.036469046 -0.19508512 1.0327846 2760198
-0.059061091 -0.21492718 1.0268586 4683677
-0.0536457 -0.21609101 1.0255135 3831442
-0.064146504 -0.20839265 1.0330575 3299734
-0.058121365 -0.21004899 1.0288755 4683420
-0.050144322 -0.21283312 1.0270731 3960460
-0.088475198 -0.26683813 0.98257339 3829135
-0.08060132 -0.2682122 0.98101276 4223637
-0.07482636 -0.26974967 0.97921038 3960467
-0.086325496 -0.26110953 0.98972774 3498881
-0.078172825 -0.26224694 0.98782843 3895695
-0.070302062 -0.26337224 0.98721457 3631246
-0.082695134 -0.25216138 0.99612427 3499128
-0.076060429 -0.25411671 0.99381888 4025235
-0.067420214 -0.25679439 0.99361479 3499655
-0.079169668 -0.24516486 1.0016897 3826560
-0.072787039 -0.24695709 1.0003794 4156303
-0.065418519 -0.25085685 0.99965918 3630985
-0.076008491 -0.24190745 1.0105774 3893387
-0.069624275 -0.24185662 1.0082785 4157333
-0.062506065 -0.24465959 1.008207 3762828
-0.071774721 -0.23878378 1.0177245 3762325
-0.065517575 -0.23556882 1.0159864 4420507
-0.059690863 -0.23875478 1.0158583 3828877
-0.068557411 -0.23034729 1.0282617 4222878
-0.062265988 -0.22999538 1.0228622 4552347
-0.056546777 -0.23379107 1.0229316 3631755
-0.067687035 -0.22093536 1.0310371 3627913
-0.059983648 -0.22210759 1.0264285 4683676
-0.052812465 -0.22509554 1.0275377 3892613
-0.049411178 -0.21806122 1.0311182 3563127
-0.09313488 -0.27657419 0.97905201 3033484
-0.085556671 -0.2807287 0.97785181 2897991
-0.07573007 -0.28192759 0.97576326 3891064
-0.068343379 -0.28431955 0.97558713 2638186
-0.09411031 -0.26924697 0.98585588 666715
-0.084453873 -0.27280498 0.98161596 4813457
-0.070627637 -0.27383026 0.98059881 3499654
-0.063818574 -0.27809536 0.98130286 3561592
-0.091184177 -0.26235309 0.99447179 6722
-0.067778066 -0.26814649 0.98771054 3694979
-0.061481543 -0.27089602 0.98760164 3233144
-0.063035376 -0.26229715 0.99506289 3104639
-0.058620416 -0.26572508 0.99596113 2640231
-0.060665976 -0.2563957 1.002436 2907007
-0.056616906 -0.2608999 1.0041653 3099492
-0.07815443 -0.24454761 1.0168265 4089741
-0.058060009 -0.25090796 1.0098692 3496061
-0.053667899 -0.25474074 1.012594 4278874
-0.073433772 -0.24021991 1.0222887 2972810
-0.05547234 -0.24541874 1.0183393 3757171
-0.052236773 -0.24968408 1.0189005 3748927
-0.070532642 -0.23702751 1.0263071 3630740
-0.052596785 -0.24011894 1.0228002 3953004
-0.088170163 -0.28833264 0.97661406 984897
-0.077000052 -0.28817046 0.97702247 4350584
-0.059738066 -0.27655631 0.99282938 4674411
-0.057167634 -0.27330858 1.0006313 6974583
-0.05537419 -0.2663725 1.0092787 3815753
-0.082182512 -0.25117785 1.0228689 5799072
-0.051560879 -0.25852758 1.0143083 5064001
-0.061638542 -0.28973061 0.99609935 7039097
-0.060106896 -0.28702271 1.0010853 7565430
-0.058058627 -0.28148052 1.0074748 8223350
-0.055694483 -0.2728858 1.0107512 9076613
