# .PCD v0.7 - Point Cloud Data file format
VERSION 0.7
FIELDS x y z rgba
SIZE 4 4 4 4
TYPE F F F U
COUNT 1 1 1 1
WIDTH 174
HEIGHT 1
VIEWPOINT 0 0 0 1 0 0 0
POINTS 174
DATA ascii
-0.0029870477 -0.033233188 1.0828863 5134174
0.0030806903 -0.035365537 1.080302 5134176
-0.0022056159 -0.03037668 1.0865418 4871515
-0.015679741 -0.047747523 1.07546 4936281
-0.0063008722 -0.051083714 1.0714142 5199967
-0.001599377 -0.051940188 1.0704254 5397348
-0.021794619 -0.042088583 1.0820493 4673880
-0.014459709 -0.042248905 1.078899 4870232
-0.00523917 -0.044446126 1.0774624 5068382
0.0043074805 -0.046375588 1.0760956 5068384
0.012255158 -0.047585748 1.0762726 4476504
-0.019629078 -0.035343021 1.0884749 4607822
-0.012789486 -0.035524182 1.0862334 4673623
-0.0023997072 -0.037897319 1.0834363 5134174
0.0078926049 -0.039198697 1.0820022 4739419
0.015320141 -0.041720465 1.0810337 4081746
-0.017586948 -0.031660825 1.0959086 4410445
-0.0092108855 -0.030131266 1.0931802 4213839
0.00086499751 -0.031638384 1.0914793 4345429
0.010464042 -0.033651784 1.0891232 4016211
0.018202938 -0.036193833 1.0879222 3621193
-0.0071616694 -0.02701658 1.0971919 3884109
0.00214977 -0.028083533 1.0960352 3752784
0.012178339 -0.029953822 1.0938708 3621192
0.018912625 -0.031879365 1.0915644 3686459
-0.027174814 -0.061688155 1.074343 4673626
-0.019551778 -0.061420754 1.0702491 4870741
-0.011040068 -0.063864976 1.0676194 5265754
-0.0011459813 -0.065421358 1.0662848 5397604
0.0077778585 -0.067627661 1.0684623 4608350
-0.025659839 -0.053085759 1.0789706 4673629
-0.017977402 -0.053763166 1.0747656 4870744
-0.010250563 -0.055913076 1.0716552 5134174
0.0021716356 -0.057410777 1.0710734 5397606
0.010313265 -0.061677486 1.0725627 4476760
0.017403401 -0.062098533 1.0757139 4015442
-0.030191706 -0.050509498 1.0894415 3883351
-0.026762692 -0.047023222 1.0855349 4475995
0.0048240572 -0.053198546 1.07544 5068641
0.014486182 -0.054534934 1.0772721 4082513
0.020477846 -0.058402389 1.0796788 3752531
-0.025226165 -0.039950132 1.0926341 4079443
0.01885682 -0.04905723 1.0834491 3621705
0.022536069 -0.053692862 1.0826451 3751503
0.019370791 -0.043107532 1.0886092 3490378
-0.021151962 -0.083636038 1.0652581 5002588
-0.018074678 -0.084209949 1.064594 5528419
-0.028779313 -0.076049477 1.0747558 4739163
-0.022551794 -0.076732591 1.0692524 5002333
-0.013500267 -0.078573279 1.0670145 5397092
-0.0041034184 -0.080093727 1.0674797 5332066
0.0019932557 -0.081788465 1.0681142 4740695
-0.028990457 -0.069312409 1.0748299 4082256
-0.022596357 -0.069864713 1.0714312 5068120
-0.00044295937 -0.075233489 1.068313 5200736
0.0083493553 -0.07639987 1.0704781 4345175
0.015672125 -0.078334019 1.0718858 4278096
0.013574552 -0.068695299 1.0750945 4147028
0.018024124 -0.073049262 1.0762595 3819087
0.019952763 -0.065624624 1.0796994 3687502
-0.0176541 -0.10062497 1.0615096 5528423
-0.013363237 -0.10107939 1.061024 5397348
-0.02534667 -0.089930885 1.0663265 4804702
-0.016273752 -0.091297179 1.0638444 5462626
-0.0070867464 -0.094634511 1.063971 5003105
0.0016554687 -0.09472014 1.0655633 4804440
-0.031421106 -0.083386362 1.07669 3817824
-0.026653877 -0.083522737 1.0701417 4673622
-0.011226338 -0.086399928 1.0668119 5660265
-0.0036941413 -0.086805776 1.0664586 5069150
0.0057397094 -0.088336393 1.0679529 4475986
0.012149855 -0.086777605 1.0700777 4014924
0.010216869 -0.083531693 1.070931 4606547
0.016392484 -0.083515652 1.0718954 3620428
-0.025916079 -0.10899128 1.0620104 4079956
-0.019804683 -0.10896049 1.0584806 5266270
-0.014078807 -0.11154685 1.0590124 5002845
-0.026966089 -0.10325579 1.0660541 4079963
-0.020329213 -0.10458314 1.0612684 5330781
-0.0096195377 -0.10645323 1.0617865 5002331
-0.0047866646 -0.10221149 1.0646269 5001816
-6.0871243e-006 -0.10221895 1.0666646 4540755
0.0061849561 -0.09801653 1.0702084 4213074
-0.023209939 -0.12580551 1.0600867 5265766
-0.023189917 -0.12067997 1.0619885 5068639
-0.014357227 -0.12088796 1.0611442 4214103
-0.029265303 -0.11145905 1.0652726 1580089
-0.0083962958 -0.11470172 1.0626752 4145996
-0.0041696262 -0.11125086 1.0660828 4212054
-0.02971679 -0.1276346 1.0624741 3618132
-0.024737753 -0.12926826 1.0605013 5199718
-0.018101038 -0.12980092 1.059967 4214875
-0.036216252 -0.1775021 1.0247276 528927
-0.031474374 -0.17881538 1.0231577 1517876
-0.035196278 -0.19394623 1.0232387 4419983
-0.047845185 -0.1856271 1.0303212 1651559
-0.042353839 -0.18367815 1.027833 1782104
-0.031370502 -0.18567728 1.0221126 4154236
-0.02552898 -0.18759455 1.0259863 3028033
-0.037679974 -0.18409441 1.0357333 2369321
-0.030139638 -0.18272549 1.0318104 2040105
-0.032285526 -0.16962302 1.047805 4146252
-0.049040295 -0.19645679 1.0326962 5077683
-0.043174259 -0.19815624 1.0284997 4617364
-0.03421288 -0.20006987 1.0262569 4549258
-0.027605539 -0.1957366 1.0276011 6582660
-0.046837628 -0.1863527 1.0391361 7695014
-0.038420547 -0.18604763 1.0407871 2040625
-0.030283164 -0.18625161 1.0396243 2172202
-0.025131943 -0.19040075 1.0344514 2760198
-0.047052208 -0.21068436 1.0275736 4683677
-0.041570835 -0.21170661 1.0263906 3831442
-0.052484736 -0.20434476 1.0336797 3299734
-0.04629191 -0.20581074 1.0296754 4683420
-0.038198337 -0.20838818 1.0280994 3960460
-0.073812425 -0.26271561 0.98177236 3829135
-0.065862693 -0.26388878 0.98045069 4223637
-0.059998661 -0.26527071 0.97881782 3960467
-0.072027184 -0.25702661 0.98905736 3498881
-0.063793585 -0.25795263 0.98740888 3895695
-0.055883035 -0.25888872 0.98703617 3631246
-0.068813622 -0.24807583 0.99566954 3499128
-0.062064659 -0.24984951 0.99355692 4025235
-0.053362004 -0.25232476 0.99360079 3499655
-0.065632612 -0.24106829 1.0014253 3826560
-0.059171151 -0.24269688 1.000301 4156303
-0.051694073 -0.24641678 0.9997741 3630985
-0.062834203 -0.23784748 1.0104471 3893387
-0.056382727 -0.23762156 1.0083557 4157333
-0.049202181 -0.24025869 1.0084817 3762828
-0.058905289 -0.23471443 1.0177622 3762325
-0.052672803 -0.23133522 1.0162635 4420507
-0.046771962 -0.23438428 1.0162868 3828877
-0.056224778 -0.22633512 1.0284934 4222878
-0.049774006 -0.22577257 1.0233039 4552347
-0.043972611 -0.22943603 1.0235142 3631755
-0.055664189 -0.21694016 1.0314029 3627913
-0.047792137 -0.21787833 1.0270318 4683676
-0.040592048 -0.22071356 1.0283374 3892613
-0.03747258 -0.21364692 1.0321058 3563127
-0.078127921 -0.27251279 0.97799146 3033484
-0.070420012 -0.27647668 0.97698861 2897991
-0.060506314 -0.27742326 0.97520429 3891064
-0.053063773 -0.27964211 0.97523898 2638186
-0.079491593 -0.26529345 0.98484373 666715
-0.069623932 -0.26857609 0.9808768 4813457
-0.055752035 -0.26927009 0.98029411 3499654
-0.048870929 -0.27338541 0.98116839 3561592
-0.077004515 -0.25843954 0.99362779 6722
-0.053265058 -0.26360926 0.98755854 3694979
-0.046905603 -0.26621145 0.98762119 3233144
-0.048898015 -0.25774229 0.99512637 3104639
-0.044434942 -0.26107824 0.99612719 2640231
-0.046904277 -0.25187808 1.0026391 2907007
-0.042808153 -0.25630856 1.0044463 3099492
-0.065116301 -0.24061236 1.0165931 4089741
-0.044666395 -0.24642277 1.0102147 3496061
-0.040275037 -0.25018626 1.0130357 4278874
-0.060675241 -0.23624393 1.0222538 2972810
-0.042479962 -0.24097903 1.0188261 3757171
-0.039164975 -0.24517521 1.0194424 3748927
-0.057979561 -0.23303476 1.0263999 3630740
-0.039873324 -0.23566914 1.0234376 3953004
-0.072813831 -0.28412315 0.97558039 984897
-0.061669335 -0.28370863 0.97635043 4350584
-0.045197979 -0.27189338 0.99283731 4674411
-0.042954929 -0.2686826 1.0007547 6974583
-0.041601647 -0.26181298 1.0095341 3815753
-0.069179028 -0.24740678 1.0224262 5799072
-0.038135763 -0.25394416 1.0147735 5064001
-0.046892919 -0.28514683 0.9958933 7039097
-0.045585208 -0.28246534 1.0009568 7565430
-0.043872509 -0.27695572 1.0074719 8223350
-0.041816205 -0.26834935 1.010921 9076613
