# .PCD v0.7 - Point Cloud Data file format
VERSION 0.7
FIELDS x y z rgba
SIZE 4 4 4 4
TYPE F F F U
COUNT 1 1 1 1
WIDTH 174
HEIGHT 1
VIEWPOINT 0 0 0 1 0 0 0
POINTS 174
DATA ascii
0.073647246 -0.028223626 1.0868566 5134174
0.079852566 -0.03093265 1.0853741 5134176
0.073992245 -0.025563061 1.0907211 4871515
0.061227281 -0.041085042 1.0765004 4936281
0.070824653 -0.045311019 1.0741568 5199967
0.075517334 -0.046645239 1.0740386 5397348
0.054558568 -0.034968883 1.0820642 4673880
0.062309507 -0.035840601 1.0803573 4870232
0.071363211 -0.03898447 1.080595 5068382
0.080748796 -0.041899264 1.0809752 5068384
0.08834824 -0.043965928 1.0825996 4476504
0.056112327 -0.028664082 1.0890868 4607822
0.063202113 -0.029526249 1.0881763 4673623
0.073642105 -0.032936484 1.087293 5134174
0.083831929 -0.035306014 1.0877775 4739419
0.0910125 -0.038590521 1.0881195 4081746
0.057040755 -0.025416158 1.096934 4410445
0.065897241 -0.024731874 1.0959157 4213839
0.075906597 -0.027275622 1.0960881 4345429
0.085526049 -0.030254148 1.095504 4016211
0.093053401 -0.033586517 1.0956759 3621193
0.067436695 -0.021960959 1.1003819 3884109
0.076639399 -0.023998551 1.1009631 3752784
0.086655468 -0.026886225 1.1006551 3621192
0.093478486 -0.029468924 1.0995809 3686459
0.048814345 -0.05366762 1.0725859 4673626
0.0570722 -0.054121226 1.0700277 4870741
0.065639809 -0.057403311 1.0689496 5265754
0.075395979 -0.059985749 1.0694443 5397604
0.083460525 -0.063199222 1.0731699 4608350
0.050268754 -0.045401007 1.0778069 4673629
0.058510441 -0.046797149 1.0751076 4870744
0.06643483 -0.049689531 1.0734227 5134174
0.078518555 -0.05250635 1.0751377 5397606
0.085744284 -0.057665229 1.0779455 4476760
0.09201172 -0.058931202 1.0823607 4015442
0.0440825 -0.042619169 1.0873363 3883351
0.048536941 -0.039425105 1.0843147 4475995
0.080689147 -0.048719019 1.0801167 5068641
0.089629024 -0.051138952 1.0836835 4082513
0.094619617 -0.055692092 1.087002 3752531
0.049379796 -0.03274405 1.0918937 4079443
0.093254499 -0.046326227 1.0908219 3621705
0.096531406 -0.051310375 1.0905176 3751503
0.093360603 -0.040601291 1.0962536 3490378
0.05422724 -0.075897858 1.0638089 5002588
0.057300687 -0.076783948 1.0637144 5528419
0.045715332 -0.067777045 1.0720271 4739163
0.052787598 -0.068988234 1.0677782 5002333
0.061867367 -0.071738943 1.0672143 5397092
0.070793927 -0.074278057 1.0693818 5332066
0.076449528 -0.076637849 1.0710818 4740695
0.046176735 -0.061060786 1.0723692 4082256
0.053017925 -0.062213957 1.0702223 5068120
0.074696966 -0.06986513 1.0711161 5200736
0.082740769 -0.072030589 1.0748526 4345175
0.089419186 -0.074780732 1.0775323 4278096
0.087727308 -0.065057173 1.0807245 4147028
0.091403797 -0.0698952 1.0825105 3819087
0.0933723 -0.062813334 1.086591 3687502
0.056646202 -0.093063667 1.060015 5528423
0.060881555 -0.093966819 1.0603311 5397348
0.049290039 -0.081727497 1.0637726 4804702
0.058485892 -0.0840028 1.0629951 5462626
0.067089297 -0.088316165 1.0647072 5003105
0.075304322 -0.089387469 1.067922 4804440
0.042020775 -0.07483241 1.0730864 3817824
0.047925282 -0.075315528 1.067561 4673622
0.063333586 -0.07975781 1.0670872 5660265
0.070711508 -0.080966592 1.0681496 5069150
0.079474211 -0.083546206 1.0713329 4475986
0.085476875 -0.082744747 1.0747033 4014924
0.083753988 -0.079331793 1.0753231 4606547
0.089595973 -0.080008395 1.0774401 3620428
0.047639839 -0.10049756 1.058556 4079956
0.054289475 -0.10103732 1.0562537 5266270
0.05951282 -0.10424047 1.0577416 5002845
0.046413824 -0.094787754 1.0625864 4079963
0.053681605 -0.09670186 1.0590897 5330781
0.063843787 -0.099731758 1.0615417 5002331
0.068440348 -0.09611176 1.0654384 5001816
0.072711021 -0.09668839 1.0683427 4540755
0.078493044 -0.093272366 1.073185 4213074
0.048951034 -0.11745093 1.0564098 5265766
0.049121626 -0.11240809 1.0585144 5068639
0.057883639 -0.11354828 1.0593507 4214103
0.043490916 -0.10267153 1.0610074 1580089
0.06403099 -0.10808422 1.0622663 4145996
0.067846261 -0.1051992 1.066568 4212054
0.04195435 -0.11862628 1.0574341 3618132
0.047029447 -0.12073765 1.0563679 5199718
0.053555615 -0.12197098 1.0570773 4214875
0.037862267 -0.16651404 1.0168898 528927
0.042660445 -0.16829169 1.0161886 1517876
0.037481327 -0.1829284 1.0148677 4419983
0.024609908 -0.17347462 1.0197989 1651559
0.030647203 -0.17206775 1.0184888 1782104
0.042269431 -0.1750955 1.0148681 4154236
0.047027271 -0.17773193 1.0196865 3028033
0.033638958 -0.17318946 1.0271041 2369321
0.041894522 -0.17254381 1.0247486 2040105
0.038034163 -0.15970062 1.0406312 4146252
0.021888465 -0.18416889 1.0214044 5077683
0.028252456 -0.18638453 1.0183221 4617364
0.037237816 -0.18919785 1.017733 4549258
0.043864585 -0.18564039 1.0205028 6582660
0.023815624 -0.17453071 1.0286021 7695014
0.031741548 -0.17518008 1.0318308 2040625
0.039886981 -0.17623293 1.0322232 2172202
0.045494244 -0.18078077 1.0279354 2760198
0.023379147 -0.19839193 1.0161034 4683677
0.028853687 -0.19997026 1.0159349 3831442
0.017538644 -0.19166075 1.0213538 3299734
0.024208002 -0.19368464 1.0185328 4683420
0.032150377 -0.1970809 1.0184027 3960460
0.0008527711 -0.24603251 0.96371967 3829135
0.0087477155 -0.2480242 0.96387625 4223637
0.014646243 -0.24998979 0.9633227 3960467
0.001762338 -0.24075864 0.97146451 3498881
0.010022499 -0.24252701 0.97136563 3895695
0.017719742 -0.24430318 0.9724564 3631246
0.0045259818 -0.23238038 0.97896993 3499128
0.011341222 -0.23481873 0.97809553 4025235
0.01957518 -0.23822084 0.97967434 3499655
0.0072267614 -0.22590783 0.98553997 3826560
0.01358505 -0.22819625 0.98558712 4156303
0.020607356 -0.23268813 0.98631656 3630985
0.0085395351 -0.22324094 0.99506688 3893387
0.015262716 -0.22366044 0.99424881 4157333
0.021978997 -0.22706097 0.99561214 3762828
0.011276659 -0.22073978 1.00313 3762325
0.017990645 -0.21801703 1.0029967 4420507
0.023436211 -0.2216859 1.0039978 3828877
0.012665939 -0.21297744 1.0145481 4222878
0.020021459 -0.21298285 1.0107067 4552347
0.025271649 -0.21725637 1.0118442 3631755
0.013601307 -0.2037759 1.0179396 3627913
0.022033758 -0.20544744 1.0151013 4683676
0.028521013 -0.20907718 1.0176162 3892613
0.03155192 -0.20248827 1.0222281 3563127
-0.0036192685 -0.25520539 0.95874345 3033484
0.0036956146 -0.25995249 0.95903867 2897991
0.013619564 -0.26191956 0.95912409 3891064
0.020651504 -0.26493031 0.96046686 2638186
-0.0055441968 -0.24805903 0.96553731 666715
0.0045203678 -0.25228667 0.96336603 4813457
0.018100388 -0.2544615 0.96539181 3499654
0.024230169 -0.25931787 0.96736449 3561592
-0.0041216202 -0.24174178 0.97493893 6722
0.019695917 -0.24929096 0.97324812 3694979
0.025626656 -0.25256634 0.97439539 3233144
0.02308841 -0.24412663 0.98176783 3104639
0.026912838 -0.24795023 0.98344207 2640231
0.02417516 -0.23870704 0.98978353 2907007
0.027374825 -0.24359934 0.99212885 3099492
0.0048444495 -0.22589953 1.0005352 4089741
0.025446631 -0.23372178 0.99788845 3496061
0.028805938 -0.23800918 1.0013146 4278874
0.0085262246 -0.22218357 1.0071297 2972810
0.026466478 -0.22876905 1.0069989 3757171
0.029157763 -0.23331352 1.008039 3748927
0.010680154 -0.21939212 1.0118545 3630740
0.028656133 -0.22389218 1.0122598 3953004
0.00085790455 -0.26725665 0.95685256 984897
0.011626914 -0.26806957 0.95973909 4350584
0.025709704 -0.25853151 0.97957397 4674411
0.026693005 -0.25578621 0.98791194 6974583
0.027011586 -0.24933061 0.99709493 3815753
-0.00093566626 -0.23236212 1.0051743 5799072
0.030177366 -0.2420197 1.003252 5064001
0.022123542 -0.27159792 0.98164135 7039097
0.022692218 -0.26920432 0.98697853 7565430
0.023661677 -0.26408112 0.99394625 8223350
0.025872586 -0.25583887 0.99811429 9076613
