# .PCD v0.7 - Point Cloud Data file format
VERSION 0.7
FIELDS x y z rgba
SIZE 4 4 4 4
TYPE F F F U
COUNT 1 1 1 1
WIDTH 174
HEIGHT 1
VIEWPOINT 0 0 0 1 0 0 0
POINTS 174
DATA ascii
0.082588464 -0.035368994 1.0875561 5134174
0.088741601 -0.037840992 1.0855384 5134176
0.083122537 -0.03292346 1.0915394 4871515
0.069803484 -0.047917895 1.0772609 4936281
0.079317659 -0.051774353 1.0740876 5199967
0.084019661 -0.052987322 1.0736027 5397348
0.063376322 -0.042286754 1.083571 4673880
0.071020216 -0.04287532 1.0813404 4870232
0.080132835 -0.045810468 1.0808356 5068382
0.089580938 -0.048517108 1.0804653 5068384
0.097308129 -0.050490141 1.0814945 4476504
0.065241784 -0.036353335 1.090837 4607822
0.072276026 -0.036993131 1.0894415 4673623
0.082706563 -0.040097743 1.0877186 5134174
0.092952654 -0.042246826 1.0874341 4739419
0.1002057 -0.045372993 1.0871408 4081746
0.066597372 -0.03353256 1.0987866 4410445
0.075356238 -0.03258054 1.0972639 4213839
0.085406102 -0.03489019 1.0966694 4345429
0.095028028 -0.037600406 1.0953205 4016211
0.10261732 -0.040756449 1.0948335 3621193
0.077117868 -0.03003034 1.1017792 3884109
0.086378381 -0.031877145 1.1016715 3752784
0.096411601 -0.034502782 1.1005781 3621192
0.10320427 -0.036857001 1.0989364 3686459
0.057426315 -0.06055215 1.0733999 4673626
0.06551379 -0.060663201 1.070314 4870741
0.074061163 -0.063673608 1.0685201 5265754
0.08387953 -0.066046126 1.0682603 5397604
0.092226677 -0.069271386 1.071288 4608350
0.059039127 -0.052561238 1.0789906 4673629
0.067120709 -0.053605467 1.0757105 4870744
0.074980065 -0.056208 1.0733743 5134174
0.087202631 -0.058827803 1.0741731 5397606
0.094694376 -0.063962996 1.0762254 4476760
0.10125234 -0.065326273 1.080164 4015442
0.053411294 -0.050470576 1.0890292 3883351
0.057600431 -0.047005504 1.0859278 4475995
0.089605734 -0.055276975 1.0792191 5068641
0.098800138 -0.057680294 1.0820801 4082513
0.10408159 -0.062293112 1.0848148 3752531
0.058784012 -0.040744945 1.093814 4079443
0.10277035 -0.053193219 1.0892472 3621705
0.10612205 -0.058072552 1.0884532 3751503
0.10310273 -0.047783315 1.0949843 3490378
0.062724836 -0.082115561 1.0630335 5002588
0.065803543 -0.082921244 1.062698 5528419
0.054585323 -0.074677467 1.0722183 4739163
0.061398529 -0.075477503 1.0674773 5002333
0.070478588 -0.077974334 1.0661948 5397092
0.079573847 -0.080417916 1.0676558 5332066
0.08537218 -0.082734212 1.0688633 4740695
0.054930937 -0.067982152 1.0729194 4082256
0.06164502 -0.068848506 1.0702903 5068120
0.083488122 -0.076018035 1.0693977 5200736
0.091793977 -0.078198358 1.0724981 4345175
0.098682627 -0.080935173 1.0745962 4278096
0.096998483 -0.071450621 1.078444 4147028
0.10087781 -0.076292612 1.0797163 3819087
0.10295567 -0.069407538 1.0840703 3687502
0.065247603 -0.098977014 1.0581104 5528423
0.069511928 -0.09979517 1.0581112 5397348
0.057914559 -0.088050082 1.0629653 4804702
0.067087322 -0.090057574 1.0614902 5462626
0.075867407 -0.094254054 1.0624145 5003105
0.08428897 -0.095308721 1.0650479 4804440
0.051108986 -0.081867613 1.073094 3817824
0.056661669 -0.081896737 1.0671955 4673622
0.072096378 -0.085935913 1.0655135 5660265
0.079549648 -0.087026231 1.0660459 5069150
0.088546328 -0.089571521 1.0685267 4475986
0.094732195 -0.08881858 1.0715603 4014924
0.092982903 -0.085488193 1.0724818 4606547
0.098959357 -0.086143583 1.0741909 3620428
0.056319918 -0.10652959 1.0567833 4079956
0.062820613 -0.1067795 1.0540469 5266270
0.068191394 -0.10993592 1.0550212 5002845
0.055234991 -0.10108745 1.0612055 4079963
0.062305007 -0.10262689 1.0571611 5330781
0.072661079 -0.10554689 1.0588007 5002331
0.077419907 -0.10204401 1.0626086 5001816
0.081876159 -0.1026816 1.0652051 4540755
0.087881647 -0.099407405 1.06987 4213074
0.057837024 -0.12329853 1.0535829 5265766
0.058037642 -0.11837997 1.055961 5068639
0.06685631 -0.119356 1.0561867 4214103
0.052378945 -0.10893701 1.0593567 1580089
0.07306318 -0.11392009 1.0590278 4145996
0.077082917 -0.11119234 1.0632452 4212054
0.05094422 -0.12469661 1.054968 3618132
0.055983748 -0.12662259 1.0534697 5199718
0.062565364 -0.12773781 1.0537016 4214875
0.045275103 -0.17030203 1.0120516 528927
0.050054573 -0.17192215 1.0109533 1517876
0.045100667 -0.1865804 1.0091105 4419983
0.032376774 -0.17773032 1.0153669 1651559
0.038289554 -0.17610791 1.0137695 1782104
0.049719237 -0.17864792 1.009268 4154236
0.054824177 -0.18143791 1.0136224 3028033
0.041841134 -0.17764266 1.022104 2369321
0.049916796 -0.17666802 1.0192839 2040105
0.04680635 -0.16483824 1.0360912 4146252
0.029979754 -0.18856013 1.0165161 5077683
0.036180247 -0.19044554 1.0129232 4617364
0.045165788 -0.19300571 1.0116178 4549258
0.051880524 -0.18945313 1.0141736 6582660
0.032161161 -0.17930061 1.0241264 7695014
0.040286563 -0.17994182 1.0268159 2040625
0.048460223 -0.18082033 1.0266423 2172202
0.053876925 -0.18498349 1.02176 2760198
0.031421445 -0.2024214 1.010319 4683677
0.036905363 -0.20385653 1.0097213 3831442
0.025788415 -0.19613892 1.0163012 3299734
0.032306194 -0.19784039 1.0129608 4683420
0.040291846 -0.20103323 1.0121435 3960460
0.0066064894 -0.24755168 0.95675969 3829135
0.014534388 -0.24935992 0.9563123 4223637
0.020424925 -0.25114968 0.95528233 3960467
0.0078956746 -0.24270344 0.96472561 3498881
0.016167339 -0.24426565 0.96401405 3895695
0.02395254 -0.24591625 0.96452212 3631246
0.010956723 -0.23469885 0.97251797 3499128
0.01775131 -0.23692046 0.97108424 4025235
0.026135851 -0.24020869 0.97195137 3499655
0.013934713 -0.22854507 0.97927195 3826560
0.020328455 -0.23067997 0.97879338 4156303
0.027472548 -0.23503689 0.97882605 3630985
0.015791595 -0.22638991 0.98883778 3893387
0.022456888 -0.22660187 0.98758268 4157333
0.029313467 -0.22991259 0.98832905 3762828
0.018980697 -0.22428349 0.99684739 3762325
0.025616217 -0.221398 0.99645692 4420507
0.031187477 -0.22498646 0.99690557 3828877
0.020929795 -0.21714747 1.0085877 4222878
0.028026856 -0.21676025 1.004305 4552347
0.033424046 -0.22096458 1.0048665 3631755
0.021890283 -0.20813246 1.0124416 3627913
0.030159036 -0.20943916 1.0089954 4683676
0.036864407 -0.21304919 1.0108901 3892613
0.04004588 -0.20666079 1.0156794 3563127
0.0020165294 -0.25653303 0.95154709 3033484
0.0094303377 -0.2611132 0.9511143 2897991
0.019377794 -0.26284435 0.950472 3891064
0.026540119 -0.26575735 0.95120084 2638186
0.00037943199 -0.2498298 0.95884907 666715
0.01037069 -0.25368649 0.95581865 4813457
0.024092827 -0.25564733 0.95687163 3499654
0.030432202 -0.2604596 0.95817721 3561592
0.0022638552 -0.24402148 0.96849453 6722
0.026075598 -0.25089216 0.96490026 3694979
0.032132182 -0.25408453 0.96548712 3233144
0.029893363 -0.24613771 0.97347838 3104639
0.033892661 -0.24995735 0.97468895 2640231
0.031373471 -0.24115509 0.98171169 2907007
0.034813419 -0.24609424 0.98356771 3099492
0.012503672 -0.2294406 0.99436122 4089741
0.033052344 -0.23660661 0.98999733 3496061
0.036707502 -0.24099924 0.99295539 4278874
0.016518004 -0.22601616 1.0009192 2972810
0.034544259 -0.2321534 0.99929857 3757171
0.03738752 -0.23668379 0.99990559 3748927
0.018908653 -0.22344537 1.0056555 3630740
0.036962043 -0.22753057 1.0046874 3953004
0.0066092312 -0.26834789 0.94868886 984897
0.017553199 -0.26906514 0.95085216 4350584
0.032662928 -0.26032898 0.97029686 4674411
0.03411445 -0.25803629 0.9787029 6974583
0.034880701 -0.25210387 0.98820674 3815753
0.0071602017 -0.23629108 0.99896699 5799072
0.038279593 -0.24507886 0.994569 5064001
0.029480398 -0.27357322 0.97182244 7039097
0.030336 -0.27147195 0.97724384 7565430
0.031638969 -0.26672879 0.98442304 8223350
0.033940669 -0.25868469 0.98891622 9076613
