# .PCD v0.7 - Point Cloud Data file format
VERSION 0.7
FIELDS x y z rgba
SIZE 4 4 4 4
TYPE F F F U
COUNT 1 1 1 1
WIDTH 174
HEIGHT 1
VIEWPOINT 0 0 0 1 0 0 0
POINTS 174
DATA ascii
0.10159299 -0.055336654 1.093223 5134174
0.10777821 -0.057679594 1.0911502 5134176
0.10208364 -0.053039581 1.0972991 4871515
0.088973507 -0.067591153 1.0823834 4936281
0.098537907 -0.071245998 1.0791236 5199967
0.10325269 -0.07240092 1.0786214 5397348
0.082463086 -0.062256433 1.0888633 4673880
0.090124264 -0.062697008 1.0866581 4870232
0.09926413 -0.065535724 1.0860972 5068382
0.10873675 -0.068148434 1.0856817 5068384
0.11647438 -0.070095323 1.0866818 4476504
0.08423683 -0.056587584 1.09636 4607822
0.091284081 -0.057116032 1.0949835 4673623
0.10175017 -0.060067043 1.093207 5134174
0.11201553 -0.06211929 1.092903 4739419
0.11929633 -0.06517221 1.0925353 4081746
0.085523203 -0.054059148 1.1044185 4410445
0.094282225 -0.052977949 1.1029857 4213839
0.1043545 -0.055180512 1.1023648 4345429
0.11400653 -0.057758257 1.1009719 4016211
0.12162493 -0.060830921 1.1004115 3621193
0.095996454 -0.050586328 1.1076049 3884109
0.10527273 -0.052351356 1.1074829 3752784
0.11533388 -0.054850891 1.1063513 3621192
0.12215547 -0.057085127 1.1046625 3686459
0.0767259 -0.080171511 1.0779724 4673626
0.084831476 -0.080098838 1.0749333 4870741
0.093414098 -0.082968533 1.073078 5265754
0.10325351 -0.085248515 1.0727876 5397604
0.11161026 -0.088517353 1.0757412 4608350
0.07823915 -0.072385274 1.0838712 4673629
0.086347833 -0.073237777 1.0806026 4870744
0.094242126 -0.075685009 1.0782168 5134174
0.10648166 -0.078232408 1.0789894 5397606
0.11400479 -0.083379805 1.0808908 4476760
0.1205515 -0.084837347 1.0848143 4015442
0.072536722 -0.070723146 1.0939478 3883351
0.076713994 -0.067108579 1.0910051 4475995
0.10882585 -0.07485576 1.0841806 5068641
0.11802381 -0.077289969 1.0870038 4082513
0.12332845 -0.081959471 1.0895935 3752531
0.077799603 -0.061141968 1.0991297 4079443
0.12191501 -0.073045284 1.0943594 3621705
0.12531236 -0.077863216 1.0934013 3751503
0.12216891 -0.067854211 1.100299 3490378
0.082265675 -0.10128201 1.066829 5002588
0.085352957 -0.10204899 1.0664818 5528419
0.074011318 -0.094264798 1.0762397 4739163
0.080857947 -0.094828352 1.0715129 5002333
0.089965969 -0.097199865 1.0701914 5397092
0.099073112 -0.099622041 1.0716134 5332066
0.10488386 -0.1019346 1.0727673 4740695
0.074296258 -0.087598257 1.0771959 4082256
0.081032306 -0.088308968 1.0745763 5068120
0.10294003 -0.095259264 1.0735443 5200736
0.11124624 -0.09748704 1.0766097 4345175
0.11814573 -0.10024458 1.078644 4278096
0.11635949 -0.090926915 1.0828382 4147028
0.12027234 -0.095781535 1.0839496 3819087
0.12226702 -0.089049593 1.0885735 3687502
0.084959045 -0.11792333 1.0612862 5528423
0.089230068 -0.11870576 1.0612817 5397348
0.077506259 -0.10724911 1.0665072 4804702
0.086703934 -0.10912359 1.0650123 5462626
0.095513806 -0.1132796 1.06583 5003105
0.10392886 -0.11436392 1.068472 4804440
0.07059101 -0.10151137 1.0768217 3817824
0.076177262 -0.1012711 1.0709598 4673622
0.091654927 -0.10511629 1.0692189 5660265
0.099114001 -0.10616455 1.0697545 5069150
0.10811763 -0.10872784 1.0721912 4475986
0.11427951 -0.10803951 1.0752883 4014924
0.11249688 -0.10476097 1.0763246 4606547
0.11846883 -0.10543142 1.0780436 3620428
0.0761033 -0.12549348 1.0596205 4079956
0.082621358 -0.12558588 1.0569158 5266270
0.088013023 -0.12873262 1.0578021 5002845
0.074947178 -0.12023203 1.0642389 4079963
0.082052901 -0.12155873 1.0601819 5330781
0.092423797 -0.12445334 1.0617719 5002331
0.097131044 -0.12105826 1.0657382 5001816
0.10157766 -0.12175708 1.0683354 4540755
0.10752855 -0.11861272 1.0731571 4213074
0.077780463 -0.14211595 1.0557966 5265766
0.077925898 -0.1372896 1.0583605 5068639
0.086751089 -0.13820079 1.058602 4214103
0.072168238 -0.12802911 1.0620772 1580089
0.092895441 -0.13282552 1.0616843 4145996
0.096867859 -0.1302266 1.0660259 4212054
0.070891954 -0.14362229 1.0570863 3618132
0.075956054 -0.14544849 1.0555465 5199718
0.082545444 -0.14651743 1.0557756 4214875
0.065853566 -0.18761304 1.0124406 528927
0.070652753 -0.18915093 1.0113106 1517876
0.065833651 -0.20376909 1.0088842 4419983
0.05299988 -0.19526771 1.0153946 1651559
0.058907725 -0.19353725 1.0138954 1782104
0.070383951 -0.1958105 1.0093699 4154236
0.075487427 -0.19872139 1.013646 3028033
0.062424622 -0.19535755 1.0221871 2369321
0.070507683 -0.19421019 1.0194545 2040105
0.06720154 -0.18305214 1.0366787 4146252
0.05068808 -0.20615269 1.0161185 5077683
0.056924675 -0.20784937 1.0124942 4617364
0.065938845 -0.21028407 1.0111468 4549258
0.072608612 -0.20677572 1.0138757 6582660
0.052747656 -0.19717067 1.0240871 7695014
0.060862742 -0.19784641 1.0267991 2040625
0.069044396 -0.19865035 1.0266416 2172202
0.074523866 -0.20258063 1.0216377 2760198
0.052282296 -0.21975669 1.0094098 4683677
0.05778148 -0.22112289 1.0087912 3831442
0.046562318 -0.21375215 1.0155916 3299734
0.053113185 -0.21527199 1.0122285 4683420
0.061130099 -0.21836564 1.0113388 3960460
0.028155692 -0.26302692 0.95403194 3829135
0.036101021 -0.26475149 0.95356405 4223637
0.042012267 -0.26645234 0.95250249 3960467
0.029358391 -0.25847372 0.9621833 3498881
0.037646897 -0.25993961 0.96146286 3895695
0.045442767 -0.26154408 0.96195489 3631246
0.032307148 -0.25074536 0.97029144 3499128
0.039128348 -0.25285494 0.96881545 4025235
0.047535341 -0.2561045 0.96960789 3499655
0.035194427 -0.24482772 0.97729135 3826560
0.041608632 -0.2468902 0.9767707 4156303
0.048789036 -0.25118619 0.97668135 3630985
0.036978476 -0.24302156 0.98694289 3893387
0.043652371 -0.24313083 0.98572075 4157333
0.050532352 -0.24641088 0.98638248 3762828
0.04010395 -0.2411941 0.99504554 3762325
0.046716936 -0.23824129 0.9948045 4420507
0.052315716 -0.24179816 0.99515045 3828877
0.041925676 -0.23449248 1.0070592 4222878
0.049043491 -0.23388472 1.0028369 4552347
0.054472774 -0.23806271 1.0032713 3631755
0.042787869 -0.22562248 1.0112573 3627913
0.05108688 -0.22672939 1.0078139 4683676
0.057811655 -0.2303533 1.0096109 3892613
0.060911618 -0.22412504 1.0146575 3563127
0.023671664 -0.2718417 0.94845545 3033484
0.031126313 -0.27634093 0.94789422 2897991
0.041091561 -0.27796447 0.94724661 3891064
0.04827401 -0.28084391 0.94790769 2638186
0.021936327 -0.26543388 0.95599604 666715
0.031976964 -0.26909044 0.95288193 4813457
0.04570898 -0.27097666 0.95394242 3499654
0.052081309 -0.27578253 0.95510292 3561592
0.023716547 -0.25998005 0.96586561 6722
0.047605664 -0.26651308 0.96215707 3694979
0.053685609 -0.26967537 0.96265912 3233144
0.051334128 -0.26205599 0.97093189 3104639
0.055358641 -0.26588568 0.97202098 2640231
0.052725088 -0.25737706 0.97935671 2907007
0.056196079 -0.26235449 0.98104501 3099492
0.03368507 -0.24630643 0.99232697 4089741
0.054318175 -0.25313228 0.98781854 3496061
0.057993464 -0.25760365 0.99063009 4278874
0.037632853 -0.24310012 0.99903399 2972810
0.055719335 -0.24902278 0.99729055 3757171
0.05859733 -0.25354934 0.99774265 3748927
0.039974637 -0.24069114 1.0038785 3630740
0.058067173 -0.24458779 1.0028651 3953004
0.028380387 -0.28350148 0.94517964 984897
0.039317533 -0.28421003 0.94737995 4350584
0.054241765 -0.27609313 0.96723205 4674411
0.055625919 -0.27410889 0.97572744 6974583
0.05628778 -0.26853496 0.98545349 3815753
0.028373607 -0.2533704 0.99663788 5799072
0.059590802 -0.26172841 0.9920975 5064001
0.051162783 -0.28941143 0.96823591 7039097
0.05196967 -0.28751028 0.97373801 7565430
0.053191531 -0.28303212 0.98109931 8223350
0.05539944 -0.27514541 0.98590767 9076613
