# .PCD v0.7 - Point Cloud Data file format
VERSION 0.7
FIELDS x y z rgba
SIZE 4 4 4 4
TYPE F F F U
COUNT 1 1 1 1
WIDTH 174
HEIGHT 1
VIEWPOINT 0 0 0 1 0 0 0
POINTS 174
DATA ascii
0.0916235 -0.081167221 1.1058671 5134174
0.09783338 -0.08293505 1.1033461 5134176
0.092166193 -0.079195566 1.1101038 4871515
0.079259403 -0.093231171 1.0945308 4936281
0.088861272 -0.095991962 1.0905756 5199967
0.093607575 -0.096802801 1.0897815 5397348
0.072753072 -0.088879839 1.1017119 4673880
0.080316581 -0.088652208 1.099164 4870232
0.089571983 -0.090855367 1.0979835 5068382
0.09915264 -0.092825174 1.0969535 5068384
0.10702948 -0.094360828 1.0974619 4476504
0.07453502 -0.083762884 1.1095936 4607822
0.081529871 -0.083730936 1.1078882 4673623
0.092058107 -0.085860267 1.1054336 5134174
0.10240141 -0.087232441 1.1045308 4739419
0.10982453 -0.089781366 1.1036003 4081746
0.076041937 -0.081846885 1.1177819 4410445
0.084646337 -0.08010219 1.1160899 4213839
0.094791278 -0.081609249 1.1148666 4345429
0.10450354 -0.08345069 1.1128597 4016211
0.11225554 -0.085981876 1.1117219 3621193
0.086428739 -0.078005619 1.1208252 3884109
0.095777258 -0.079169467 1.1201694 3752784
0.10590496 -0.080929518 1.1184124 3621192
0.11276078 -0.082581751 1.1162571 3686459
0.067582935 -0.1061376 1.0895498 4673626
0.075520761 -0.10530145 1.0861981 4870741
0.084162392 -0.10746127 1.0837494 5265754
0.094094992 -0.10908777 1.0828581 5397604
0.10275753 -0.11206387 1.0851705 4608350
0.068906449 -0.098796658 1.096036 4673629
0.076891236 -0.098861031 1.0923754 4870744
0.084797025 -0.10059914 1.0894636 5134174
0.097187966 -0.10243077 1.0895083 5397606
0.10508114 -0.10723863 1.0906445 4476760
0.11187695 -0.10860857 1.0941542 4015442
0.063588656 -0.098350048 1.1064446 3883351
0.067405067 -0.094245806 1.1036581 4475995
0.099567018 -0.099363349 1.0948727 5068641
0.10901321 -0.10144578 1.0970935 4082513
0.11469784 -0.10597534 1.0990473 3752531
0.068512343 -0.088928759 1.1122191 4079443
0.11298402 -0.097600579 1.1046242 3621705
0.11661121 -0.1020983 1.1031121 3751503
0.11320643 -0.092922777 1.1109771 3490378
0.073834591 -0.12584537 1.0763954 5002588
0.076942295 -0.12638545 1.0758563 5528419
0.065625817 -0.12017705 1.0867116 4739163
0.07226757 -0.11991027 1.0816765 5002333
0.081428498 -0.12158672 1.0797808 5397092
0.090718538 -0.12354478 1.0806116 5332066
0.096702583 -0.12557775 1.0813203 4740695
0.065561593 -0.11361007 1.0882311 4082256
0.072199285 -0.11367412 1.0852852 5068120
0.094407022 -0.11912657 1.0827539 5200736
0.10296302 -0.12107997 1.0852703 4345175
0.11009972 -0.12356143 1.0867721 4278096
0.10796388 -0.11476059 1.09183 4147028
0.11220311 -0.1194369 1.0923536 3819087
0.11400977 -0.11300682 1.0974593 3687502
0.077243909 -0.14175892 1.0693212 5528423
0.081548803 -0.14226907 1.0690732 5397348
0.069425091 -0.13205054 1.0757519 4804702
0.078638121 -0.13321248 1.0737232 5462626
0.087705866 -0.1368625 1.0738139 5003105
0.096283451 -0.13763626 1.0760038 4804440
0.06266886 -0.12764688 1.0868014 3817824
0.067953885 -0.12656403 1.0807581 4673622
0.083533928 -0.12927163 1.0780553 5660265
0.091058582 -0.12989192 1.0781908 5069150
0.10030068 -0.13208231 1.0800236 4475986
0.10654809 -0.13127272 1.082913 4014924
0.10462535 -0.12821132 1.0843028 4606547
0.11069959 -0.12864876 1.0857102 3620428
0.068781778 -0.14970165 1.0673687 4079956
0.075161748 -0.1491573 1.0644008 5266270
0.080764629 -0.15202355 1.0647881 5002845
0.067532845 -0.1449309 1.0724707 4079963
0.074508905 -0.14546323 1.0680251 5330781
0.085094765 -0.14782611 1.0689303 5002331
0.08977244 -0.14448911 1.0729799 5001816
0.094367966 -0.14512435 1.0753218 4540755
0.10034017 -0.14203084 1.0801499 4213074
0.071256205 -0.16580498 1.0620488 5265766
0.071235672 -0.16121222 1.0650144 5068639
0.080100916 -0.16158584 1.064813 4214103
0.065120853 -0.15267681 1.0697553 1580089
0.086054109 -0.15611508 1.0680958 4145996
0.090063296 -0.1536475 1.0724801 4212054
0.064535484 -0.16784322 1.0634847 3618132
0.069621623 -0.16921231 1.0615852 5199718
0.076266065 -0.16988182 1.0614495 4214875
0.060035251 -0.20814446 1.0154287 528927
0.064859211 -0.20927796 1.013973 1517876
0.060802273 -0.22391276 1.0104852 4419983
0.047805276 -0.21681099 1.0182316 1651559
0.053525195 -0.21459365 1.0166471 1782104
0.064893544 -0.21575403 1.0114734 4154236
0.070352092 -0.21868944 1.0152671 3028033
0.057523288 -0.21688223 1.0245976 2369321
0.065389544 -0.21500456 1.0216453 2040105
0.06223293 -0.20556667 1.0398955 4146252
0.046174575 -0.22784162 1.018101 5077683
0.052325778 -0.22883281 1.0140897 4617364
0.061395641 -0.2305758 1.0121666 4549258
0.067966372 -0.22689895 1.0149139 6582660
0.048068259 -0.21945168 1.0267286 7695014
0.056325894 -0.2198438 1.029036 2040625
0.064524621 -0.22011745 1.0284734 2172202
0.069988512 -0.2232611 1.0229259 2760198
0.048254956 -0.24070525 1.0101752 4683677
0.053790517 -0.24166726 1.0092149 3831442
0.042483591 -0.23561314 1.0170853 3299734
0.048949867 -0.23643079 1.0133365 4683420
0.057085272 -0.23893015 1.0118529 3960460
0.024180844 -0.28058147 0.95228362 3829135
0.032183766 -0.28175935 0.95134163 4223637
0.038129427 -0.28299099 0.94989431 3960467
0.025489375 -0.27666497 0.96074367 3498881
0.033807572 -0.27754277 0.95955861 3895695
0.041698813 -0.27869144 0.95958871 3631246
0.02835004 -0.26947778 0.96936488 3499128
0.035207994 -0.27102402 0.9674322 4025235
0.043819435 -0.27379569 0.96759307 3499655
0.031204749 -0.26400182 0.97672814 3826560
0.037698299 -0.26560718 0.97576714 4156303
0.045107409 -0.26942208 0.97500986 3630985
0.03332423 -0.26290715 0.98641872 3893387
0.039929226 -0.26249474 0.98491859 4157333
0.0470137 -0.26538137 0.98500949 3762828
0.036708415 -0.26157674 0.99451435 3762325
0.043117747 -0.25820565 0.99425942 4420507
0.048926294 -0.26142126 0.99406457 3828877
0.038686499 -0.25581035 1.0069799 4222878
0.045553043 -0.25440425 1.0025377 4552347
0.051233254 -0.2582556 1.0023839 3631755
0.03921821 -0.24728909 1.0118943 3627913
0.047399685 -0.24757984 1.0080297 4683676
0.054402187 -0.2509138 1.0092272 3892613
0.057360258 -0.24495104 1.0146645 3563127
0.019970417 -0.28915858 0.94615096 3033484
0.027643118 -0.2931186 0.94489497 2897991
0.037646003 -0.2940543 0.9436999 3891064
0.045008466 -0.29652357 0.94381261 2638186
0.018211652 -0.28353024 0.95428491 666715
0.02829526 -0.28627518 0.95045489 4813457
0.042148881 -0.28738004 0.95078242 3499654
0.048840079 -0.29185793 0.95125806 3561592
0.020122577 -0.27882671 0.96450973 6722
0.04415765 -0.2835145 0.95926917 3694979
0.05043 -0.28632075 0.95924419 3233144
0.048019364 -0.27958786 0.96823764 3104639
0.052308548 -0.28323603 0.96882343 2640231
0.04952088 -0.27555755 0.97697294 2907007
0.053353433 -0.28043231 0.97807819 3099492
0.03048281 -0.26683387 0.99162757 4089741
0.051251236 -0.27194947 0.98569918 3496061
0.055309702 -0.27640277 0.98795801 4278874
0.034541164 -0.2639631 0.99842006 2972810
0.052844934 -0.26857305 0.99542695 3757171
0.056002371 -0.27293235 0.99536526 3748927
0.036958769 -0.26182896 1.0033553 3630740
0.055183046 -0.26448518 1.0012647 3953004
0.02520097 -0.30018288 0.94168335 984897
0.036250979 -0.30038771 0.94336259 4350584
0.051574282 -0.29305351 0.96321523 4674411
0.053230986 -0.29170936 0.97178692 6974583
0.054012977 -0.2869443 0.98192525 3815753
0.025801893 -0.27455479 0.99552268 5799072
0.057213426 -0.28052831 0.98899448 5064001
0.049334832 -0.30657566 0.96318322 7039097
0.050282203 -0.30509806 0.96879196 7565430
0.05157768 -0.30118841 0.97645825 8223350
0.053537495 -0.29361218 0.98183918 9076613
