# .PCD v0.7 - Point Cloud Data file format
VERSION 0.7
FIELDS x y z rgba
SIZE 4 4 4 4
TYPE F F F U
COUNT 1 1 1 1
WIDTH 174
HEIGHT 1
VIEWPOINT 0 0 0 1 0 0 0
POINTS 174
DATA ascii
0.085084483 -0.10457388 1.1182119 5134174
0.091251031 -0.1062187 1.115508 5134176
0.085694291 -0.10284854 1.122546 4871515
0.072511114 -0.11592679 1.1063821 4936281
0.082045086 -0.11849406 1.1021426 5199967
0.086776294 -0.11927621 1.1012374 5397348
0.066123903 -0.11196671 1.1138892 4673880
0.073652647 -0.11162286 1.1112528 4870232
0.082880855 -0.11379 1.1098198 5068382
0.092437401 -0.11573395 1.1085458 5068384
0.10031343 -0.11732559 1.108856 4476504
0.068037219 -0.10731326 1.1220235 4607822
0.075008042 -0.10721056 1.120225 4673623
0.085491769 -0.10923626 1.1175063 5134174
0.095815361 -0.11059363 1.1163825 4739419
0.10321334 -0.11311333 1.1152049 4081746
0.069665201 -0.10587193 1.1302855 4410445
0.078253374 -0.10406608 1.1285753 4213839
0.088373601 -0.10553914 1.1271266 4345429
0.098048896 -0.10729983 1.1248827 4016211
0.10577296 -0.10979125 1.1234946 3621193
0.080110177 -0.10224904 1.1333966 3884109
0.089443415 -0.10340875 1.1325451 3752784
0.099537924 -0.10510397 1.1305496 3621192
0.10635591 -0.1066566 1.1282082 3686459
0.060708817 -0.12848499 1.1008393 4673626
0.068603545 -0.12748927 1.0974299 4870741
0.077200815 -0.12953867 1.0947418 5265754
0.08711274 -0.13114908 1.0936208 5397604
0.095792629 -0.13428441 1.095639 4608350
0.062154658 -0.12153002 1.1077131 4673629
0.070088014 -0.12141596 1.1039435 4870744
0.077945061 -0.12301522 1.1008273 5134174
0.09032701 -0.12489291 1.1005948 5397606
0.098213136 -0.12978721 1.1013453 4476760
0.10505024 -0.13138011 1.1046761 4015442
0.056982487 -0.12165642 1.1182035 3883351
0.060778841 -0.11741463 1.1156019 4475995
0.092793457 -0.12214464 1.106091 5068641
0.10225972 -0.12438548 1.1080576 4082513
0.10795005 -0.12904018 1.1096711 3752531
0.062027797 -0.11259751 1.1244349 4079443
0.10635106 -0.12098992 1.1157384 3621705
0.10993667 -0.1254079 1.1139226 3751503
0.106682 -0.11668205 1.1223432 3490378
0.066689558 -0.14743568 1.0864998 5002588
0.06978707 -0.14795586 1.0858874 5528419
0.058649145 -0.14233276 1.0972352 4739163
0.065222219 -0.14180484 1.0921311 5002333
0.074348524 -0.14340508 1.0900153 5397092
0.083640113 -0.14544208 1.0906036 5332066
0.08962404 -0.14753452 1.0911119 4740695
0.058635622 -0.13586268 1.0991262 4082256
0.065231852 -0.13578391 1.096089 5068120
0.08737772 -0.14116678 1.0929418 5200736
0.095958531 -0.14329228 1.0952232 4345175
0.10310385 -0.14588195 1.0964816 4278096
0.10107771 -0.13737521 1.102061 4147028
0.10530245 -0.14208959 1.1022586 3819087
0.10720828 -0.13596725 1.1076957 3687502
0.069929034 -0.1629336 1.0784855 5528423
0.07422775 -0.16344497 1.0781487 5397348
0.062243495 -0.1535776 1.0855663 4804702
0.071422406 -0.15465678 1.0833464 5462626
0.08047387 -0.15834004 1.0831026 5003105
0.089077137 -0.15926933 1.0851249 4804440
0.055659816 -0.14978445 1.0969416 3817824
0.060866147 -0.14837933 1.0908964 4673622
0.076395124 -0.15098718 1.0878265 5660265
0.083918035 -0.15164241 1.0878214 5069150
0.093174405 -0.15396821 1.0893973 4475986
0.099464543 -0.15334778 1.0922405 4014924
0.097575009 -0.15036322 1.0938288 4606547
0.10366596 -0.15090281 1.095124 3620428
0.061404899 -0.17072058 1.0762033 4079956
0.067745879 -0.17003217 1.0731821 5266270
0.073340483 -0.17293681 1.0733275 5002845
0.060247868 -0.16624318 1.081585 4079963
0.06715969 -0.16654788 1.0770193 5330781
0.077746145 -0.16899814 1.0776407 5002331
0.08249414 -0.16591454 1.0818077 5001816
0.087118477 -0.16669923 1.0840452 4540755
0.093170449 -0.16390789 1.0889573 4213074
0.063732833 -0.18650427 1.0699425 5265766
0.063773915 -0.18208764 1.0731642 5068639
0.072633758 -0.18248248 1.0728182 4214103
0.05776364 -0.17381294 1.0784677 1580089
0.078656286 -0.17722973 1.076323 4145996
0.082736507 -0.17503068 1.0807841 4212054
0.057023294 -0.18859568 1.0713539 3618132
0.06207658 -0.18987355 1.0693088 5199718
0.068715416 -0.19055919 1.0690426 4214875
0.051680129 -0.22608012 1.0211525 528927
0.056478437 -0.22714704 1.0195675 1517876
0.052307539 -0.24154435 1.0153104 4419983
0.039450601 -0.23484613 1.023629 1651559
0.045158215 -0.2325637 1.0220933 1782104
0.056449007 -0.23347047 1.0167036 4154236
0.061945789 -0.23663744 1.0202477 3028033
0.049254756 -0.23531595 1.0298442 2369321
0.057088148 -0.23330286 1.0268937 2040105
0.054225516 -0.22490692 1.0456932 4146252
0.037768189 -0.24584527 1.0228943 5077683
0.043859124 -0.24662969 1.0187476 4617364
0.052893694 -0.24829444 1.016602 4549258
0.059518185 -0.24480456 1.0194618 6582660
0.039818335 -0.237967 1.0319576 7695014
0.048105035 -0.23852076 1.0341234 2040625
0.056293923 -0.2387927 1.0334314 2172202
0.061666735 -0.2416361 1.0276384 2760198
0.039681021 -0.25824481 1.0142219 4683677
0.045198433 -0.25917137 1.0131311 3831442
0.034028344 -0.2535325 1.0214902 3299734
0.040438712 -0.25415978 1.017611 4683420
0.048541531 -0.25660118 1.0158741 3960460
0.014632799 -0.29467183 0.95449948 3829135
0.022616588 -0.29582423 0.95338023 4223637
0.028536141 -0.29699382 0.95178229 3960467
0.016075239 -0.29124796 0.96314931 3498881
0.024372291 -0.29208815 0.96180016 3895695
0.032257903 -0.29326624 0.96165454 3631246
0.019086711 -0.28457376 0.97212428 3499128
0.02591037 -0.28603324 0.97001117 4025235
0.034510531 -0.28884187 0.96989387 3499655
0.022067174 -0.2795364 0.97974628 3826560
0.02853955 -0.28110883 0.97860491 4156303
0.035920154 -0.28490222 0.97752851 3630985
0.024324577 -0.27900285 0.98945284 3893387
0.030910142 -0.27853051 0.98788643 4157333
0.037982009 -0.28144419 0.98771405 3762828
0.027825698 -0.27814791 0.99756289 3762325
0.034246169 -0.27479187 0.99741048 4420507
0.040036827 -0.27801293 0.99695194 3828877
0.030001067 -0.27310762 1.0103073 4222878
0.036812231 -0.27147681 1.0058566 4552347
0.042472243 -0.27533445 1.0054047 3631755
0.030638952 -0.26488185 1.0156901 3627913
0.03876514 -0.26498291 1.0117013 4683676
0.045768224 -0.26840585 1.0126092 3892613
0.048827782 -0.26277328 1.0183349 3563127
0.010299586 -0.30287021 0.94794863 3033484
0.017936248 -0.30678114 0.94636244 2897991
0.027917411 -0.30768484 0.94497639 3891064
0.035269435 -0.31018412 0.94484568 2638186
0.0086783469 -0.29770729 0.95641315 666715
0.018695801 -0.30026764 0.95229274 4813457
0.032547448 -0.30144131 0.95236325 3499654
0.039224155 -0.30596411 0.95248997 3561592
0.010750942 -0.29360032 0.96686107 6722
0.034690186 -0.29807252 0.96102703 3694979
0.040948801 -0.30089629 0.96075493 3233144
0.038692579 -0.29467705 0.97014934 3104639
0.042972796 -0.29836869 0.97046679 2640231
0.040332276 -0.29115596 0.97907782 2907007
0.044157483 -0.29610005 0.97985047 3099492
0.021537207 -0.28320888 0.99446929 4089741
0.042198755 -0.28805676 0.98796993 3496061
0.046267617 -0.29264656 0.98991507 4278874
0.025701515 -0.28074449 1.0013566 2972810
0.043941304 -0.2852453 0.99785072 3757171
0.047077768 -0.28960586 0.9974972 3748927
0.02819638 -0.27890369 1.0063709 3630740
0.046377957 -0.28150505 1.0038781 3953004
0.015418138 -0.313642 0.9427889 984897
0.026489139 -0.3139835 0.94429916 4350584
0.042116962 -0.30784833 0.96432048 4674411
0.043897387 -0.30700034 0.97293073 6974583
0.044840254 -0.30282283 0.98331159 3815753
0.016875252 -0.2911213 0.99798429 5799072
0.048166648 -0.29683152 0.99068862 5064001
0.039815903 -0.3213383 0.96355122 7039097
0.040846959 -0.32018578 0.96922106 7565430
0.042265408 -0.31672356 0.97707832 8223350
0.044333365 -0.30947316 0.98285329 9076613
