# .PCD v0.7 - Point Cloud Data file format
VERSION 0.7
FIELDS x y z rgba
SIZE 4 4 4 4
TYPE F F F U
COUNT 1 1 1 1
WIDTH 174
HEIGHT 1
VIEWPOINT 0 0 0 1 0 0 0
POINTS 174
DATA ascii
0.081354655 -0.11204013 1.120995 5134174
0.087587543 -0.11372707 1.1184754 5134176
0.081852913 -0.11026179 1.1253219 4871515
0.069078177 -0.12352203 1.1089793 4936281
0.078716226 -0.12615517 1.1050252 5199967
0.083468311 -0.12695509 1.1042551 5397348
0.062502012 -0.11945987 1.1162655 4673880
0.070098244 -0.11915936 1.1138247 4870232
0.079357296 -0.12135699 1.1126628 5068382
0.088940769 -0.12332994 1.1116656 5068384
0.096803144 -0.12492854 1.1122034 4476504
0.06420812 -0.11470811 1.1243891 4607822
0.071224108 -0.11463752 1.122774 4673623
0.081772402 -0.1167115 1.1203583 5134174
0.092119694 -0.11809712 1.1195245 4739419
0.099541813 -0.12064156 1.1185739 4081746
0.065620095 -0.11316624 1.1326727 4410445
0.07425347 -0.11139379 1.1311674 4213839
0.084405847 -0.11289884 1.1300048 4345429
0.094133914 -0.1147008 1.1280391 4016211
0.10188761 -0.11722004 1.1268864 3621193
0.075985596 -0.10951941 1.1360132 3884109
0.085336044 -0.11070262 1.1354227 3752784
0.095476739 -0.11243659 1.1337155 3621192
0.10235143 -0.11402774 1.1315744 3686459
0.057404619 -0.13613188 1.1032834 4673626
0.065388218 -0.13518968 1.1000714 4870741
0.07404986 -0.13728437 1.0976369 5265754
0.08398512 -0.13892236 1.0967978 5397604
0.092603371 -0.1420444 1.0990832 4608350
0.058680609 -0.12909384 1.110106 4673629
0.066710807 -0.12903777 1.106546 4870744
0.074644551 -0.13068664 1.1036584 5134174
0.087025076 -0.13258429 1.103776 5397606
0.094880253 -0.13747981 1.1047952 4476760
0.10162438 -0.13904062 1.1083249 4015442
0.053233348 -0.12908238 1.1204571 3883351
0.057104282 -0.1248786 1.1179041 4475995
0.089350432 -0.1297712 1.109301 5068641
0.098757669 -0.13200054 1.1115444 4082513
0.10439545 -0.13664266 1.1133652 3752531
0.058128111 -0.11995357 1.1267065 4079443
0.10265084 -0.12851524 1.1192877 3621705
0.10627549 -0.1329605 1.1176221 3751503
0.10281486 -0.1241259 1.125845 3490378
0.063728906 -0.15526801 1.0893431 5002588
0.066840589 -0.15580009 1.0888193 5528419
0.055416927 -0.1500206 1.0997984 4739163
0.062123232 -0.14956543 1.0948633 5002333
0.071299404 -0.15120459 1.0930092 5397092
0.080568731 -0.15324701 1.0938677 5332066
0.086533569 -0.15534127 1.0945598 4740695
0.055364653 -0.14352745 1.1016079 4082256
0.06203882 -0.14349569 1.0987451 5068120
0.084250711 -0.14894812 1.0962505 5200736
0.092764691 -0.15105698 1.0987839 4345175
0.099869877 -0.15364069 1.1002624 4278096
0.097711906 -0.1450623 1.1056803 4147028
0.10192187 -0.14977972 1.1060479 3819087
0.10369416 -0.14359279 1.1114571 3687502
0.067152001 -0.17086905 1.0816101 5528423
0.071457215 -0.17139056 1.0813932 5397348
0.059298467 -0.16141489 1.0883689 4804702
0.068530865 -0.16253442 1.0864055 5462626
0.077579275 -0.16623299 1.0864465 5003105
0.086124599 -0.16714898 1.0887066 4804440
0.052423581 -0.15747121 1.0995185 3817824
0.057789955 -0.15614873 1.0935957 4673622
0.073389992 -0.1588162 1.0909694 5660265
0.080909282 -0.15948191 1.091171 5069150
0.090116858 -0.16180076 1.0930195 4475986
0.096330881 -0.16115369 1.0960197 4014924
0.094405241 -0.15814696 1.0975205 4606547
0.10045898 -0.15867884 1.0989826 3620428
0.058677651 -0.178672 1.0792005 4079956
0.065097287 -0.17803009 1.0763395 5266270
0.07068111 -0.18094046 1.0766685 5002845
0.057386778 -0.17412631 1.084494 4079963
0.064416081 -0.17449746 1.0801164 5330781
0.07497824 -0.17695449 1.0810472 5002331
0.079619966 -0.17382583 1.0852995 5001816
0.084182337 -0.17458902 1.0876678 4540755
0.090107426 -0.17174512 1.092703 4213074
0.061142784 -0.19453567 1.0731999 5265766
0.061106458 -0.19007932 1.0763665 5068639
0.069971666 -0.19049074 1.0762593 4214103
0.054972626 -0.18173085 1.0814064 1580089
0.075908668 -0.18520314 1.0798564 4145996
0.079873592 -0.18295434 1.0843959 4212054
0.054394767 -0.19660001 1.0744596 3618132
0.059498031 -0.19791028 1.0725645 5199718
0.066140391 -0.19860841 1.0724821 4214875
0.050313104 -0.2346994 1.0246038 528927
0.055149704 -0.23579267 1.0231594 1517876
0.051067803 -0.25023606 1.0189728 4419983
0.038007468 -0.24341689 1.0268652 1651559
0.043757513 -0.2411617 1.0254525 1782104
0.055184957 -0.24215123 1.0203744 4154236
0.060580902 -0.24528144 1.0241014 3028033
0.047643468 -0.24382287 1.0333425 2369321
0.0555554 -0.24185759 1.030575 2040105
0.052212365 -0.23322415 1.0491867 4146252
0.036326122 -0.25442198 1.0262231 5077683
0.042522952 -0.25526646 1.0222486 4617364
0.051608093 -0.25697038 1.0203631 4549258
0.058160841 -0.25345433 1.0233531 6582660
0.03815005 -0.24643427 1.0352389 7695014
0.046375781 -0.24697253 1.0376292 2040625
0.054579593 -0.24726446 1.0371572 2172202
0.060098428 -0.25018725 1.0315437 2760198
0.038445711 -0.26693124 1.0177588 4683677
0.043988377 -0.26787898 1.0168257 3831442
0.032611407 -0.2621209 1.0248164 3299734
0.039120771 -0.26280537 1.0211158 4683420
0.047262371 -0.26527947 1.0196238 3960460
0.014918804 -0.30406451 0.9578529 3829135
0.022927344 -0.30524182 0.95695919 4223637
0.02888497 -0.30643949 0.95553267 3960467
0.016138487 -0.30053517 0.96649462 3498881
0.024466787 -0.30140358 0.96537548 3895695
0.032351457 -0.30259442 0.96545273 3631246
0.01892367 -0.29375386 0.97546244 3499128
0.025798164 -0.29524904 0.97354841 4025235
0.03439359 -0.29807085 0.97369307 3499655
0.021710716 -0.28862607 0.98309731 3826560
0.02820823 -0.29022163 0.9821468 4156303
0.035608128 -0.29403839 0.98131275 3630985
0.023712244 -0.2879748 0.99285269 3893387
0.030337628 -0.2875312 0.9914549 4157333
0.037406567 -0.29045665 0.99150538 3762828
0.026999712 -0.28702378 1.0010411 3762325
0.033427723 -0.28367883 1.0010165 4420507
0.039222918 -0.28691339 1.000751 3828877
0.028846849 -0.28182817 1.0137749 4222878
0.035775822 -0.28026238 1.0094857 4552347
0.041439146 -0.28413323 1.0092312 3631755
0.029356673 -0.27353686 1.0190701 3627913
0.037585054 -0.27369893 1.0152987 4683676
0.044555865 -0.27712005 1.0164336 3892613
0.047473021 -0.27142084 1.0221677 3563127
0.010745797 -0.31233782 0.95129228 3033484
0.018414903 -0.31627882 0.94995689 2897991
0.028427586 -0.31721359 0.9488461 3891064
0.035776198 -0.3197245 0.94894046 2638186
0.0089107417 -0.3070676 0.95964628 666715
0.019028973 -0.30969301 0.95582384 4813457
0.032871909 -0.31088498 0.95627445 3499654
0.039535169 -0.31541508 0.95663351 3561592
0.01071411 -0.30283371 0.97009349 6722
0.034791186 -0.30741149 0.96494931 3694979
0.041049935 -0.31024712 0.96487761 3233144
0.038557414 -0.30390823 0.97413123 3104639
0.042821418 -0.30760157 0.97460735 2640231
0.039967105 -0.30027848 0.98305547 2907007
0.043762103 -0.30521786 0.98399019 3099492
0.020786308 -0.29211417 0.99784565 4089741
0.041603729 -0.29707134 0.99195457 3496061
0.045611985 -0.30164218 0.99406332 4278874
0.024771746 -0.28956997 1.0048094 2972810
0.0430899 -0.29413944 1.0018423 3757171
0.046227098 -0.29850844 1.0016258 3748927
0.027136654 -0.28767031 1.0098644 3630740
0.045373157 -0.29032779 1.007885 3953004
0.015980136 -0.32318014 0.94640356 984897
0.027006846 -0.32351822 0.94820964 4350584
0.042111702 -0.31715584 0.96855879 4674411
0.043665875 -0.31620312 0.97720182 6974583
0.044341799 -0.31189793 0.98755127 3815753
0.01601968 -0.29997569 1.0013343 5799072
0.047482759 -0.30581984 0.99493861 5064001
0.03980856 -0.3306511 0.96789658 7039097
0.040691696 -0.32942951 0.9735769 7565430
0.041908368 -0.32587165 0.98142529 8223350
0.043835748 -0.31855276 0.98716235 9076613
