# .PCD v0.7 - Point Cloud Data file format
VERSION 0.7
FIELDS x y z rgba
SIZE 4 4 4 4
TYPE F F F U
COUNT 1 1 1 1
WIDTH 174
HEIGHT 1
VIEWPOINT 0 0 0 1 0 0 0
POINTS 174
DATA ascii
0.064622104 -0.12278166 1.1288134 5134174
0.070871212 -0.12421811 1.1261812 5134176
0.065123692 -0.1210352 1.1331527 4871515
0.052575517 -0.13455701 1.1168491 4936281
0.062238622 -0.13680214 1.1127205 5199967
0.067003593 -0.13742428 1.1118701 5397348
0.045972764 -0.13081244 1.1242799 4673880
0.053515237 -0.13021529 1.1217294 4870232
0.06282717 -0.13206987 1.1204034 5068382
0.07245788 -0.13369024 1.1192399 5068384
0.080379128 -0.13501471 1.1196411 4476504
0.047634665 -0.12609418 1.1324321 4607822
0.054618143 -0.12575662 1.1307131 4673623
0.065194719 -0.12742785 1.1281158 5134174
0.075570449 -0.12843601 1.127111 4739419
0.083062306 -0.13070469 1.1260197 4081746
0.049118463 -0.12459582 1.1407111 4410445
0.057659712 -0.1225014 1.1390977 4213839
0.067839831 -0.12363215 1.1377658 4345429
0.077594109 -0.12506568 1.1356337 4016211
0.0854133 -0.12729517 1.1343356 3621193
0.059398837 -0.12062099 1.1439387 3884109
0.068775058 -0.12146497 1.1431946 3752784
0.078943223 -0.12281881 1.1413156 3621192
0.08583609 -0.12414098 1.1390532 3686459
0.041268356 -0.14750877 1.1111811 4673626
0.049163397 -0.14624801 1.1078613 4870741
0.057855163 -0.14800668 1.1052731 5265754
0.067828007 -0.14928162 1.1042664 5397604
0.076585226 -0.15212117 1.1063858 4608350
0.042399731 -0.14050654 1.1180658 4673629
0.050367277 -0.14012577 1.114387 4870744
0.058308981 -0.1414597 1.111362 5134174
0.070749141 -0.14291801 1.111272 5397606
0.078787029 -0.14754277 1.1121161 4476760
0.085635521 -0.14890261 1.115526 4015442
0.037115194 -0.14080402 1.1284968 3883351
0.040795572 -0.13643727 1.1259354 4475995
0.073058352 -0.14008607 1.1167941 5068641
0.082571805 -0.14200509 1.1188701 4082513
0.088397324 -0.1464643 1.1205521 3752531
0.041780017 -0.13157764 1.1347786 4079443
0.08645802 -0.13847058 1.1265947 3621705
0.090211369 -0.14276551 1.1248231 3751503
0.086567715 -0.1341517 1.1331997 3490378
0.048049442 -0.16625148 1.0969247 5002588
0.051169563 -0.16666691 1.0963482 5528419
0.039719027 -0.16141945 1.107564 4739163
0.046328437 -0.1606715 1.1025348 5002333
0.05552718 -0.16196316 1.1005244 5397092
0.064874955 -0.16368484 1.1012201 5332066
0.070919953 -0.16557372 1.1017983 4740695
0.039465312 -0.15495288 1.10945 4082256
0.046089407 -0.15465233 1.1064881 5068120
0.068439014 -0.15928489 1.1035978 5200736
0.077060089 -0.16111845 1.1059786 4345175
0.084273979 -0.16346475 1.1073203 4278096
0.081897952 -0.15502942 1.11287 4147028
0.086277008 -0.15959829 1.1131192 3819087
0.087912641 -0.15341318 1.1185733 3687502
0.051902059 -0.18163386 1.0889591 5528423
0.056219168 -0.1819998 1.0886719 5397348
0.043824382 -0.17254044 1.095945 4804702
0.053059287 -0.17330962 1.0938307 5462626
0.062232219 -0.17668501 1.093693 5003105
0.070838287 -0.17732236 1.095814 4804440
0.036986701 -0.16896801 1.1072416 3817824
0.042211361 -0.16738985 1.1012552 4673622
0.057853654 -0.16947255 1.0983646 5660265
0.065393977 -0.16987321 1.0984459 5069150
0.07470502 -0.17188436 1.1001291 4475986
0.080937684 -0.17105076 1.1030434 4014924
0.078930371 -0.1681312 1.1046078 4606547
0.08502087 -0.16846423 1.1059729 3620428
0.043672509 -0.18970521 1.0865855 4079956
0.050020739 -0.18880396 1.0836364 5266270
0.055708252 -0.19151786 1.0838478 5002845
0.042303428 -0.1852676 1.0919505 4079963
0.049273342 -0.18534015 1.0874642 5330781
0.059928738 -0.18743107 1.0882081 5002331
0.064521901 -0.18418737 1.0924268 5001816
0.069144234 -0.18481459 1.0947174 4540755
0.075041898 -0.18181863 1.0996964 4213074
0.046603773 -0.20540339 1.0803633 5265766
0.046458781 -0.20098677 1.083582 5068639
0.055330288 -0.20108213 1.0833374 4214103
0.040112153 -0.19291806 1.0888106 1580089
0.061131459 -0.19562767 1.086907 4145996
0.065083802 -0.19329047 1.0914127 4212054
0.039953019 -0.20771982 1.0816995 3618132
0.045069642 -0.20882691 1.0797131 5199718
0.051730465 -0.20928793 1.0795232 4214875
0.036453515 -0.2453807 1.0314678 528927
0.041302934 -0.24628544 1.0299385 1517876
0.037669752 -0.26081693 1.0256445 4419983
0.024499606 -0.25455409 1.033811 1651559
0.030144036 -0.25208065 1.0323389 1782104
0.041519895 -0.25260723 1.027079 4154236
0.047079656 -0.25558543 1.0306879 3028033
0.034242347 -0.25469023 1.040138 2369321
0.042036474 -0.25241461 1.0372757 2040105
0.038677104 -0.24411371 1.056035 4146252
0.023198254 -0.26560405 1.0330652 5077683
0.029359221 -0.26618364 1.0289888 4617364
0.038468815 -0.26754293 1.0269477 4549258
0.044938497 -0.26383018 1.0298803 6582660
0.02487733 -0.25765789 1.0421456 7695014
0.033152707 -0.25793058 1.0444062 2040625
0.041353483 -0.2579259 1.043808 2172202
0.046885163 -0.26058811 1.0380788 2760198
0.025627917 -0.27793488 1.0244242 4683677
0.031185593 -0.27867484 1.0233972 3831442
0.019736545 -0.27341375 1.0316241 3299734
0.026208375 -0.27382541 1.0278188 4683420
0.034408372 -0.27599221 1.0261762 3960460
0.0025090091 -0.31520808 0.96444643 3829135
0.010539446 -0.3160904 0.96341926 4223637
0.01651302 -0.31705987 0.9618898 3960467
0.0037359782 -0.31173444 0.9731096 3498881
0.012071565 -0.31229421 0.97185588 3895695
0.01999362 -0.31320527 0.97180116 3631246
0.006417457 -0.30495918 0.98211354 3499128
0.013310235 -0.30618799 0.98007953 4025235
0.022001153 -0.30870444 0.98006248 3499655
0.0091387071 -0.29982135 0.98976541 3826560
0.015673134 -0.30117458 0.98869914 4156303
0.023189504 -0.3047168 0.98770982 3630985
0.011265688 -0.29920846 0.9994967 3893387
0.017849008 -0.29851443 0.99800515 4157333
0.025016783 -0.30118757 0.99791569 3762828
0.014642984 -0.29823294 1.0076455 3762325
0.020947728 -0.29466191 1.0075639 4420507
0.026848767 -0.29768562 1.0071739 3828877
0.016500995 -0.29311764 1.0204103 4222878
0.023303611 -0.29125911 1.0160364 4552347
0.029095512 -0.29492348 1.0156519 3631755
0.01679904 -0.28487313 1.025794 3627913
0.024969073 -0.28470093 1.0218983 4683676
0.032072965 -0.28788501 1.0228885 3892613
0.03487483 -0.28215027 1.0286446 3563127
-0.0014695823 -0.32355046 0.95785254 3033484
0.0063124746 -0.32720163 0.95635647 2897991
0.016333668 -0.32776803 0.9550851 3891064
0.023766946 -0.33001751 0.9550401 2638186
-0.0033609867 -0.31844231 0.96629417 666715
0.0067837052 -0.32066417 0.96229029 4813457
0.020665387 -0.32136908 0.96251976 3499654
0.027489189 -0.32566363 0.962726 3561592
-0.0015478954 -0.31426409 0.97676212 6722
0.02259391 -0.31792682 0.971205 3694979
0.028947044 -0.3205376 0.97100639 3233144
0.026374754 -0.31439489 0.98036987 3104639
0.030773336 -0.3179397 0.98073888 2640231
0.027792387 -0.31081736 0.9893139 2907007
0.031773355 -0.31562907 0.99013382 3099492
0.0085648336 -0.30350459 1.0044841 4089741
0.02945132 -0.30765378 0.9982245 3496061
0.033650421 -0.31210279 1.0002193 4278874
0.012564503 -0.30089852 1.0114167 2972810
0.030984823 -0.30478162 1.0081224 3757171
0.034270648 -0.30903387 1.007808 3748927
0.014938269 -0.29897273 1.0164578 3630740
0.033224657 -0.30095911 1.0141746 3953004
0.0040686093 -0.33414489 0.95275944 984897
0.015126836 -0.3341116 0.95439625 4350584
0.030308571 -0.32744497 0.97459012 4674411
0.031960782 -0.3265343 0.9832195 6974583
0.032643247 -0.32232374 0.9936074 3815753
0.0041329712 -0.3115688 1.0079514 5799072
0.035680786 -0.31622094 1.0010176 5064001
0.028473509 -0.34100521 0.97380447 7039097
0.029400159 -0.33981657 0.97948492 7565430
0.030610915 -0.33630568 0.98735535 8223350
0.032366592 -0.3289876 0.99314821 9076613
