# .PCD v0.7 - Point Cloud Data file format
VERSION 0.7
FIELDS x y z rgba
SIZE 4 4 4 4
TYPE F F F U
COUNT 1 1 1 1
WIDTH 174
HEIGHT 1
VIEWPOINT 0 0 0 1 0 0 0
POINTS 174
DATA ascii
0.04002966 -0.1372472 1.1376367 5134174
0.046438932 -0.13840754 1.1352664 5134176
0.040277176 -0.13539284 1.1419531 4871515
0.029062022 -0.14986417 1.1254939 4936281
0.038976222 -0.15168343 1.121771 5199967
0.043795485 -0.15207326 1.1211091 5397348
0.022000669 -0.14632419 1.132596 4673880
0.029593347 -0.14538521 1.1303114 4870232
0.039031461 -0.14677824 1.1293672 5068382
0.048769571 -0.14791767 1.1285921 5068384
0.056727558 -0.14882016 1.1293114 4476504
0.023110114 -0.14136799 1.1407008 4607822
0.030126903 -0.14070109 1.139232 4673623
0.0408656 -0.14187001 1.1370602 5134174
0.051309854 -0.14235634 1.1364578 4739419
0.058943965 -0.14425296 1.1356905 4081746
0.024202123 -0.13963351 1.1489947 4410445
0.032679476 -0.13712935 1.1476507 4213839
0.042947132 -0.13775462 1.146717 4345429
0.052835479 -0.13871996 1.1449748 4016211
0.060802042 -0.14056443 1.144012 3621193
0.034136262 -0.13506709 1.1525108 3884109
0.043564785 -0.1354364 1.1521288 3752784
0.053852566 -0.13629571 1.1506529 3621192
0.060884498 -0.13730125 1.1486734 3686459
0.018655386 -0.16349459 1.119694 4673626
0.026594885 -0.16188967 1.1166394 4870741
0.035456728 -0.16324379 1.1144094 5265754
0.045512665 -0.16401747 1.1137961 5397604
0.054317862 -0.16635573 1.1162952 4608350
0.019166039 -0.15631023 1.1264642 4673629
0.027236544 -0.15558715 1.1230723 4870744
0.035344534 -0.15656473 1.1203693 5134174
0.047837645 -0.15737528 1.1207663 5397606
0.056064539 -0.16155826 1.1220031 4476760
0.062840387 -0.16249326 1.1256897 4015442
0.01351442 -0.15667908 1.1366985 3883351
0.017059971 -0.15217745 1.1341809 4475995
0.0497889 -0.15432003 1.1263075 5068641
0.059303239 -0.15570067 1.1287711 4082513
0.065282196 -0.15981713 1.1307602 3752531
0.017460043 -0.14710191 1.1429482 4079443
0.062709294 -0.15181898 1.1365554 3621705
0.066741988 -0.15594649 1.1350148 3751503
0.062348455 -0.14737244 1.143066 3490378
0.026920862 -0.18213318 1.1060998 5002588
0.030077685 -0.18239686 1.105647 5528419
0.017958693 -0.17753486 1.116321 4739163
0.024705866 -0.1765421 1.1115224 5002333
0.034027945 -0.17739232 1.1098784 5397092
0.043418832 -0.17861143 1.1109527 5332066
0.049526639 -0.18017159 1.1117921 4740695
0.017302884 -0.17105474 1.1180576 4082256
0.024009751 -0.17046767 1.1153346 5068120
0.046660498 -0.17398652 1.1133646 5200736
0.055268399 -0.17532232 1.1160982 4345175
0.062537402 -0.17726354 1.1177531 4278096
0.059524588 -0.16885677 1.1230303 4147028
0.064119637 -0.1731859 1.1235374 3819087
0.065229326 -0.16681904 1.1289142 3687502
0.031854477 -0.19744647 1.0986116 5528423
0.036192421 -0.19759282 1.0984906 5397348
0.023063716 -0.18865134 1.1051008 4804702
0.03239901 -0.18898001 1.1033431 5462626
0.0417316 -0.19187561 1.1036137 5003105
0.050272979 -0.19202289 1.1060617 4804440
0.015631065 -0.18522018 1.1160604 3817824
0.0209898 -0.18348922 1.1102369 4673622
0.036816098 -0.18481112 1.1079664 5660265
0.044358619 -0.18481725 1.1083323 5069150
0.053690478 -0.18630807 1.1103981 4475986
0.059757967 -0.18509471 1.1135201 4014924
0.057546079 -0.18225364 1.1149472 4606547
0.063589878 -0.18224269 1.1165411 3620428
0.024144858 -0.20597976 1.0961114 4079956
0.030545145 -0.20480704 1.0933782 5266270
0.03635231 -0.20721671 1.0938557 5002845
0.022348879 -0.20151576 1.1013265 4079963
0.029477434 -0.20131293 1.0971011 5330781
0.040190414 -0.20283173 1.0982792 5002331
0.044448998 -0.19927189 1.1025929 5001816
0.049007807 -0.19961303 1.1050643 4540755
0.054552309 -0.19621791 1.1101906 4213074
0.028109485 -0.22162236 1.090338 5265766
0.027617063 -0.21715744 1.0934541 5068639
0.0364847 -0.21679582 1.0935366 4214103
0.020672597 -0.20932958 1.0982728 1580089
0.041859962 -0.21097845 1.0971987 4145996
0.045514688 -0.20835145 1.1017951 4212054
0.021540621 -0.22425523 1.0914791 3618132
0.026778486 -0.22513309 1.0897056 5199718
0.033456605 -0.22525053 1.0897695 4214875
0.021871859 -0.26301828 1.0419701 528927
0.026815463 -0.26369905 1.0406392 1517876
0.024096468 -0.27848077 1.0365269 4419983
0.010324199 -0.27275383 1.0440696 1651559
0.015885849 -0.27001917 1.0427526 1782104
0.027463848 -0.2700555 1.0379255 4154236
0.03302905 -0.27266955 1.0417985 3028033
0.019815765 -0.27225962 1.0507507 2369321
0.027585285 -0.26963773 1.0481278 2040105
0.023100263 -0.26115912 1.0665697 4146252
0.009620117 -0.28386897 1.0435133 5077683
0.015951913 -0.28420648 1.0396787 4617364
0.025189651 -0.28512943 1.038002 4549258
0.031345367 -0.28102872 1.0410895 6582660
0.01054623 -0.27567086 1.052477 7695014
0.018733641 -0.27546853 1.0550444 2040625
0.026940102 -0.27504882 1.054747 2172202
0.032812942 -0.2775307 1.0492826 2760198
0.013002653 -0.2962226 1.0352329 4683677
0.018625705 -0.29669225 1.0344262 3831442
0.006620124 -0.29187477 1.0421139 3299734
0.013243333 -0.29202318 1.0385578 4683420
0.021599697 -0.29379195 1.0372634 3960460
-0.0058983918 -0.33580914 0.97525984 3829135
0.0021997131 -0.33629227 0.97454661 4223637
0.0082685165 -0.33697924 0.97325802 3960467
-0.005178446 -0.33210832 0.98388588 3498881
0.003216194 -0.33225796 0.98295057 3895695
0.01117097 -0.33275646 0.9832055 3631246
-0.0031890366 -0.32502866 0.99283493 3499128
0.0038294178 -0.32593656 0.99108148 4025235
0.012632387 -0.32799727 0.9914366 3499655
-0.0010250472 -0.31960815 1.0004697 3826560
0.0056056976 -0.32064009 0.99967265 4156303
0.013325725 -0.32380503 0.99903524 3630985
0.00069951452 -0.31869605 1.010257 3893387
0.0072901137 -0.3176896 1.008993 4157333
0.014583789 -0.31998742 1.0092233 3762828
0.0037128981 -0.31738761 1.0185013 3762325
0.0098248553 -0.31349564 1.0185742 4420507
0.015883654 -0.31621528 1.0184654 3828877
0.0048238933 -0.31193495 1.0312132 4222878
0.011682251 -0.30981055 1.0270526 4552347
0.017664772 -0.31317538 1.0269591 3631755
0.0044957753 -0.30358285 1.0364265 3627913
0.012787219 -0.30306169 1.0328299 4683676
0.020002648 -0.30585194 1.0341476 3892613
0.022287926 -0.29986817 1.0398784 3563127
-0.0091927443 -0.34447405 0.9687047 3033484
-0.0011828877 -0.34774381 0.96757311 2897991
0.0088949427 -0.34781271 0.96668202 3891064
0.016430184 -0.34967282 0.96695745 2638186
-0.011660302 -0.33930784 0.97696018 666715
-0.0012713857 -0.34107637 0.97337896 4813457
0.012609666 -0.34105349 0.9741317 3499654
0.019632053 -0.34498233 0.97467959 3561592
-0.010459544 -0.33483785 0.9873957 6722
0.014030528 -0.33734703 0.98280609 3694979
0.020512126 -0.33962712 0.98289627 3233144
0.017277289 -0.33344537 0.99202567 3104639
0.021834794 -0.33674866 0.99263126 2640231
0.018171608 -0.32962543 1.000937 2907007
0.022360314 -0.33420664 1.002005 3099492
-0.0019635353 -0.32302892 1.0152329 4089741
0.019329226 -0.32620689 1.0098326 3496061
0.023672748 -0.33039171 1.0120747 4278874
0.0016331915 -0.3200838 1.0222499 2972810
0.0203394 -0.32306665 1.0197165 3757171
0.023848429 -0.32714745 1.0196135 3748927
0.0037134588 -0.31793928 1.0273322 3630740
0.022150669 -0.31901562 1.0257633 3953004
-0.0029306877 -0.35486317 0.9640457 984897
0.0080417488 -0.35422269 0.96608531 4350584
0.022089995 -0.34638315 0.98667437 4674411
0.023367006 -0.34521991 0.99533701 6974583
0.023440789 -0.34077805 1.0056505 3815753
-0.0061036143 -0.33124375 1.0187073 5799072
0.025880057 -0.3343823 1.0130347 5064001
0.020983491 -0.36003327 0.98611236 7039097
0.021633277 -0.35868764 0.9917962 7565430
0.022365013 -0.3549659 0.99962878 8223350
0.023523651 -0.34745491 1.0053241 9076613
