# .PCD v0.7 - Point Cloud Data file format
VERSION 0.7
FIELDS x y z rgba
SIZE 4 4 4 4
TYPE F F F U
COUNT 1 1 1 1
WIDTH 174
HEIGHT 1
VIEWPOINT 0 0 0 1 0 0 0
POINTS 174
DATA ascii
-0.00011586584 -0.13722503 1.1482821 5134174
0.0060273558 -0.13763851 1.1450989 5134176
0.00051358528 -0.13571198 1.152692 4871515
-0.011496655 -0.14970678 1.1363822 4936281
-0.0019990336 -0.15036604 1.1314001 5199967
0.0027198549 -0.15028834 1.1301585 5397348
-0.017889867 -0.14736906 1.1445369 4673880
-0.010722735 -0.14560375 1.1414927 4870232
-0.0013911501 -0.14610535 1.1393527 5068382
0.0082388241 -0.14634323 1.1373686 5068384
0.016270434 -0.14661871 1.1370879 4476504
-0.01618069 -0.14300898 1.1528765 4607822
-0.0094640972 -0.14162904 1.1506809 4673623
0.00098892674 -0.1416977 1.1471977 5134174
0.011289695 -0.14124075 1.1453626 4739419
0.018895043 -0.1424107 1.1435584 4081746
-0.01422373 -0.14186503 1.1611136 4410445
-0.006184428 -0.13854611 1.1590408 4213839
0.003911769 -0.13821536 1.1568855 4345429
0.013559999 -0.1381892 1.1539432 4016211
0.021466753 -0.13926317 1.1519121 3621193
-0.0043077599 -0.13676745 1.1638688 3884109
0.0050056297 -0.13629881 1.1623785 3752784
0.01507354 -0.13615483 1.1596636 3621192
0.021868823 -0.1363931 1.1568096 3686459
-0.021476328 -0.16366079 1.1306015 4673626
-0.014109401 -0.16114223 1.1268164 4870741
-0.0055071404 -0.16155022 1.1234738 5265754
0.004429549 -0.16141088 1.1216463 5397604
0.013623552 -0.163184 1.1228994 4608350
-0.020689199 -0.15703103 1.1378911 4673629
-0.013167268 -0.15534969 1.1336775 4870744
-0.0053968364 -0.15540978 1.1299872 5134174
0.0070774406 -0.1551809 1.128877 5397606
0.015684506 -0.15873305 1.1287806 4476760
0.022908615 -0.15938199 1.1315678 4015442
-0.025013302 -0.15870833 1.1486291 3883351
-0.022147832 -0.15373158 1.1461402 4475995
0.0094515514 -0.15242913 1.1344122 5068641
0.019271197 -0.15318792 1.1356359 4082513
0.025739638 -0.15692675 1.136547 3752531
-0.021069329 -0.14936715 1.1552273 4079443
0.023295319 -0.14967297 1.1432985 3621705
0.027409928 -0.15330298 1.1409394 3751503
0.023394121 -0.14581536 1.1501832 3490378
-0.013544581 -0.18036382 1.1145201 5002588
-0.010455227 -0.18031964 1.1136869 5528419
-0.021520182 -0.17738986 1.1260735 4739163
-0.015499 -0.1754397 1.1206441 5002333
-0.0064079734 -0.17535549 1.1178741 5397092
0.0031087371 -0.17585188 1.117752 5332066
0.0093731079 -0.17694806 1.1177423 4740695
-0.022445466 -0.17115134 1.1284531 4082256
-0.016181815 -0.16977558 1.1250451 5068120
0.0062623564 -0.17117782 1.1201857 5200736
0.015214233 -0.17199129 1.1217842 4345175
0.022755506 -0.17343284 1.1224141 4278096
0.019782225 -0.16576888 1.1287404 4147028
0.024717068 -0.16971695 1.1283245 3819087
0.025989441 -0.16373503 1.134093 3687502
-0.0084194895 -0.19454341 1.1051614 5528423
-0.0041296515 -0.19430882 1.1045321 5397348
-0.016993675 -0.18708491 1.1133831 4804702
-0.0079425592 -0.18647245 1.1105462 5462626
0.0015448974 -0.18857357 1.1094841 5003105
0.010306956 -0.18818931 1.1109152 4804440
-0.023278099 -0.18519932 1.1253865 3817824
-0.018810984 -0.18255153 1.1191688 4673622
-0.0033229217 -0.18233004 1.114992 5660265
0.0041872375 -0.18172222 1.1144904 5069150
0.013786258 -0.18257377 1.1153314 4475986
0.02007932 -0.18110397 1.1178356 4014924
0.017849764 -0.17858693 1.1197577 4606547
0.024024291 -0.17818946 1.120644 3620428
-0.015712351 -0.20347278 1.1027979 4079956
-0.0097973952 -0.20154077 1.0994676 5266270
-0.0038106712 -0.20347689 1.0990574 5002845
-0.017192531 -0.19961536 1.1085666 4079963
-0.010664962 -0.1984635 1.1035891 5330781
0.000195425 -0.19915311 1.1033913 5002331
0.0046663899 -0.195604 1.1074939 5001816
0.0095040482 -0.19575393 1.1093862 4540755
0.015358744 -0.19232446 1.1141306 4213074
-0.011313493 -0.21820094 1.0952168 5265766
-0.011758243 -0.21406138 1.0987599 5068639
-0.002998556 -0.21295235 1.0978596 4214103
-0.018635066 -0.20727062 1.1050302 1580089
0.0023289351 -0.20701331 1.1013941 4145996
0.006306611 -0.20446497 1.1057608 4212054
-0.01747879 -0.2214684 1.0968589 3618132
-0.01244381 -0.22174962 1.0944256 5199718
-0.005817472 -0.22130165 1.0937141 4214875
-0.0202461 -0.25592458 1.0443333 528927
-0.01546347 -0.25607106 1.0423894 1517876
-0.017542899 -0.27064911 1.0372944 4419983
-0.030689195 -0.26674783 1.0468506 1651559
-0.025549799 -0.26345098 1.0451587 1782104
-0.014673386 -0.26210827 1.0390552 4154236
-0.0084987506 -0.264543 1.0420134 3028033
-0.020521186 -0.26598829 1.0524188 2369321
-0.013346536 -0.26250929 1.0491723 2040105
-0.016184816 -0.25596571 1.0686973 4146252
-0.030618357 -0.2778008 1.0453748 5077683
-0.024791358 -0.27728519 1.0408261 4617364
-0.015782304 -0.27727777 1.0380268 4549258
-0.009623087 -0.27293035 1.0407481 6582660
-0.029230002 -0.27030653 1.0548786 7695014
-0.020830065 -0.26961496 1.0565 2040625
-0.012775255 -0.26847389 1.0553048 2172202
-0.0074391672 -0.26999491 1.0490022 2760198
-0.027346984 -0.28910947 1.0356778 4683677
-0.021844108 -0.28903079 1.0341938 3831442
-0.033155873 -0.28589368 1.0436089 3299734
-0.027020857 -0.28518796 1.0393196 4683420
-0.01877421 -0.28612664 1.0369228 3960460
-0.050357617 -0.32517695 0.97492611 3829135
-0.042392671 -0.32490802 0.97325015 4223637
-0.03649075 -0.32496807 0.97121882 3960467
-0.048876353 -0.32213897 0.98371249 3498881
-0.040669929 -0.32149559 0.98181307 3895695
-0.032728195 -0.32133257 0.98110998 3631246
-0.046353333 -0.31566349 0.99297893 3499128
-0.039551299 -0.31582421 0.99035895 4025235
-0.030640522 -0.31714833 0.9895165 3499655
-0.043692343 -0.31071424 1.0007749 3826560
-0.037148662 -0.31110874 0.9991343 4156303
-0.029347198 -0.31354138 0.997334 3630985
-0.040866278 -0.31045395 1.0103427 3893387
-0.034572154 -0.30878982 1.0084293 4157333
-0.027152551 -0.31046802 1.0076146 3762828
-0.036981612 -0.30956519 1.0182725 3762325
-0.03121583 -0.30518466 1.0179976 4420507
-0.02502791 -0.30735964 1.0169505 3828877
-0.034749132 -0.30508503 1.0312147 4222878
-0.028625511 -0.30205327 1.0265063 4552347
-0.022462752 -0.30487671 1.0254246 3631755
-0.035068847 -0.29724109 1.0371659 3627913
-0.027337914 -0.29572487 1.0327061 4683676
-0.019826792 -0.29798681 1.0329316 3892613
-0.017319115 -0.29231372 1.0388812 3563127
-0.0537626 -0.33353192 0.96803385 3033484
-0.045726374 -0.33600393 0.96570188 2897991
-0.035854682 -0.33514032 0.96366096 3891064
-0.028223393 -0.33636689 0.9629029 2638186
-0.055591293 -0.32928067 0.97695094 666715
-0.045610435 -0.32986051 0.97205919 4813457
-0.031781875 -0.32871437 0.97121769 3499654
-0.024469681 -0.33206117 0.97060055 3561592
-0.053472362 -0.32558441 0.98754197 6722
-0.029601434 -0.32561493 0.97997212 3694979
-0.023003927 -0.32733345 0.97911334 3233144
-0.025562301 -0.32220998 0.98907471 3104639
-0.020729745 -0.32515052 0.98885339 2640231
-0.023882786 -0.31906191 0.99813414 2907007
-0.01926313 -0.32334042 0.99829668 3099492
-0.042572644 -0.31538695 1.015178 4089741
-0.021914409 -0.31628877 1.0071115 3496061
-0.017028829 -0.32025549 1.0084538 4278874
-0.038382526 -0.31272364 1.0219749 2972810
-0.019951146 -0.31388456 1.0170581 3757171
-0.016183885 -0.31762931 1.0161855 3748927
-0.035867963 -0.31082815 1.0269589 3630740
-0.017729037 -0.31019682 1.0231998 3953004
-0.047349364 -0.34293729 0.96176779 984897
-0.036289886 -0.34153026 0.96258807 4350584
-0.020476064 -0.33421394 0.982059 4674411
-0.018248323 -0.33365133 0.99058813 6974583
-0.017257532 -0.33006924 1.0011848 3815753
-0.045631424 -0.32417935 1.0183454 5799072
-0.014427762 -0.3241078 1.0087898 5064001
-0.020613728 -0.34781814 0.98039418 7039097
-0.019381978 -0.34688669 0.98606461 7565430
-0.017986912 -0.3437627 0.99406648 8223350
-0.016713396 -0.33666629 1.0002482 9076613
