# .PCD v0.7 - Point Cloud Data file format
VERSION 0.7
FIELDS x y z rgba
SIZE 4 4 4 4
TYPE F F F U
COUNT 1 1 1 1
WIDTH 174
HEIGHT 1
VIEWPOINT 0 0 0 1 0 0 0
POINTS 174
DATA ascii
-0.012825161 -0.12822451 1.1504318 5134174
-0.0066875722 -0.12856662 1.1472293 5134176
-0.012206359 -0.12664659 1.1548203 4871515
-0.024024479 -0.14105308 1.1387303 4936281
-0.014535438 -0.14160272 1.1337185 5199967
-0.0098234368 -0.14145559 1.1324573 5397348
-0.030427836 -0.13873085 1.1468812 4673880
-0.023305178 -0.1368746 1.1437873 4870232
-0.013974238 -0.13723487 1.1416162 5068382
-0.0043491144 -0.13732417 1.1395966 5068384
0.0036850329 -0.13745892 1.1392872 4476504
-0.028765853 -0.13423911 1.1551604 4607822
-0.022083519 -0.13276586 1.1529213 4673623
-0.011644194 -0.13268958 1.1493974 5134174
-0.0013603233 -0.13207036 1.1475158 4739419
0.0062579643 -0.13312566 1.1456954 4081746
-0.026798662 -0.13295956 1.1633751 4410445
-0.018828258 -0.12952253 1.1612298 4213839
-0.0087478645 -0.1290371 1.1590304 4345429
0.00088714063 -0.12887384 1.1560494 4016211
0.0088041965 -0.12983052 1.1539999 3621193
-0.01696565 -0.12765157 1.1660284 3884109
-0.007667901 -0.12703417 1.1644953 3752784
0.0023854524 -0.12674281 1.1617385 3621192
0.0091730896 -0.12689403 1.1588604 3686459
-0.033773303 -0.15525357 1.1331596 4673626
-0.026467236 -0.15264973 1.1293147 4870741
-0.017871726 -0.15294419 1.1259428 5265754
-0.007946128 -0.15264896 1.1240742 5397604
0.0012829527 -0.15424138 1.125312 4608350
-0.033078007 -0.14852208 1.1403648 4673629
-0.025603523 -0.14675772 1.136101 4870744
-0.017847277 -0.14672354 1.1323807 5134174
-0.0053834226 -0.14628448 1.131218 5397606
0.0032857247 -0.14968255 1.1311303 4476760
0.01053082 -0.15016763 1.1338964 4015442
-0.037330613 -0.1501452 1.1511396 3883351
-0.034564562 -0.14514866 1.1485789 4475995
-0.003038289 -0.14342305 1.1367096 5068641
0.0067979712 -0.1439905 1.1379032 4082513
0.013336023 -0.14760125 1.1388338 3752531
-0.033530399 -0.14065474 1.1576079 4079443
0.010787161 -0.14031045 1.1455063 3621705
0.014957448 -0.14389464 1.1431751 3751503
0.010842575 -0.13636775 1.1523432 3490378
-0.02560322 -0.17200708 1.1172509 5002588
-0.022518331 -0.17191768 1.1164049 5528419
-0.033587296 -0.16903558 1.1287991 4739163
-0.027622737 -0.16704427 1.1233224 5002333
-0.018545233 -0.16683087 1.1205152 5397092
-0.009021664 -0.16715789 1.1203611 5332066
-0.0027386677 -0.16814153 1.1203398 4740695
-0.034615647 -0.16278601 1.1311064 4082256
-0.028390691 -0.16133989 1.1276568 5068120
-0.0059434567 -0.16239858 1.1227251 5200736
0.0030275825 -0.1630317 1.1242976 4345175
0.010595893 -0.16432989 1.1249148 4278096
0.0075091664 -0.15664369 1.1311593 4147028
0.012512626 -0.16050738 1.1307718 3819087
0.013698982 -0.15443349 1.136462 3687502
-0.020259297 -0.18620586 1.1080451 5528423
-0.015976783 -0.18590206 1.1073958 5397348
-0.028935123 -0.17880239 1.1162096 4804702
-0.019907279 -0.17806238 1.1133294 5462626
-0.010387645 -0.18000577 1.1122549 5003105
-0.0016285703 -0.17944691 1.113646 4804440
-0.035207026 -0.17688315 1.1282141 3817824
-0.030811805 -0.1742319 1.1219469 4673622
-0.015346133 -0.17378367 1.1177059 5660265
-0.0078500733 -0.17304739 1.1171669 5069150
0.001765823 -0.17371622 1.1179798 4475986
0.0080408454 -0.17210324 1.1204407 4014924
0.0057736561 -0.16960327 1.1223409 4606547
0.011943338 -0.16908428 1.1231977 3620428
-0.027399233 -0.19529289 1.1058195 4079956
-0.021532621 -0.19329596 1.1024424 5266270
-0.015513632 -0.19512922 1.1020318 5002845
-0.028926745 -0.19139236 1.1115468 4079963
-0.022439819 -0.19018455 1.1065295 5330781
-0.011569607 -0.19068158 1.1062967 5002331
-0.007147735 -0.18700288 1.1103379 5001816
-0.0023010429 -0.18704285 1.1122125 4540755
0.0035089087 -0.1834511 1.1168914 4213074
-0.022764834 -0.21003139 1.0984005 5265766
-0.023270581 -0.20585746 1.1018949 5068639
-0.014535729 -0.20460252 1.1009461 4214103
-0.030244697 -0.19911496 1.1081095 1580089
-0.0093026133 -0.19852607 1.1043867 4145996
-0.0053549428 -0.19585353 1.1087061 4212054
-0.028864102 -0.21338862 1.100107 3618132
-0.023834113 -0.2136092 1.0976571 5199718
-0.017219644 -0.21305114 1.0969137 4214875
-0.031209687 -0.24852888 1.0480158 528927
-0.026432579 -0.2486133 1.0460546 1517876
-0.028268673 -0.26328754 1.0411458 4419983
-0.041446801 -0.25950617 1.0507063 1651559
-0.036373977 -0.25613856 1.048954 1782104
-0.025546629 -0.25467572 1.0427911 4154236
-0.019318057 -0.2569629 1.045754 3028033
-0.031273123 -0.25849622 1.0562242 2369321
-0.024174545 -0.25492904 1.0529069 2040105
-0.027056241 -0.24819908 1.0723622 4146252
-0.041182719 -0.27057332 1.0493647 5077683
-0.03538318 -0.27000892 1.0447868 4617364
-0.026386365 -0.2698741 1.0419518 4549258
-0.020296104 -0.2653839 1.0445952 6582660
-0.039893486 -0.26293963 1.058771 7695014
-0.031501278 -0.26207769 1.0603504 2040625
-0.023472877 -0.26080698 1.0591091 2172202
-0.018134156 -0.26230901 1.0528041 2760198
-0.037745129 -0.28193927 1.039793 4683677
-0.032250207 -0.28178 1.0382862 3831442
-0.043580905 -0.27873138 1.0477077 3299734
-0.037475832 -0.27796823 1.0433855 4683420
-0.029222755 -0.27878809 1.0409675 3960460
-0.060332723 -0.31915426 0.97957712 3829135
-0.052380305 -0.31876302 0.97786617 4223637
-0.046485983 -0.31874198 0.97581214 3960467
-0.058873147 -0.31598294 0.98831987 3498881
-0.050686866 -0.31521571 0.98637992 3895695
-0.042752065 -0.31491882 0.98564315 3631246
-0.056432009 -0.30935034 0.99749666 3499128
-0.049638141 -0.30942106 0.99485171 4025235
-0.040708233 -0.31059527 0.99398977 3499655
-0.053831026 -0.30425918 1.0052212 3826560
-0.047287561 -0.30455622 1.0035594 4156303
-0.039450459 -0.30687034 1.0017576 3630985
-0.050973952 -0.30383119 1.0147738 3893387
-0.044718064 -0.30207792 1.0128151 4157333
-0.037272606 -0.30363256 1.0119913 3762828
-0.047075957 -0.30277589 1.0226766 3762325
-0.041390985 -0.29829633 1.0223253 4420507
-0.035168946 -0.30037257 1.0212801 3828877
-0.044875517 -0.29809844 1.0355543 4222878
-0.038825266 -0.29501513 1.0307848 4552347
-0.03261685 -0.29774058 1.0297129 3631755
-0.045313783 -0.2901893 1.0414108 3627913
-0.037628293 -0.28858924 1.0369021 4683676
-0.030076897 -0.29071313 1.0371249 3892613
-0.027649205 -0.28492361 1.042995 3563127
-0.063612901 -0.32765266 0.97280061 3033484
-0.055542372 -0.33000845 0.97046679 2897991
-0.045695599 -0.3289929 0.96837604 3891064
-0.038046405 -0.33009154 0.96760243 2638186
-0.065484039 -0.32332614 0.98167259 666715
-0.055512935 -0.32378662 0.97674841 4813457
-0.041710511 -0.32240295 0.97583771 3499654
-0.034341685 -0.3256253 0.97523206 3561592
-0.063391924 -0.31946316 0.99220932 6722
-0.039553098 -0.31915802 0.98454499 3694979
-0.032929037 -0.32076824 0.98368078 3233144
-0.03554149 -0.31557003 0.99358928 3104639
-0.03065769 -0.31842589 0.99338436 2640231
-0.033884637 -0.31228176 1.0026029 2907007
-0.02918818 -0.31647438 1.002799 3099492
-0.05257301 -0.30873448 1.0196755 4089741
-0.03193254 -0.30936411 1.011538 3496061
-0.026971355 -0.31322584 1.0129088 4278874
-0.048405819 -0.30591348 1.0264227 2972810
-0.029975254 -0.30680355 1.0214467 3757171
-0.026144564 -0.31049052 1.0206046 3748927
-0.045906939 -0.30391231 1.0313731 3630740
-0.027796643 -0.3030017 1.027534 3953004
-0.057055242 -0.33701742 0.9666239 984897
-0.046019841 -0.33540225 0.96738273 4350584
-0.030266695 -0.32756573 0.98669982 4674411
-0.028017206 -0.32685894 0.99521244 6974583
-0.027050959 -0.32313031 1.0057608 3815753
-0.055461138 -0.31754094 1.0229617 5799072
-0.024300156 -0.31702644 1.0132812 5064001
-0.030165903 -0.34118956 0.98520112 7039097
-0.028929679 -0.34016687 0.99085486 7565430
-0.027560797 -0.33692068 0.9988125 8223350
-0.026391782 -0.32972747 1.0049022 9076613
