# .PCD v0.7 - Point Cloud Data file format
VERSION 0.7
FIELDS x y z rgba
SIZE 4 4 4 4
TYPE F F F U
COUNT 1 1 1 1
WIDTH 174
HEIGHT 1
VIEWPOINT 0 0 0 1 0 0 0
POINTS 174
DATA ascii
-0.0626975 -0.093687341 1.1371561 5134174
-0.056053281 -0.095516525 1.1364137 5134176
-0.063294627 -0.091660216 1.1413593 4871515
-0.07166566 -0.10585154 1.1230662 4936281
-0.061377067 -0.10870796 1.1218634 5199967
-0.056598112 -0.10955024 1.1223805 5397348
-0.079824083 -0.10137399 1.1281873 4673880
-0.07185287 -0.10121419 1.1277578 4870232
-0.062637284 -0.10347354 1.1291282 5068382
-0.053146869 -0.10549892 1.1307281 5068384
-0.045706749 -0.10706171 1.133348 4476504
-0.080179453 -0.096157372 1.1361963 4607822
-0.072983392 -0.096179217 1.1364281 4673623
-0.062199518 -0.098387726 1.1369114 5134174
-0.052003764 -0.099817112 1.1388311 4739419
-0.044623084 -0.1024108 1.1399554 4081746
-0.080907069 -0.09413597 1.1444651 4410445
-0.072150543 -0.092452064 1.1451209 4213839
-0.062061027 -0.094019838 1.1466801 4345429
-0.052180998 -0.095930822 1.1473726 4016211
-0.04442776 -0.09851104 1.148385 3621193
-0.07168594 -0.0902986 1.1501349 3884109
-0.062513083 -0.09151198 1.1520233 3752784
-0.052299153 -0.093339957 1.1530669 3621192
-0.045129705 -0.095051348 1.1528485 3686459
-0.081681199 -0.11877406 1.115293 4673626
-0.073129177 -0.11801843 1.1141821 4870741
-0.064164683 -0.12024914 1.1141658 5265754
-0.054369643 -0.12193088 1.1159894 5397604
-0.04666739 -0.12491268 1.1205751 4608350
-0.082086697 -0.1113508 1.1218077 4673629
-0.073413737 -0.11150003 1.1204227 4870744
-0.065030709 -0.11331222 1.119758 5134174
-0.053119816 -0.11519694 1.1231449 5397606
-0.045857918 -0.12002308 1.1264131 4476760
-0.040262282 -0.12137436 1.1316324 4015442
-0.089995757 -0.11073855 1.1304035 3883351
-0.085540064 -0.1066895 1.1286931 4475995
-0.0522414 -0.11206672 1.1289134 5068641
-0.043752585 -0.1141596 1.13361 4082513
-0.038835313 -0.11868666 1.1370707 3752531
-0.086725846 -0.10126057 1.1371729 4079443
-0.041915122 -0.11022893 1.1418827 3621705
-0.038050868 -0.11476268 1.1414526 3751503
-0.043366633 -0.10546557 1.148006 3490378
-0.072288021 -0.13868716 1.104534 5002588
-0.06915386 -0.13924807 1.1048542 5528419
-0.082916401 -0.13284242 1.112203 4739163
-0.075166322 -0.13267353 1.1091299 5002333
-0.065845944 -0.1344156 1.1097797 5397092
-0.057134077 -0.13640249 1.1130941 5332066
-0.051575046 -0.13845156 1.1154054 4740695
-0.083333865 -0.12625504 1.1135706 4082256
-0.076150201 -0.1263883 1.1125129 5068120
-0.054120027 -0.13197143 1.1160934 5200736
-0.046567045 -0.13392738 1.1208347 4345175
-0.040113606 -0.13641906 1.1242244 4278096
-0.043457583 -0.12754056 1.1284184 4147028
-0.039550629 -0.13222766 1.1301155 3819087
-0.039127879 -0.12573616 1.1354409 3687502
-0.067232735 -0.15471078 1.0988246 5528423
-0.063023016 -0.15524301 1.0997459 5397348
-0.076412395 -0.14488132 1.1028067 4804702
-0.067002147 -0.146111 1.1033362 5462626
-0.058319382 -0.14979884 1.1058983 5003105
-0.050648823 -0.15057983 1.1103166 4804440
-0.085847877 -0.1402974 1.1115867 3817824
-0.07912825 -0.1393204 1.1071688 4673622
-0.063415565 -0.14213251 1.1087743 5660265
-0.056207612 -0.14278361 1.1109296 5069150
-0.047812298 -0.14498886 1.1151991 4475986
-0.042561617 -0.14416695 1.1196476 4014924
-0.044762347 -0.14107847 1.1204342 4606547
-0.039291114 -0.141523 1.1234236 3620428
-0.074924275 -0.16264263 1.0947709 4079956
-0.067978188 -0.16216673 1.0936155 5266270
-0.062706761 -0.16505174 1.095525 5002845
-0.077457279 -0.15779705 1.0992935 4079963
-0.069549419 -0.15842056 1.0968875 5330781
-0.059612263 -0.16081685 1.1006256 5002331
-0.056164928 -0.15744506 1.1057407 5001816
-0.052370246 -0.15806815 1.1092362 4540755
-0.047886312 -0.15493482 1.1154511 4213074
-0.071241297 -0.17882791 1.0905031 5265766
-0.072019719 -0.17419492 1.093299 5068639
-0.063428059 -0.17460983 1.0954863 4214103
-0.079114124 -0.16556887 1.0961242 1580089
-0.058529586 -0.16912057 1.1001787 4145996
-0.055822767 -0.16661061 1.1054473 4212054
-0.078116767 -0.18081705 1.0901091 3618132
-0.072718553 -0.18223414 1.0896592 5199718
-0.066286318 -0.18293433 1.0913179 4214875
-0.069890209 -0.22175273 1.043094 528927
-0.06486167 -0.22292703 1.0429987 1517876
-0.067950383 -0.23759045 1.0387272 4419983
-0.082491726 -0.23032677 1.0426199 1651559
-0.076539151 -0.22815625 1.0426002 1782104
-0.064209618 -0.22943681 1.0406779 4154236
-0.059990704 -0.2323437 1.0458311 3028033
-0.074836165 -0.2303531 1.0513585 2369321
-0.06645193 -0.22855027 1.0506006 2040105
-0.074309766 -0.21884969 1.0672216 4146252
-0.084114417 -0.24135098 1.0421896 5077683
-0.077121221 -0.24242376 1.0399864 4617364
-0.067881748 -0.24423236 1.0405862 4549258
-0.062258948 -0.24054684 1.04495 6582660
-0.084536314 -0.23285198 1.0509076 7695014
-0.077202469 -0.23324838 1.0553488 2040625
-0.069155261 -0.23356536 1.0570078 2172202
-0.062429439 -0.23680842 1.0531664 2760198
-0.080087267 -0.25433087 1.035267 4683677
-0.074504577 -0.25533003 1.0358374 3831442
-0.087459169 -0.24911955 1.0403152 3299734
-0.080231413 -0.2500166 1.0384471 4683420
-0.072015889 -0.2525714 1.0392289 3960460
-0.088078663 -0.29489118 0.97352463 3829135
-0.080125555 -0.29611662 0.97477674 4223637
-0.07401938 -0.29739383 0.9749912 3960467
-0.08905451 -0.29086488 0.98197806 3498881
-0.080730177 -0.29179502 0.98307699 3895695
-0.073144943 -0.29297745 0.98523521 3631246
-0.088552535 -0.28357282 0.99096346 3499128
-0.081439875 -0.28517517 0.99095875 4025235
-0.073208638 -0.28798181 0.99345565 3499655
-0.087732643 -0.278009 0.99875611 3826560
-0.081231914 -0.27965558 0.99959046 4156303
-0.073921107 -0.28351271 1.000893 3630985
-0.088279195 -0.27679092 1.0086462 3893387
-0.081510752 -0.27642781 1.0089669 4157333
-0.074732721 -0.27934372 1.0109884 3762828
-0.087178051 -0.27536449 1.0173361 3762325
-0.080908574 -0.27202511 1.0187683 4420507
-0.075285748 -0.27526832 1.0201764 3828877
-0.088567838 -0.26943654 1.0298055 4222878
-0.080751121 -0.2681213 1.0273501 4552347
-0.075267933 -0.27199906 1.0287709 3631755
-0.089305624 -0.2608512 1.0345796 3627913
-0.080390282 -0.26123041 1.0330536 4683676
-0.073991261 -0.2645781 1.0361243 3892613
-0.072551817 -0.25855434 1.0420836 3563127
-0.090558827 -0.30353308 0.96659136 3033484
-0.082861565 -0.30754325 0.96748596 2897991
-0.072911985 -0.30853873 0.96902752 3891064
-0.065868706 -0.3110382 0.97113949 2638186
-0.094388828 -0.29778627 0.9738878 666715
-0.083669551 -0.30062723 0.97293448 4813457
-0.07041961 -0.30178773 0.97697711 3499654
-0.064136058 -0.30628777 0.97928292 3561592
-0.095251113 -0.29295146 0.98419327 6722
-0.070728406 -0.29781511 0.98564458 3694979
-0.06470108 -0.30064869 0.9873358 3233144
-0.06938073 -0.29378283 0.9952721 3104639
-0.065434262 -0.29744124 0.99703014 2640231
-0.07024356 -0.28963983 1.0040411 2907007
-0.066885851 -0.29451561 1.0061918 3099492
-0.092443421 -0.28063354 1.0129496 4089741
-0.070886791 -0.28592014 1.0128677 3496061
-0.067617297 -0.29035968 1.0161853 4278874
-0.09033145 -0.2776877 1.0205464 2972810
-0.071931921 -0.28241774 1.0226253 3757171
-0.06890782 -0.28679121 1.0234648 3748927
-0.089308217 -0.27549666 1.025923 3630740
-0.07121177 -0.27826053 1.0288266 3953004
-0.084409125 -0.31464016 0.96382242 984897
-0.07421533 -0.31487003 0.96840477 4350584
-0.064715847 -0.30733132 0.9915489 4674411
-0.065406427 -0.30587712 1.0002341 6974583
-0.067332648 -0.30097711 1.0101529 3815753
-0.098057523 -0.28827995 1.0155399 5799072
-0.066093467 -0.29447889 1.0177437 5064001
-0.066971034 -0.3208428 0.9910804 7039097
-0.067549855 -0.31929266 0.9967196 7565430
-0.068325624 -0.31528401 1.004405 8223350
-0.067820072 -0.30764341 1.0100228 9076613
