# .PCD v0.7 - Point Cloud Data file format
VERSION 0.7
FIELDS x y z rgba
SIZE 4 4 4 4
TYPE F F F U
COUNT 1 1 1 1
WIDTH 1132
HEIGHT 1
VIEWPOINT 0 0 0 1 0 0 0
POINTS 1132
DATA ascii
0.021765385 0.044424899 1.0240848 5532021
-0.095297791 0.0023338571 1.0298939 7306630
-0.093305968 0.0032663941 1.0298446 7438985
-0.075217813 0.02065222 1.0353404 7044228
-0.071363978 0.020482391 1.0322574 6255491
0.093590192 0.020569891 1.0256902 6187632
0.099010751 0.020921595 1.0255708 6119529
-0.056740947 0.032433547 1.0288618 6780808
0.061900221 0.031723581 1.0263017 5465215
0.085548595 0.026026137 1.0308294 6056820
0.091599882 0.025158726 1.0290039 5988198
-0.044139326 0.040373825 1.0285369 7108737
-0.037630506 0.043115325 1.0316789 7108222
-0.029289274 0.043925785 1.0281924 6582396
0.05355709 0.039098091 1.028684 5859705
0.05883459 0.037097789 1.0273328 5728122
-0.024625206 0.047212861 1.0305705 6713719
-0.01815827 0.047973119 1.0318261 6450807
-0.0099792294 0.047971897 1.0299989 6122104
0.0018737223 0.04865054 1.0297382 6122617
0.014217724 0.048848189 1.0298868 6057083
0.020559017 0.048535101 1.0306854 6057334
-0.08018858 0.019574665 1.0384557 7832202
0.085385166 0.029468931 1.0348113 5792617
0.088360623 0.029391892 1.0347475 5724767
-0.036251307 0.046515949 1.0373282 7764863
-0.016312765 0.04997047 1.0368744 6384242
-0.0073863845 0.049739338 1.036683 6121843
0.16326767 -0.082044587 1.0528684 13950701
0.16629739 -0.082123034 1.0528034 13160147
0.16536547 -0.07906653 1.0528034 13423577
0.16424926 -0.091703855 1.0599127 12898285
0.16820055 -0.092788137 1.0593343 12832198
0.16291563 -0.08572185 1.0580444 10136266
0.16966802 -0.086374499 1.0580099 13159885
0.1634569 -0.07944122 1.0593487 12175571
0.16874963 -0.078538969 1.0557275 13093836
-0.140894 -0.10404842 1.0783936 1720740
-0.14149183 -0.097136348 1.0781491 3628972
-0.14233492 -0.09094172 1.0795385 4745397
0.16373542 -0.093409546 1.0689373 6256041
0.16821446 -0.096207581 1.069059 12767188
0.16226287 -0.084270485 1.0709094 7312841
-0.13919877 -0.12822479 1.0897193 2903988
-0.13608339 -0.12830546 1.0896524 1324707
-0.14036599 -0.11616431 1.0889148 2904505
-0.13885672 -0.10745025 1.0874742 2644141
0.16358151 -0.11319819 1.0830748 5801403
0.16800338 -0.11365914 1.0829823 11779799
-0.13830075 -0.096379504 1.0854887 3039906
0.16295129 -0.10408875 1.0820282 3630254
0.16913518 -0.10507353 1.0813125 11516624
0.17625692 -0.10521143 1.0827482 13685195
-0.14051802 -0.087335594 1.0878412 2708908
0.16293211 -0.095623165 1.0810974 3762605
0.16756237 -0.099542275 1.0798979 10465738
0.16317672 -0.088845007 1.0769213 6721740
-0.13770168 -0.070058875 1.0893031 1588628
-0.1345863 -0.070139542 1.0892363 3826867
-0.13291384 -0.1437141 1.0956872 3694011
-0.13776144 -0.1370704 1.0937476 7178192
-0.13249454 -0.13694678 1.094787 2114980
-0.13767476 -0.12559767 1.09367 1063065
-0.13324982 -0.12852667 1.0944939 2447769
-0.13701119 -0.11805179 1.0936059 2578847
-0.13443419 -0.11765191 1.0965483 2907546
0.16319928 -0.12415567 1.0886568 6851775
0.16876309 -0.12384521 1.0870341 13029078
-0.13604644 -0.10797614 1.0942687 3104917
-0.13411133 -0.10510781 1.0964586 3170462
0.16208535 -0.11333158 1.0886095 3040417
0.17168288 -0.1169166 1.0869253 13422807
0.17468172 -0.1138647 1.0868403 13619661
-0.1378102 -0.095403738 1.0942239 3104162
0.16104609 -0.10509353 1.0879345 2973607
-0.13692525 -0.087097049 1.0943999 3169952
0.16176774 -0.094985999 1.0899956 2843043
-0.13849193 -0.077381819 1.0935274 3301299
-0.12788217 -0.15568222 1.1056598 4750553
-0.12425414 -0.1579884 1.1075972 1196192
-0.12977837 -0.14838855 1.1024519 3036848
-0.12582776 -0.15072814 1.1075833 1789334
0.15820871 -0.15405992 1.0989646 12898004
-0.12841769 -0.13751598 1.1037734 2776475
0.15891699 -0.14498414 1.097789 9087435
0.1647696 -0.14051774 1.0942322 13488846
-0.13039236 -0.12672482 1.1035225 3038106
0.15902296 -0.13434039 1.0967163 4354994
0.16686292 -0.13259308 1.0941346 13752800
-0.13198431 -0.11696094 1.1049373 2973083
0.15926619 -0.1245653 1.0975544 2121388
-0.13656646 -0.10331985 1.1005008 3301280
-0.1332352 -0.10833348 1.1040992 3039132
0.16015537 -0.11653952 1.0953406 2646946
0.17655194 -0.1117028 1.0967882 13817039
-0.13640444 -0.097024955 1.1004558 3366820
-0.13376409 -0.097524345 1.1054033 3105183
0.1589195 -0.10423023 1.0988204 3631271
0.17765789 -0.10962602 1.0967505 13817037
-0.1361164 -0.085834026 1.1003757 3499424
-0.13337004 -0.086897559 1.1041243 3302563
0.15883252 -0.093978494 1.0979956 3369127
-0.13309549 -0.077401869 1.1037556 3434147
0.16101429 -0.084440447 1.0988537 2908578
0.16679221 -0.08197432 1.0968029 8233160
-0.13749689 -0.066149697 1.101133 3365295
-0.13214533 -0.067478903 1.1040158 3499689
0.16204651 -0.074887931 1.0985062 4024485
0.16700883 -0.073558271 1.0967426 11192030
-0.13568911 -0.057299241 1.1031789 2181536
-0.13043478 -0.057284735 1.1042656 3433908
0.16146532 -0.069419183 1.1008363 2708114
-0.13377494 -0.049096677 1.1070845 8233201
-0.13001598 -0.05032552 1.1052966 3564980
0.016796062 0.11891591 1.0987197 9935247
0.022528969 0.11966976 1.0985909 9934992
-0.11867946 -0.16698639 1.1162306 929696
-0.11445685 -0.16743273 1.1184505 1984411
0.14790474 -0.16995776 1.1127956 13424882
-0.11949489 -0.15741569 1.1138922 2512540
-0.11485303 -0.15941173 1.1170725 2906513
0.14932735 -0.16408706 1.1102811 8955594
0.15493713 -0.16291386 1.1065956 14080986
-0.12626933 -0.14314806 1.1145446 2381461
-0.12324882 -0.14839543 1.1164519 2776212
0.14976713 -0.15450314 1.1089724 3697834
-0.12654571 -0.13721184 1.115345 2841752
-0.12445883 -0.14156583 1.1184961 2906774
0.15188582 -0.14463457 1.1093416 2646183
-0.12813982 -0.12659825 1.1163335 2907034
-0.12418438 -0.13090296 1.1184198 2775704
0.15271109 -0.13591063 1.1103665 3696546
0.15486896 -0.13143277 1.1097236 3761571
-0.12894545 -0.11713275 1.1148753 2973083
0.1566893 -0.12538247 1.1089774 3368880
-0.12978818 -0.10690325 1.1142814 3039134
0.15727566 -0.11378845 1.1084942 3500454
-0.12970282 -0.096454464 1.1139106 3171232
0.15644373 -0.10531831 1.1094695 3631529
-0.13004936 -0.087678649 1.11316 3302564
0.15511328 -0.094917841 1.1051428 3697839
0.15558854 -0.095160186 1.108135 3763633
-0.12985341 -0.077119865 1.1138862 3368355
0.15643762 -0.083925217 1.1077566 3436468
0.17084299 -0.08067055 1.1077096 10992842
-0.12724745 -0.06676659 1.1137617 3697068
0.15472132 -0.070903517 1.1119946 3765679
0.15775211 -0.073517159 1.107127 3830452
0.17059828 -0.076411463 1.1076868 11387079
-0.12599726 -0.05903649 1.1114831 3631022
-0.12375052 -0.055887721 1.1109135 3500456
0.15420102 -0.063991964 1.1090707 3830449
0.16084762 -0.064675316 1.1064513 5207985
0.16742656 -0.065828279 1.1103528 10334913
-0.12588069 -0.046997145 1.1134731 3434161
0.15356569 -0.055043288 1.1087713 3893939
0.16062662 -0.055715866 1.1078213 8428221
-0.12580109 -0.036940485 1.1169772 6194370
-0.12118138 -0.034950994 1.1177217 4421311
0.15177548 -0.043152712 1.1107841 5734064
0.15800397 -0.046981081 1.1117657 10203587
-0.11967725 -0.028321214 1.1176454 6852289
0.15039793 -0.037208647 1.108665 8955077
0.023530152 0.095743783 1.1137309 9737616
-0.088845119 -0.2044386 1.1264765 7635861
-0.085417315 -0.2050011 1.1290735 8100012
-0.098785505 -0.19423938 1.1292914 10535920
-0.091881528 -0.19711252 1.1268077 5996227
-0.085324936 -0.2014119 1.1290479 6394567
-0.10867836 -0.18300182 1.1214291 8431615
-0.10168578 -0.18560779 1.1240652 1526185
-0.095479198 -0.18813302 1.1280365 1262491
0.1282354 -0.19113839 1.1243634 11717846
-0.11700957 -0.17422727 1.1215513 7571711
-0.11005416 -0.17666602 1.122973 1917611
-0.10306307 -0.17934187 1.1266183 2379673
-0.096327595 -0.18245077 1.1291605 2644619
0.1300014 -0.18430877 1.1242802 5010097
0.13731042 -0.1815547 1.1209604 10599906
0.14442231 -0.18053412 1.1199425 14081762
-0.10983487 -0.16781928 1.1255655 2709143
0.1313165 -0.17373911 1.124182 2909858
0.13789317 -0.17346147 1.1202189 4026283
0.14540228 -0.17387462 1.1163765 12307424
-0.11648672 -0.15391357 1.121406 2775446
-0.11215172 -0.15822007 1.1242505 2775442
0.13939148 -0.1645439 1.120946 3105445
0.14424714 -0.163874 1.1158353 2578854
-0.11828647 -0.14664985 1.1235514 2775449
-0.11403642 -0.14913419 1.1279899 2906778
0.14200287 -0.15479779 1.1222256 3564451
0.14529321 -0.15393341 1.1181477 3433893
-0.1218896 -0.13786748 1.1247119 2840984
0.14374393 -0.14664507 1.1237346 3565217
0.14746307 -0.14466205 1.1183064 3499430
-0.12646048 -0.1258391 1.1214362 2841497
-0.12339481 -0.12765419 1.1273836 2907290
0.15006188 -0.13408667 1.1205144 3237547
-0.12636231 -0.11637071 1.1229721 2973083
-0.12354802 -0.11689452 1.1273159 3038877
0.15342765 -0.12447616 1.1215603 3827369
0.15598203 -0.12352335 1.1153154 3564710
-0.12713605 -0.10636944 1.1241803 3039391
-0.12446409 -0.10832624 1.127946 3170977
0.15395196 -0.11439934 1.1213006 3565735
0.15620218 -0.11497021 1.1152542 3500198
-0.12700512 -0.098162815 1.1262667 3170977
0.15443705 -0.10539515 1.1205639 3631790
0.15553471 -0.10708374 1.1232187 3434923
-0.12691011 -0.087615594 1.1251948 3302823
0.15439931 -0.093936741 1.1206558 3566513
-0.1266506 -0.077626958 1.1237895 3368614
0.15373386 -0.084659807 1.1206474 3632560
-0.12592004 -0.069927648 1.1250567 3565995
0.15277022 -0.074472226 1.1193289 3895728
-0.12256437 -0.054949384 1.1264857 3697842
0.15065739 -0.064467221 1.1178415 4158132
-0.12071628 -0.046699267 1.1251546 3502262
0.14982741 -0.053765267 1.1189891 4027837
-0.11783988 -0.037260287 1.1244441 3698611
0.14535567 -0.042171601 1.1230103 4619197
0.15095901 -0.045457065 1.117371 4946612
-0.12401138 -0.030685425 1.1207554 7180220
-0.1161949 -0.027837083 1.1277695 4815032
0.145423 -0.035694208 1.1222993 5209534
0.15003186 -0.034112822 1.114854 8425655
0.02460885 0.091709413 1.116735 9474444
-0.061998449 -0.21542546 1.1356378 8300241
-0.080072157 -0.20678592 1.1323342 7642055
-0.072553903 -0.2076229 1.1343141 4815810
-0.065854684 -0.21123683 1.1356936 5210825
-0.088907719 -0.19464229 1.1320814 932767
-0.081993841 -0.19825433 1.1336404 2382238
-0.073408313 -0.20150077 1.1357925 2251168
0.11009679 -0.20299962 1.1318356 6518691
0.11592667 -0.20213434 1.1302749 11319227
-0.090420693 -0.18784608 1.1339364 2447513
-0.085072517 -0.19144146 1.1359783 2513045
0.11798959 -0.19396001 1.1305524 4617903
0.12496593 -0.194178 1.127455 10929103
-0.099597901 -0.17658094 1.1336482 2971544
-0.093773976 -0.18049422 1.1340936 2774929
0.12028629 -0.18475312 1.1298279 2909086
0.12516378 -0.18394722 1.1273831 3105187
-0.10682056 -0.1632089 1.1322612 2709911
-0.10228086 -0.1683709 1.1345506 2644371
0.12694742 -0.17417035 1.1278956 3368356
-0.10894085 -0.15652388 1.1340815 2775444
-0.10406159 -0.16076905 1.1348528 2709910
0.13164 -0.16441542 1.1287147 3368613
0.13588619 -0.16157056 1.1270037 3499683
-0.11193907 -0.1478757 1.1337711 2841497
0.13368194 -0.15699205 1.1310221 3237027
0.13842088 -0.15442346 1.1282355 3302821
-0.11758872 -0.13614166 1.1328869 2645144
-0.11409501 -0.13794079 1.1353636 2775964
0.14181289 -0.14456785 1.1289457 3237542
0.14597276 -0.14110084 1.1279843 3106215
-0.11918326 -0.12769245 1.133749 2907291
0.14344186 -0.13505122 1.1293327 3499683
0.14656019 -0.13316157 1.1277286 3303338
-0.1198924 -0.11773835 1.1346443 3039134
0.14839837 -0.12471325 1.1279022 3499947
-0.12472128 -0.10332704 1.1322529 3236770
-0.1226015 -0.10764955 1.1355698 3236770
0.15040818 -0.11425161 1.1281961 3500458
-0.12455455 -0.096849345 1.1322067 3237027
-0.12275266 -0.097229384 1.1361712 3302821
0.1530551 -0.10376465 1.1285374 3632048
-0.12430447 -0.087132812 1.1321371 3302824
-0.12251563 -0.088020287 1.1361053 3302569
0.15155475 -0.094834745 1.128407 3632047
-0.12450282 -0.078052863 1.1320815 3434408
-0.12157998 -0.075731725 1.136004 3434665
0.14844014 -0.083706357 1.1280371 4026292
-0.12380429 -0.067699745 1.1319981 3631531
-0.12197187 -0.06689354 1.1359541 3631531
0.14872257 -0.075742699 1.1266044 4157366
-0.12363756 -0.061222058 1.1319517 4025255
-0.12030766 -0.056167606 1.1341326 3632304
0.14847991 -0.063946322 1.1260873 4289211
-0.11662994 -0.047272019 1.1334229 3568048
0.14561696 -0.053095829 1.1267444 4094399
0.147863 -0.057533108 1.1280588 4224702
-0.11520333 -0.04127419 1.1316378 3764911
-0.11159974 -0.037033498 1.1340325 3895729
0.14329538 -0.044606119 1.1275266 4487616
-0.11588626 -0.023123711 1.1345335 6458567
-0.11106325 -0.027026817 1.1338549 3895996
0.14348629 -0.033577759 1.1263949 5735616
0.1504207 -0.030506201 1.1258247 9477559
-0.11535681 -0.020446584 1.1355046 6852289
-0.11210722 -0.020530723 1.1354349 5933254
0.057050362 0.07670375 1.1271356 9474701
-0.02526441 -0.2267451 1.1469215 7248329
0.0075068008 -0.22919142 1.145429 5801654
0.015542914 -0.22827357 1.1447158 5210039
0.028343776 -0.22922868 1.1457791 6328255
0.036006115 -0.22942707 1.1456147 7379645
0.047563568 -0.2296046 1.1453661 8430007
0.055469789 -0.22806382 1.1411839 8625323
-0.063113503 -0.21769413 1.139678 9678537
-0.052152932 -0.217933 1.1459706 4422071
-0.042805634 -0.21884096 1.1472486 2778029
-0.033094577 -0.22090793 1.1470523 2513574
-0.025554141 -0.22381604 1.1469085 2315684
0.0043466799 -0.22532061 1.1462721 2120102
0.016387496 -0.22563237 1.1460139 2185635
0.029551115 -0.2248776 1.1457243 2186146
0.034996029 -0.22611415 1.1456147 2316696
0.050377063 -0.22432125 1.1452703 4486314
0.057900369 -0.22413531 1.143106 5997746
0.069138318 -0.2214596 1.1437027 6063288
0.077866554 -0.22021246 1.144649 6589614
0.085961096 -0.22064117 1.1444769 8757678
-0.06824071 -0.20559385 1.139709 1855898
-0.06151735 -0.20825429 1.1428201 2249885
-0.053810276 -0.21073581 1.1467055 2381985
-0.045724034 -0.21306841 1.1472735 3039902
0.071989857 -0.21447289 1.1447382 2841504
0.07802435 -0.21408135 1.1446052 3302564
0.087614827 -0.21208295 1.1430509 4420011
0.097339451 -0.21153267 1.138455 6984117
0.10679508 -0.20903789 1.1359478 6254993
-0.079093494 -0.19478387 1.1406724 2710418
-0.071377911 -0.19822305 1.1441102 2775447
-0.064654402 -0.20060696 1.1468004 2906776
0.090284884 -0.20424992 1.1438751 3171492
0.09876617 -0.2031154 1.1408836 3237285
0.10703862 -0.20214519 1.1364686 3629215
-0.08171425 -0.1877363 1.1446836 2775191
-0.073617049 -0.1914207 1.1470668 2906012
0.10099275 -0.1939539 1.1423087 3040421
0.10790321 -0.19247353 1.1387627 3105703
0.11373685 -0.19289827 1.1356913 2777257
-0.096778326 -0.17330426 1.1401128 2710677
-0.09003897 -0.17733949 1.1435241 2709909
-0.083864018 -0.18109134 1.1458865 2709910
0.1093474 -0.18410337 1.1422561 3368100
0.11687836 -0.18249419 1.1376886 3302561
-0.097770371 -0.16670993 1.1432025 2710421
-0.09297277 -0.16965792 1.1472083 2644886
0.11163595 -0.17638728 1.1436298 3040936
0.11970941 -0.17351133 1.1413488 3237031
0.12612267 -0.17079628 1.1382785 3368615
-0.10714467 -0.15345263 1.1402059 2776209
-0.10172825 -0.15804172 1.1448703 2841240
0.12200452 -0.16506697 1.1433309 3237287
0.12840387 -0.16304225 1.1380351 3302822
-0.10787561 -0.14674677 1.1447119 2710683
-0.10320657 -0.15014109 1.1474341 2841499
0.13093729 -0.15466964 1.1404804 3237541
0.13589437 -0.15210944 1.1365435 3237798
-0.10976999 -0.13813499 1.1453058 2907293
0.13290282 -0.14593308 1.1429691 3237797
0.13759156 -0.14354613 1.1378508 3303334
-0.11586022 -0.12630489 1.1413583 2907805
-0.11357366 -0.12795749 1.1473784 2907805
0.13972732 -0.13421702 1.1402992 3434407
-0.11608664 -0.11697792 1.1428258 3039392
-0.11338442 -0.11819251 1.1481102 3039391
0.14191356 -0.12469882 1.1400621 3500202
0.14601992 -0.12192906 1.1345251 3631274
-0.11895844 -0.1077197 1.144694 3170979
0.14417472 -0.1144715 1.1420733 3631791
0.14745513 -0.11402872 1.1362202 3566510
-0.11907055 -0.097355098 1.1458092 3105957
0.14361235 -0.10334807 1.1407895 3632305
0.14869058 -0.10461966 1.1346866 3501227
-0.11924327 -0.08733803 1.1434605 3237546
0.14336948 -0.094273999 1.1398559 3698099
0.14786537 -0.094806343 1.1347064 3698094
-0.11836448 -0.077607758 1.1436155 3434923
0.14485563 -0.085031725 1.1403084 3895479
0.14691539 -0.087137669 1.1342762 3895477
-0.11770327 -0.067159794 1.1441514 3566256
0.14543399 -0.07373096 1.141555 4027579
0.14786933 -0.073241815 1.1381649 4157882
-0.11649611 -0.058283728 1.1433103 3567024
0.14362971 -0.064147055 1.1410208 4159422
0.14785749 -0.064434998 1.1365066 4289724
-0.11397701 -0.048524573 1.1409948 3567791
-0.11071024 -0.046636414 1.1462464 3764403
0.14214696 -0.054078609 1.1394957 4356797
-0.10887156 -0.037789278 1.1400515 3830196
0.1397121 -0.044436421 1.1385512 4619718
-0.10706833 -0.026914284 1.142279 3896507
0.13594003 -0.032438718 1.1390426 4817095
0.1403807 -0.033154182 1.1357282 4948420
-0.11441287 -0.017539732 1.1434671 6916535
-0.10694811 -0.018265665 1.1430027 5210049
0.13530402 -0.026013836 1.1411257 5013440
0.13972275 -0.025727667 1.1386943 5998788
0.036851589 0.050604485 1.1386044 5859448
0.04500664 0.05045747 1.1365714 6122362
0.050631635 0.050461911 1.1394506 6319482
0.061856784 0.051466964 1.1432023 5330522
0.037514701 0.055025034 1.1370367 5792108
0.045346275 0.055663906 1.1363297 5527648
0.05074396 0.054826058 1.1394193 5067354
-0.019457893 -0.22684646 1.1497973 4354997
-0.012085672 -0.22805083 1.1516465 4684224
-0.0022176709 -0.2280224 1.1499659 4289976
0.0088032559 -0.22600901 1.1491809 2054307
0.019215142 -0.22682777 1.1489612 2777510
0.024674267 -0.22806758 1.1488514 4026798
0.041136388 -0.22849381 1.1484983 5604271
0.045019932 -0.22694671 1.1484042 4881326
-0.038162149 -0.2160055 1.1501302 3039902
-0.03022969 -0.21712543 1.1504662 2710943
-0.021753976 -0.21923447 1.153102 2645152
-0.011882052 -0.22232509 1.1562722 2514339
-0.0019550007 -0.22248226 1.1555251 2514851
0.0079890145 -0.22024427 1.1537617 2842787
0.017832614 -0.22009104 1.1513473 2908579
0.027519599 -0.21994328 1.151626 3039651
0.037714332 -0.22090259 1.1525233 2908578
0.047076542 -0.22027463 1.1520667 2778020
0.057095766 -0.21888861 1.149519 2646433
0.066566676 -0.22182935 1.1479046 5012145
0.0780572 -0.22340837 1.1476667 8955830
-0.050963707 -0.20725009 1.1506349 2841242
-0.041135043 -0.20956334 1.1524858 2775960
-0.032122247 -0.21105853 1.1542348 2841500
-0.02269469 -0.21344876 1.157781 2907551
0.0090035144 -0.21353212 1.1570963 3105184
0.018222081 -0.21340212 1.1568961 3170722
0.028167889 -0.21365963 1.1566828 3302053
0.038312104 -0.21336928 1.1564617 3170723
0.048834167 -0.21271998 1.15623 3105188
0.058144644 -0.21217957 1.1543103 3170467
0.067667782 -0.21224424 1.1502182 3236258
0.077854224 -0.20907867 1.1480211 3171236
-0.067285426 -0.1954796 1.1506243 2906776
-0.060791083 -0.1978766 1.1516429 2907033
-0.052291207 -0.19905567 1.1551584 2841497
-0.043076485 -0.20333523 1.1581548 2775704
0.05930955 -0.20672354 1.1559639 3105443
0.068150274 -0.20695245 1.1557744 3105443
0.079007663 -0.20352361 1.1542535 3105956
0.087367207 -0.20089351 1.1505177 3105956
-0.077977642 -0.18421839 1.1507812 2644884
-0.070939101 -0.18794867 1.1536543 2775705
-0.062588662 -0.19101924 1.1561614 2841497
0.082800932 -0.19627121 1.1553872 3172006
0.090494387 -0.1940946 1.1542062 3040421
0.096360832 -0.19191375 1.1515644 2974628
-0.086531423 -0.17520945 1.1509066 2645144
-0.07987155 -0.17712885 1.1538349 2710425
-0.074608505 -0.17997664 1.1552529 2776216
0.10005432 -0.18336503 1.1516782 3171493
0.10502004 -0.18128482 1.1484063 3237026
-0.089306377 -0.16709903 1.153502 2710424
-0.08291167 -0.16944638 1.1573374 2710937
0.10320463 -0.17689049 1.1548182 3302823
0.10956945 -0.17299131 1.1514962 3172005
0.11542487 -0.17000726 1.1505076 3172006
-0.097738683 -0.15551358 1.1510189 2841498
-0.09330456 -0.15811451 1.1558645 2907290
0.11232984 -0.1660662 1.1545495 3303592
0.11863298 -0.16285565 1.1530583 3237544
0.12474886 -0.15871117 1.1462303 3303337
-0.099248253 -0.14700201 1.1527101 2973342
-0.094604246 -0.15020075 1.1589181 3038879
0.12247694 -0.15518419 1.1535915 3237544
0.12681547 -0.15229864 1.1489441 3303336
-0.10698796 -0.13524996 1.1520853 2973342
-0.10090997 -0.13854074 1.1564769 2973600
0.13048375 -0.14325657 1.1500055 3368872
-0.1083339 -0.12733997 1.1534156 3039392
-0.10280722 -0.12826227 1.1589507 3236259
0.1320647 -0.13384181 1.1516596 3500460
0.13642994 -0.13155273 1.1457987 3434923
-0.10917375 -0.1176684 1.153906 3170978
0.13335553 -0.12493674 1.1524899 3500719
0.13803993 -0.12258065 1.1490389 3500718
-0.11550904 -0.1063562 1.1510786 3237029
-0.111604 -0.10778526 1.1570052 3237286
0.13866538 -0.11371724 1.1517395 3697329
-0.115283 -0.097574562 1.1510158 3237543
-0.11255211 -0.097156219 1.158456 3172263
0.14010651 -0.10464389 1.1511431 3697843
-0.1152729 -0.08791323 1.1539526 3303340
-0.11306321 -0.086861946 1.1588992 3303852
0.1401583 -0.094193324 1.151473 3764149
-0.11514973 -0.078172326 1.1508849 3500716
-0.1122256 -0.076823786 1.1588148 3501229
0.14333574 -0.083845779 1.1499072 3764661
-0.11457669 -0.070131965 1.1508194 3566512
-0.11122488 -0.066764385 1.1550895 3632306
0.14061622 -0.07356438 1.1497973 3896764
-0.11037593 -0.057162605 1.1550078 3698357
0.13494046 -0.063358076 1.1520493 4291265
0.13862267 -0.064662106 1.146453 4225217
-0.10854187 -0.048202056 1.1545453 3764408
0.13595523 -0.053782981 1.1512973 4554434
0.1384359 -0.053615775 1.145241 4488640
-0.10529488 -0.037564751 1.1552051 3895997
-0.10102458 -0.034451619 1.1582931 4027323
0.13582 -0.042985428 1.1502287 4817354
-0.10358223 -0.028096959 1.151638 3962044
-0.099450216 -0.026956335 1.1574094 4093118
0.12687998 -0.030397967 1.1533396 5014224
0.13211407 -0.033295196 1.1492447 4751563
-0.10224579 -0.017726354 1.150207 4290235
-0.097265512 -0.017694622 1.1546338 4158908
-0.090954021 -0.015540719 1.1579506 4028609
0.12535967 -0.023330711 1.1515477 4817874
0.13193452 -0.023253314 1.1461815 5145287
-0.09475778 -0.011124752 1.1524023 4487616
-0.08921966 -0.0085736215 1.1565335 4356800
0.11682769 -0.010592625 1.1514258 5276623
0.12300795 -0.013792105 1.147598 5604813
0.13234523 -0.015261576 1.1460087 6720449
-0.086910032 -0.0016353726 1.1577713 5671109
0.11514349 -0.004971616 1.152854 5802961
0.12139916 -0.0059320703 1.1486288 6787017
0.039525397 0.012787901 1.154943 12972031
-0.015484897 0.024114296 1.154057 5869264
0.016848085 0.019642711 1.155388 7515376
0.024328656 0.019080326 1.15523 8764660
0.033919282 0.018389605 1.1550273 10146554
0.040523265 0.017186292 1.1548924 10870005
-0.073096365 0.033877648 1.1492364 8028800
-0.067965396 0.034110956 1.1491239 7305855
-0.011024246 0.02515728 1.1559541 5671370
-0.007708976 0.025071442 1.1558831 5869265
0.015497912 0.024470583 1.1553854 6988787
0.01991827 0.024356127 1.1552906 7185904
0.10634288 0.030966885 1.1533787 6314850
-0.066617265 0.039080016 1.149062 8028802
0.10333967 0.034584053 1.1534197 6117979
0.079491816 0.045671113 1.1458601 5593178
0.081686765 0.04561428 1.145813 5658970
-0.017212408 -0.21652871 1.1616839 2973083
-0.011696465 -0.21778139 1.1615729 2973595
-0.0022472646 -0.21759085 1.1620343 2973598
-0.036887094 -0.20492065 1.1620326 2842012
-0.030546615 -0.20647216 1.1619058 2776219
-0.021241451 -0.20918342 1.1632466 2907806
-0.011651939 -0.21079975 1.1646845 2907807
-0.0011096038 -0.21161221 1.1646374 2973599
0.0077685751 -0.20952111 1.1617645 3039136
0.018546201 -0.20880491 1.1621935 3170723
0.028507961 -0.20894822 1.1613123 3236770
0.03829902 -0.2087456 1.1604326 3170979
0.047346286 -0.2087664 1.1602371 3170980
0.054042488 -0.20727497 1.1600825 3171236
-0.047747679 -0.19576049 1.1622069 2842012
-0.04106915 -0.19818933 1.1635334 2842011
-0.031496599 -0.20068961 1.1643503 2842012
-0.023217173 -0.20234291 1.1657211 2907805
0.023202438 -0.20493689 1.1647347 3302309
0.029216351 -0.2039437 1.163455 3302308
0.037838958 -0.20405552 1.1619118 3171236
0.048555098 -0.20491317 1.1601856 3171236
0.059246644 -0.20380414 1.1616142 3105443
0.069098905 -0.20214058 1.1607233 3171492
0.075671487 -0.20043588 1.1595697 3040420
-0.06853126 -0.18412371 1.1625794 2841497
-0.05981911 -0.18709554 1.1629442 2907291
-0.051424384 -0.18995482 1.1641309 2907549
-0.044737898 -0.19129854 1.1661134 2907551
0.072447889 -0.19507515 1.1636051 3040420
0.079467207 -0.1934284 1.1615473 3106213
0.087305471 -0.19104424 1.1592563 3106214
-0.069823861 -0.17758712 1.1645647 2907290
-0.063282102 -0.18062606 1.1659437 2973340
0.083804093 -0.18645976 1.1633028 3302823
0.089855902 -0.18424794 1.1607567 3237030
0.096084028 -0.18100008 1.1607785 3237031
-0.086868666 -0.16367131 1.1628408 2841497
-0.078554086 -0.16736361 1.163219 2842012
-0.072441712 -0.16974109 1.1655698 2907547
0.10144582 -0.17345807 1.1597579 3368361
0.10659111 -0.17034513 1.1587029 3237285
-0.088194944 -0.15771767 1.1628302 2973085
-0.081364498 -0.15809983 1.1654226 3039135
0.10391877 -0.1663914 1.1587346 3368615
0.11054116 -0.16322623 1.1592979 3237799
0.11517902 -0.16002375 1.1584491 3303337
-0.095254548 -0.14458644 1.1628962 2973857
-0.089885719 -0.14824545 1.1643602 3039137
-0.08392562 -0.14926344 1.1666831 3104930
0.11274965 -0.1557719 1.1604741 3172264
0.1190147 -0.15305218 1.1589869 3238059
-0.096212655 -0.13634956 1.1638628 3039650
-0.092261434 -0.14002682 1.1668024 3105700
0.12253457 -0.14338595 1.1603346 3369132
0.1266962 -0.14367393 1.1580923 3434410
-0.098731659 -0.12771337 1.1645747 3171236
0.12465685 -0.13530859 1.1612818 3500719
0.12806062 -0.13310048 1.1599934 3435183
-0.1056013 -0.11546199 1.1629276 3302823
-0.10094593 -0.11754367 1.1655082 3171495
0.12907805 -0.12302744 1.1597232 3566514
-0.10709354 -0.10677486 1.1643575 3368873
-0.10340875 -0.10803469 1.1660321 3368875
0.13200676 -0.11391449 1.1585813 3697588
-0.10773765 -0.09768036 1.1655239 3303850
0.13387738 -0.10434133 1.1611068 3763892
0.13704433 -0.10376467 1.1576052 3698099
-0.10884108 -0.087450519 1.1644132 3435181
-0.1029495 -0.088075437 1.1666906 3435438
0.1351693 -0.094240755 1.1615838 3829942
0.13796686 -0.093784623 1.1586624 3764149
-0.10754804 -0.077804685 1.1647217 3501229
0.13551302 -0.080885515 1.1614883 3896505
0.13978525 -0.083895236 1.1592335 3830455
-0.10670636 -0.067965552 1.1641769 3632563
-0.10234796 -0.064703777 1.1665233 3567542
0.13328366 -0.073685341 1.1589168 4027837
0.13838911 -0.077384643 1.157402 3896505
-0.1056934 -0.057931412 1.1638837 3829940
-0.10217609 -0.058026154 1.1664755 3699127
0.132057 -0.064027995 1.1601181 4291009
-0.10502564 -0.047808133 1.163269 3895737
-0.10125788 -0.047072247 1.1663835 4027576
0.1325969 -0.054004595 1.1593734 4422849
-0.10368864 -0.041150402 1.162396 4158911
-0.099064976 -0.037555423 1.1642728 4093372
0.13278066 -0.044265397 1.158805 4817355
-0.095086694 -0.028259598 1.1636637 4093630
-0.090189688 -0.024926163 1.1659981 4094397
0.12562411 -0.033323642 1.1596099 5080014
0.13000543 -0.036657419 1.1573145 4883149
-0.092806056 -0.020714648 1.1620258 4028348
-0.088204496 -0.0182648 1.1634105 4028864
0.12137287 -0.023569956 1.1591929 4949202
-0.08439 -0.0087654218 1.1635836 4029123
-0.080068827 -0.0066269189 1.1656585 3963586
0.11556406 -0.013545156 1.1601415 5146069
0.11883305 -0.018055335 1.1574333 5080276
-0.083421029 -0.00098001957 1.1616927 5342665
-0.076160766 0.0010105371 1.1655236 4882633
-0.012639644 0.0031352341 1.1641364 6070261
-0.0059634168 0.0029623732 1.1639932 6528744
0.00071281195 0.0027895123 1.1638501 8827627
0.016290676 0.0023861751 1.163516 10340848
0.025016986 0.0015238523 1.1633331 8895736
0.032501791 0.000630036 1.1631771 6266608
0.10685071 -0.00052258372 1.1605773 5475287
0.1112037 -0.0041662455 1.1588402 5475028
-0.072578467 0.0068963915 1.1634068 5999306
-0.065892726 0.007833153 1.1632562 5540557
-0.0572576 0.01094076 1.1623821 5803727
-0.044444375 0.012373172 1.1647631 4950220
-0.035515487 0.011017092 1.1645789 5016280
-0.02581946 0.010151871 1.163975 5411294
-0.015816974 0.0098661631 1.1619202 5806569
-0.0057977792 0.009631291 1.1633456 7120874
0.0038180053 0.010133639 1.1637346 12379901
0.014338991 0.0093187019 1.1609855 13891069
0.024128795 0.0088216737 1.1601033 12969723
0.034103863 0.008806847 1.1607722 9946095
0.044173203 0.0083173737 1.1609607 10013177
0.053947799 0.009943746 1.1604978 7449069
0.06069532 0.011630788 1.1624951 5411552
0.10400904 0.0034305081 1.1591123 6526426
-0.04233893 0.017268337 1.1646852 6264275
-0.034781575 0.017858595 1.1620173 5803990
-0.025225488 0.018230699 1.160308 5345755
-0.01519121 0.0192331 1.1600844 5412839
-0.0055797677 0.019581109 1.1603745 5676266
0.0034803916 0.018441774 1.1625439 7253489
0.013262959 0.017993629 1.1604778 8436213
0.023158301 0.015498139 1.1592801 12051453
0.037688151 0.019561417 1.1589391 10082302
0.04550533 0.018619105 1.1587764 10607102
0.053964004 0.017554484 1.1586006 7515119
0.06101197 0.016767643 1.1597871 6068200
-0.0032268595 0.025060236 1.1597873 6001365
0.0012087282 0.024945386 1.1596922 6396124
0.11379936 0.027801543 1.1572394 6447199
-0.0079654064 -0.20704505 1.1694235 3039391
-0.00037895516 -0.20665842 1.1707573 3039135
0.0110153 -0.20753649 1.1690164 3104930
-0.03670729 -0.195126 1.1699661 2776478
-0.030313807 -0.19617322 1.1718353 2842271
-0.020411072 -0.19805399 1.1738161 2907807
-0.011225449 -0.20014811 1.1741452 2908063
-0.0012098867 -0.20124957 1.1750407 2973600
0.0091210026 -0.20053761 1.1743459 3105187
0.019033393 -0.20044956 1.1732112 3236773
0.02875331 -0.19936626 1.1723133 3237029
0.039694466 -0.19973472 1.1721458 3171237
0.049267061 -0.20094907 1.1696464 3171236
0.058810405 -0.19964018 1.1688544 3105444
0.067672215 -0.1983873 1.1677313 3171493
-0.048597686 -0.185922 1.1733632 2841758
-0.04054413 -0.18843296 1.1740059 2907551
-0.031605802 -0.18975118 1.1766456 2842271
-0.02093049 -0.19120827 1.1776013 2908064
-0.014214667 -0.19250727 1.1774647 2973857
0.0071437433 -0.19306028 1.1770066 3105444
0.020034473 -0.19239394 1.1767236 3237030
0.030051583 -0.19307496 1.1757113 3302823
0.039725803 -0.19254464 1.1753756 3171495
0.049109168 -0.1913811 1.1746967 3105703
0.058803022 -0.19189233 1.1742817 3105703
0.068576828 -0.19166055 1.1721685 3105702
0.076910891 -0.18939105 1.1691868 3105958
-0.059706636 -0.17794484 1.1719974 2973598
-0.051665545 -0.1798434 1.1761901 2907551
-0.041783594 -0.18194875 1.177991 2908065
0.070648104 -0.18328033 1.1755693 3237288
0.079429522 -0.18281123 1.1729313 3302823
0.08807718 -0.18101297 1.1697476 3237287
-0.068790339 -0.1664288 1.1733282 3105183
-0.061347447 -0.16997357 1.176452 2974112
-0.053067133 -0.17237444 1.1781718 2842786
0.08114782 -0.17607453 1.1752948 3171750
0.089837283 -0.17269775 1.173751 3172008
0.09785106 -0.17118013 1.1692332 3303081
-0.076709442 -0.15655355 1.1712432 3104930
-0.070416033 -0.15899555 1.1771247 3170978
0.092568204 -0.16441192 1.174971 3303337
0.10033281 -0.16310871 1.1725439 3368873
0.10723545 -0.16200337 1.1691819 3237543
-0.08616592 -0.14350218 1.1733619 3040164
-0.079518743 -0.14742441 1.1743672 3105701
-0.073164873 -0.15197714 1.1784716 3302822
0.10218573 -0.15411703 1.1746951 3303597
0.10955335 -0.15191072 1.1701565 3238059
0.11666653 -0.14904732 1.168347 3303852
-0.088419341 -0.13709912 1.1744798 3106213
-0.080619335 -0.13931414 1.1785492 3172007
0.11077634 -0.14284 1.1742349 3369387
0.11863473 -0.14283116 1.170264 3435181
-0.095358469 -0.12669587 1.1721162 3237030
-0.088712387 -0.12751096 1.1763122 3237800
-0.082376756 -0.13111159 1.1785331 3303594
0.1127543 -0.13683896 1.1743526 3500972
0.12119918 -0.132801 1.1708926 3500976
0.12585251 -0.13005063 1.1660227 3500977
-0.096220687 -0.11740039 1.1738516 3237545
-0.091516025 -0.1191595 1.1777626 3303852
0.12330139 -0.12331069 1.1740353 3566772
0.12652707 -0.12375372 1.1699674 3566515
-0.098478839 -0.10762808 1.1739749 3369389
0.12440316 -0.11380257 1.1739488 3763639
0.12768343 -0.11298647 1.1689823 3763639
-0.10494536 -0.093632422 1.1721052 3435181
-0.099600688 -0.097436391 1.1752536 3435438
0.12533076 -0.1027362 1.1738557 3895737
0.13020404 -0.10277934 1.1685728 3764149
-0.10425563 -0.08716394 1.1731145 3435438
-0.098815426 -0.087907396 1.1770644 3501231
0.12547547 -0.097114407 1.1738155 3961530
0.1308421 -0.093308553 1.1684965 3961528
0.1380524 -0.090136923 1.1654955 3895735
-0.10372335 -0.07791885 1.1736422 3501489
-0.099389732 -0.077788256 1.1764307 3501490
0.12593849 -0.079124629 1.1736867 4159679
0.13142401 -0.083978392 1.1688716 3962041
0.13810989 -0.08790344 1.1654795 3895735
-0.10402486 -0.0705745 1.1725999 3501747
-0.09907914 -0.067492321 1.17514 3567541
0.12535307 -0.072733849 1.1736573 4225473
0.12894525 -0.073357858 1.1695826 4159424
-0.097067855 -0.057396945 1.173963 3764919
0.12533155 -0.063857421 1.1735991 4422597
0.12920481 -0.063272886 1.1695105 4357059
-0.096327759 -0.047641709 1.1737112 3896505
-0.091476522 -0.047617838 1.1781788 3962298
0.12547997 -0.053235225 1.1735258 4685767
0.12946439 -0.053187914 1.1694382 4422851
-0.094672054 -0.038568784 1.1717864 4027836
-0.089500599 -0.036899704 1.1769741 4028094
0.12383281 -0.042610675 1.1713731 4948684
0.12957422 -0.044691015 1.1663791 4751818
-0.092802443 -0.030520223 1.1700926 4093632
-0.08701878 -0.027177244 1.1757931 4094399
0.11740186 -0.032024011 1.1735605 5080784
0.1215811 -0.033234071 1.1686769 5211343
-0.083586887 -0.018831447 1.174181 4094402
-0.076926291 -0.015920207 1.1766548 4226244
-0.070374072 -0.014410913 1.1775035 4620744
-0.016387044 -0.014683627 1.1763382 5412064
0.006095496 -0.015265726 1.175856 6463211
0.014064024 -0.019310683 1.1757104 6397929
0.023762619 -0.018920846 1.1754982 6397929
0.03304147 -0.017249256 1.1752867 6003432
0.11458416 -0.022686981 1.1710591 5081042
0.11959354 -0.025962129 1.1654711 5081041
-0.075477034 -0.0081800222 1.1714377 4160963
-0.067266598 -0.0074182972 1.1765327 4752075
-0.052127585 -0.0047573596 1.1770453 4949201
-0.045397297 -0.0054941773 1.1769047 5016022
-0.035864487 -0.006865792 1.1760408 5213659
-0.026074769 -0.0080277324 1.1752726 5411552
-0.016245009 -0.0090613738 1.1754978 5740773
-0.006125208 -0.0093237683 1.1760811 6003172
0.0039822282 -0.0095852911 1.1754642 6331366
0.014019278 -0.0098382235 1.1726481 6989552
0.024124205 -0.010101199 1.1728315 6792432
0.034191132 -0.010358959 1.1719655 5937640
0.042746603 -0.0096491948 1.1740264 5806054
0.053511396 -0.0086176544 1.1747872 5674725
0.060285091 -0.0076679215 1.1746345 5674983
0.10602816 -0.011383794 1.1736702 5146841
0.1118664 -0.013638541 1.167843 5080789
-0.07190042 0.00022827834 1.1694378 4554184
-0.068369366 0.00098500401 1.1723572 4751049
-0.053053156 0.00087784976 1.1750276 4818129
-0.045631737 0.00068225712 1.1740682 5015507
-0.036169678 0.0004266575 1.1704645 5147609
-0.026095359 0.00016097724 1.1689482 5346018
-0.016413359 -0.00045341253 1.1713547 5937898
-0.0059843548 -0.0014685318 1.1713582 6462952
0.0044662775 -0.00099752098 1.17024 8303605
0.01381053 -0.0013497695 1.1690242 8501495
0.023619801 -0.0025878698 1.168007 7252467
0.034954656 -0.0023324266 1.1685997 6069484
0.044144597 -0.0014762506 1.1692568 6135528
0.054308295 -0.002101101 1.172138 5741031
0.063732035 -0.00213781 1.1735232 5543655
0.073260933 -0.0010801256 1.1743104 5477092
0.08335457 -1.4416873e-005 1.1740853 5739747
0.094714299 -0.00055857748 1.1738433 5280481
0.1037823 -0.0034458712 1.169973 5015513
0.10916766 -0.0055745095 1.1675624 4949463
-0.065028884 0.0067552999 1.1692462 4818122
-0.055575006 0.0075038299 1.1690369 5147606
-0.046871863 0.0080234781 1.1688453 4818639
-0.03823261 0.0060615018 1.1686715 5344472
0.0064422563 0.0054635331 1.1677097 12971007
0.010893933 0.0047895163 1.1676179 12905215
0.035457194 0.0041535348 1.1670911 5807584
0.048855342 0.0038066283 1.1668037 6004710
0.054941043 0.00460691 1.166667 5807083
0.063837908 0.0068685561 1.1685935 5477863
0.072380781 0.0062299371 1.1709471 5542628
0.084181152 0.0029644743 1.1740477 5673698
0.094762214 0.0046391934 1.1723075 5804766
0.10021489 0.0024768412 1.1657023 5147865
0.067006968 0.014511541 1.1663407 5412324
-0.0074814335 -0.19557387 1.1813403 3039650
-0.0010526869 -0.19638541 1.1812067 3039650
-0.02758099 -0.18715104 1.1817193 2842271
-0.020813389 -0.18732627 1.1815741 2973857
-0.010494679 -0.18867618 1.1826234 2973857
-0.00076580979 -0.19067246 1.1836897 3039395
0.0099217352 -0.18901932 1.1826991 3171237
0.019244079 -0.18784711 1.1817786 3237030
0.029608402 -0.18756145 1.1820245 3302569
0.037934773 -0.18791974 1.1816417 3237546
-0.046969645 -0.17616619 1.1820658 2908065
-0.03942126 -0.17732927 1.1819104 2973857
-0.030767804 -0.17931058 1.1827366 2973857
-0.021051547 -0.18145588 1.1836587 2973858
-0.012744166 -0.18248689 1.1853687 3105444
0.018944595 -0.18330738 1.184689 3237030
0.030678105 -0.18210086 1.1844275 3302825
0.03960989 -0.18187904 1.1839252 3171754
0.049411848 -0.18266341 1.1820258 3171752
0.059747949 -0.18251164 1.1812129 3171753
0.068252333 -0.17961603 1.1805981 3237546
0.076508358 -0.17742796 1.179405 3303592
-0.057898201 -0.1664218 1.1822379 2908579
-0.049721621 -0.16878986 1.1840771 2908579
-0.039910585 -0.17050782 1.1847857 3105444
-0.031286336 -0.17249186 1.1857036 3105443
0.063315593 -0.17539436 1.1836777 3303339
0.071374238 -0.17333837 1.1821563 3303082
0.079775319 -0.17146169 1.1798666 3237545
0.085764132 -0.16863623 1.1791469 3303850
-0.06663131 -0.15490647 1.1823506 3302822
-0.060084671 -0.15936679 1.1844891 3040165
-0.053020686 -0.16332036 1.1861129 3040167
0.074866086 -0.16663156 1.1833702 3303598
0.081007868 -0.16280091 1.1822708 3238061
0.08957877 -0.16097364 1.1801252 3303596
0.097304814 -0.15877476 1.1788323 3369131
-0.07613571 -0.14412378 1.182485 3171751
-0.069776654 -0.14791262 1.1837846 3368615
-0.062915012 -0.15173686 1.1862503 3171751
0.099320129 -0.15223892 1.180246 3369134
-0.077928118 -0.1370216 1.1824769 3369130
-0.071798205 -0.13911955 1.1853589 3434922
0.10072755 -0.14259575 1.1816999 3435183
-0.079402409 -0.12837262 1.1837853 3434923
0.10366411 -0.13557346 1.1817425 3501232
0.11048827 -0.13262108 1.1809636 3435694
0.11720563 -0.13106699 1.1782193 3501232
-0.087340951 -0.11702217 1.1835486 3369646
-0.081686169 -0.12091194 1.185119 3435182
0.11448158 -0.12348076 1.182229 3567282
0.11855132 -0.12306695 1.179956 3567027
-0.095422238 -0.10411219 1.1826378 3501231
-0.090881512 -0.108142 1.1853169 3435439
0.11468554 -0.11555692 1.1821724 3829686
0.11982115 -0.11288893 1.1802655 3829431
-0.095335126 -0.10072768 1.1826136 3501231
-0.090831533 -0.097591035 1.1841626 3567024
0.12237829 -0.10356885 1.1805933 3830201
-0.094972156 -0.086625576 1.1825128 3632818
-0.091719761 -0.087416165 1.1844481 3698612
0.12475336 -0.093021035 1.1798055 3896507
-0.094725341 -0.077036135 1.1824441 3633333
-0.090827085 -0.077312894 1.1851623 3764919
0.12484083 -0.082815148 1.1792362 4093886
-0.094950028 -0.068224736 1.1823908 3633334
-0.090821229 -0.067374915 1.1854967 3830201
0.12210201 -0.073111221 1.1799537 4291523
-0.090166159 -0.057097476 1.183881 3896506
0.12186893 -0.062621728 1.1792672 4619975
-0.086641021 -0.047634363 1.18379 4028348
0.11634623 -0.05103422 1.1817107 5146320
0.12069355 -0.053375576 1.1806319 4883148
-0.084712803 -0.038276352 1.1822577 3962814
-0.079644382 -0.037029717 1.1847119 3963072
0.11554936 -0.04219421 1.1801692 5146577
0.11922559 -0.043926597 1.1781007 5080527
-0.083111361 -0.02924481 1.1818776 4028607
-0.076845005 -0.027644455 1.1838655 4291526
-0.026860507 -0.026937179 1.1846474 5147865
-0.019385187 -0.026904181 1.1844856 5344731
-0.0030648038 -0.026420556 1.1841296 5345501
0.0037256442 -0.026596367 1.1839839 5739743
0.01381366 -0.029099546 1.1824487 5936862
0.022870775 -0.029339924 1.182588 5871068
0.033121787 -0.028490216 1.1833611 5739228
0.051258795 -0.027827084 1.1829646 5213656
0.11390035 -0.03326752 1.180046 4949970
-0.07492277 -0.020256132 1.1816413 4422856
-0.066333212 -0.015701547 1.1832442 4686797
-0.055935979 -0.014840879 1.1831956 4884690
-0.045550019 -0.016537838 1.1844827 4950486
-0.035137892 -0.017572679 1.1834309 5213659
-0.026643502 -0.018977888 1.1813895 5279707
-0.016508901 -0.020375118 1.1815797 5345244
-0.0063092895 -0.019007035 1.1812612 5411808
0.0035116253 -0.020376913 1.1808559 5806052
0.012742653 -0.023748934 1.1797693 6068964
0.024764273 -0.024436504 1.1795139 6068963
0.034876879 -0.02231025 1.1802046 6003173
0.043392099 -0.020805418 1.1808877 5608417
0.053599566 -0.021074712 1.181269 5411038
0.060487531 -0.021269649 1.1827217 5279709
0.10517985 -0.020676099 1.1808285 5212630
0.11069271 -0.024423175 1.17899 5015248
-0.062528886 -0.010134511 1.1813066 4949712
-0.055761278 -0.010309733 1.1811615 4949713
-0.045609869 -0.010572575 1.1809437 5016279
-0.036220104 -0.011191994 1.1807449 5213659
-0.027591964 -0.012167998 1.1805648 5345501
0.045174308 -0.013487592 1.1790005 5871590
0.053648338 -0.013142541 1.178815 5871847
0.06400048 -0.011162914 1.1805787 5543139
0.071317181 -0.010220848 1.1807001 5280225
0.095862873 -0.010858275 1.1818883 5411294
0.10162991 -0.012439743 1.1792281 5279196
0.073604956 -0.0051923469 1.1783311 5411556
0.083235964 -0.0037483275 1.1781135 5412066
0.094515309 -0.0040403679 1.1778716 5477344
0.10122483 -0.0064719394 1.1777426 5213404
0.00046418421 -0.18607715 1.189108 3105189
-0.019655919 -0.17708078 1.1904838 3039906
-0.010006001 -0.17946276 1.1907196 3039908
-0.00046545826 -0.18085757 1.1924278 3105447
0.010102019 -0.18037266 1.1896122 3105702
0.019196628 -0.17936406 1.1886587 3171750
0.028188419 -0.17918357 1.1884632 3237289
0.039694972 -0.17762172 1.1882041 3237548
0.049914911 -0.17788634 1.1879849 3171752
0.058999307 -0.17812154 1.1877902 3171752
-0.047019117 -0.16492033 1.1899948 3039909
-0.039173514 -0.1658486 1.1907204 3105701
-0.031054018 -0.16869763 1.1922207 3105443
-0.021567384 -0.17432827 1.1935077 3040163
0.0092186993 -0.17421311 1.1928414 3105960
0.020640943 -0.17339382 1.192589 3105958
0.029755307 -0.17212364 1.1915835 3237545
0.04015141 -0.17133933 1.1902585 3237547
0.05018606 -0.17128974 1.189536 3237544
0.060252331 -0.17132246 1.1894028 3237545
0.06892924 -0.16956559 1.1881858 3303339
-0.058018424 -0.15520224 1.1901685 3172009
-0.049629971 -0.15856753 1.1924099 3105961
-0.040321626 -0.16101372 1.1938252 3171752
0.043669231 -0.16461384 1.1920333 3303337
0.050505377 -0.16479084 1.1918867 3303593
0.060621955 -0.16407534 1.1916633 3303594
0.069864631 -0.16170801 1.1901976 3303596
0.076662488 -0.16039419 1.1872913 3238062
-0.065180242 -0.14649275 1.1902658 3434409
-0.059426196 -0.14838505 1.1929781 3237547
-0.051127255 -0.15096322 1.1939925 3237805
0.071040876 -0.15442583 1.1913744 3238318
0.080384038 -0.15174189 1.1900344 3238572
0.090471894 -0.15180057 1.1881363 3434926
0.096958615 -0.15137275 1.186793 3369134
-0.067260876 -0.13739511 1.1914818 3435179
-0.061322019 -0.13954334 1.1936929 3369388
0.085214019 -0.14516315 1.1910069 3500977
0.090902202 -0.14177744 1.1898613 3435186
0.096291825 -0.14196005 1.1867453 3500720
-0.075500377 -0.1264375 1.1913568 3566511
-0.069839142 -0.12945212 1.1929214 3566767
-0.062667631 -0.1322114 1.1941183 3500977
0.092572615 -0.13418165 1.1902752 3501234
0.10046073 -0.13196303 1.1873394 3501490
-0.084772356 -0.11302575 1.1904685 3566770
-0.078077435 -0.11776534 1.1929556 3632306
-0.071547844 -0.12285865 1.1942484 3632563
0.10252418 -0.12333634 1.1890765 3699127
0.10995123 -0.12225623 1.1867907 3633076
-0.085814856 -0.1074013 1.1914542 3566770
-0.07977134 -0.10843519 1.194331 3763892
0.10368065 -0.11428158 1.1904039 3633335
0.11035784 -0.11227684 1.1878014 3764407
-0.085648328 -0.097309232 1.1931844 3698868
-0.081296407 -0.098025315 1.1942953 3699126
0.10455832 -0.1023306 1.1903061 3962811
0.11106696 -0.10259591 1.1890001 3830969
0.11872124 -0.10303243 1.1860036 3830714
-0.086605683 -0.087338693 1.1912619 3699126
-0.081292138 -0.088015661 1.1942291 3830712
0.11203361 -0.092673399 1.1894807 4028606
0.12011573 -0.093002014 1.1859072 3962300
-0.085767046 -0.077867009 1.1918584 3830970
-0.080808342 -0.077656411 1.1941503 3962813
0.11255122 -0.083621114 1.1900098 4291522
0.12036075 -0.083436504 1.1862025 4094399
-0.085806862 -0.067792982 1.191907 3962044
-0.080890834 -0.068205632 1.1940898 4093630
0.11440504 -0.072923034 1.1896324 4554438
0.11914851 -0.07381811 1.1858015 4357059
-0.084933206 -0.057771455 1.1914411 4093886
-0.080280378 -0.057143722 1.1940036 4291009
0.11283132 -0.062338822 1.1889743 4686026
0.11878777 -0.062605716 1.1857353 4685769
-0.083164528 -0.050557565 1.1900215 4159935
-0.078040197 -0.048200451 1.1927531 4225985
0.10584889 -0.052188486 1.1899472 5015248
0.11184244 -0.053637542 1.18716 5014991
-0.074789122 -0.038468566 1.1918788 4292037
-0.069435999 -0.040807933 1.1936613 4619977
-0.046472877 -0.034560375 1.1931237 5279449
-0.038497388 -0.034766875 1.1929528 5016538
-0.025993804 -0.036230966 1.192692 4950743
-0.016519951 -0.038153257 1.1925 4950488
-0.007423427 -0.038232259 1.1923038 5147351
0.0030451175 -0.037553012 1.1920731 5278422
0.013529436 -0.040146101 1.1909745 5212886
0.022874499 -0.039731372 1.1899084 5278423
0.032874316 -0.039149072 1.1901884 5147094
0.043786366 -0.039829679 1.1912074 4885460
0.053291179 -0.038576454 1.1902661 4950741
0.062426113 -0.038292244 1.1907942 5016279
0.10458311 -0.042309165 1.1885091 5212370
0.11188906 -0.043674149 1.1857595 5212369
-0.072531618 -0.031558305 1.1916667 4423370
-0.070385896 -0.028420679 1.1911995 4554187
-0.045883022 -0.029553398 1.1928113 5147610
-0.03604871 -0.029090904 1.1908618 5081818
-0.027006185 -0.031600498 1.1906829 5016538
-0.015821597 -0.03045205 1.1905669 5278938
-0.0067048445 -0.030081443 1.1903673 5344730
0.0037138127 -0.031237565 1.1890829 5673948
0.013854086 -0.033748325 1.1878133 5805277
0.022938479 -0.033983536 1.1876185 5541848
0.03318765 -0.033112347 1.1873912 5475544
0.043466054 -0.031105399 1.1871557 5213397
0.05411423 -0.031999275 1.1876376 5082070
0.063856617 -0.031457461 1.1891179 5016536
0.072880745 -0.02950526 1.1905103 5213915
0.083648391 -0.028806627 1.1902729 5279453
0.094574459 -0.02954565 1.1900415 5213659
0.10389678 -0.03271918 1.1882607 5212628
0.11046345 -0.032840088 1.1857189 5146833
-0.069942668 -0.022486337 1.1895504 4554443
-0.044686712 -0.021321796 1.1889968 5016281
-0.037442587 -0.022418588 1.1888474 5147611
-0.0063519292 -0.024132818 1.1881866 5411294
0.064547554 -0.021422379 1.1866361 5148123
0.073269419 -0.021651343 1.1866491 5213915
0.083327226 -0.022130601 1.1879743 5213917
0.094091862 -0.022339322 1.1883198 5213659
0.10200562 -0.024291679 1.1861787 5212887
0.095004261 -0.015391685 1.1859379 5279708
0.099546455 -0.015509292 1.1858405 5411037
-0.015848288 -0.17518365 1.198391 3106213
-0.01012771 -0.17533177 1.1982683 3105959
0.001133169 -0.1762777 1.1980311 3105706
0.011610486 -0.17589462 1.1978021 3105960
-0.026540665 -0.16803612 1.1985749 3105700
-0.019131297 -0.16947345 1.1991744 3105957
-0.0099736135 -0.16971058 1.1989781 3106216
0.00034648925 -0.17009267 1.1996077 3106217
0.010991884 -0.16985402 1.1992046 3171752
0.018890802 -0.16956663 1.1986941 3303337
0.030151963 -0.16721374 1.1973439 3369130
0.037016653 -0.16739148 1.1971967 3369132
-0.038840383 -0.15649879 1.1990981 3171753
-0.029181609 -0.15914828 1.2012941 3171752
-0.018856885 -0.15968418 1.203155 3172010
-0.0096891392 -0.16119523 1.203917 3172012
0.00037124008 -0.16103488 1.2044941 3237802
0.011039794 -0.16061239 1.2037151 3303338
0.020242386 -0.16087744 1.2037179 3369133
0.030520638 -0.16092053 1.2017757 3369388
0.040644035 -0.16085114 1.2008656 3303853
0.049910881 -0.1599285 1.1986192 3369643
0.060001172 -0.15939382 1.1968825 3303851
-0.056270644 -0.14436403 1.1990614 3303598
-0.048201591 -0.14739095 1.2006217 3303341
-0.039612614 -0.14933464 1.2038783 3303340
-0.030248268 -0.15100145 1.2065448 3369132
-0.022129966 -0.15309794 1.2063831 3303600
0.011270211 -0.15396273 1.2056668 3303598
0.023939244 -0.15429075 1.2053951 3435186
0.031425491 -0.15448458 1.2052345 3369391
0.041215196 -0.15473807 1.2050246 3369392
0.051084578 -0.15208076 1.2041781 3369390
0.060598262 -0.1512779 1.2003816 3435184
0.069939189 -0.14992207 1.1963698 3369392
-0.057025015 -0.1373328 1.1998315 3369646
-0.049853757 -0.13981284 1.2044941 3303853
-0.042623915 -0.14334542 1.2067617 3173034
0.053247482 -0.1439833 1.2046934 3566773
0.061448202 -0.14288954 1.2038422 3566516
0.071239494 -0.14127623 1.2006857 3500977
0.081075795 -0.14219947 1.1977627 3500975
-0.066896826 -0.12511268 1.199164 3632562
-0.058037587 -0.12840109 1.201995 3501236
-0.050433859 -0.1287504 1.2063897 3501494
0.073776126 -0.13223818 1.2041721 3698612
0.081279024 -0.13278484 1.2016494 3567283
0.090140827 -0.13058662 1.1987395 3567283
0.097571 -0.12773518 1.195626 3501747
