# .PCD v0.7 - Point Cloud Data file format
VERSION 0.7
FIELDS x y z rgba
SIZE 4 4 4 4
TYPE F F F U
COUNT 1 1 1 1
WIDTH 174
HEIGHT 1
VIEWPOINT 0 0 0 1 0 0 0
POINTS 174
DATA ascii
-0.071832374 -0.08678475 1.1346842 5134174
-0.06516169 -0.088170201 1.1334093 5134176
-0.072238646 -0.084895417 1.1389735 4871515
-0.081057079 -0.099172749 1.1209596 4936281
-0.070729993 -0.1013408 1.1189318 5199967
-0.065882906 -0.10188879 1.1190758 5397348
-0.089072108 -0.095340475 1.1267827 4673880
-0.081180222 -0.094664127 1.1257771 4870232
-0.07176619 -0.096363001 1.1264093 5068382
-0.06207598 -0.097816147 1.1272566 5068384
-0.054378986 -0.098961301 1.1292831 4476504
-0.089151151 -0.09033972 1.1349354 4607822
-0.08197026 -0.089908898 1.1346409 4673623
-0.071064569 -0.091437176 1.1342757 5134174
-0.060685314 -0.092258051 1.1354066 4739419
-0.053095266 -0.094401672 1.1359181 4081746
-0.089383923 -0.088556454 1.1432873 4410445
-0.080723681 -0.086334094 1.1433481 4213839
-0.070468478 -0.087291643 1.1441237 4345429
-0.060465176 -0.08858531 1.1440411 4016211
-0.052513488 -0.090689257 1.1444144 3621193
-0.080020569 -0.084269524 1.1483718 3884109
-0.07067509 -0.084939249 1.1495521 3752784
-0.060318418 -0.086136818 1.1497974 3621192
-0.053093199 -0.087383196 1.1490098 3686459
-0.090806589 -0.11252701 1.1135883 4673626
-0.082424216 -0.11120382 1.1118773 4870741
-0.073365226 -0.1128587 1.1111462 5265754
-0.063376382 -0.11395467 1.1122037 5397604
-0.055184294 -0.11654343 1.1161321 4608350
-0.091183223 -0.10529401 1.1203153 4673629
-0.082645006 -0.10485971 1.1182976 4870744
-0.074238949 -0.10611933 1.1169738 5134174
-0.062015124 -0.1073186 1.1194298 5397606
-0.054245569 -0.11174567 1.1220267 4476760
-0.048203718 -0.11285603 1.1267849 4015442
-0.09845227 -0.10538101 1.1294788 3883351
-0.094395146 -0.10101897 1.1275589 4475995
-0.060904264 -0.10427025 1.1252022 5068641
-0.051975958 -0.10592458 1.1292081 4082513
-0.046544164 -0.11020681 1.1321759 3752531
-0.09527871 -0.095869891 1.1362476 4079443
-0.049773369 -0.10207328 1.1374288 3621705
-0.045679223 -0.10634108 1.1365943 3751503
-0.051055949 -0.097551808 1.1437693 3490378
-0.081029207 -0.13155338 1.1016334 5002588
-0.077851243 -0.13192086 1.1017088 5528419
-0.091397144 -0.12657189 1.1102141 4739163
-0.08392296 -0.12584066 1.1065894 5002333
-0.074490294 -0.12700048 1.1065097 5397092
-0.065449566 -0.12850358 1.1091241 5332066
-0.059617776 -0.13024661 1.1109669 4740695
-0.092117682 -0.12005706 1.1117877 4082256
-0.085038364 -0.119709 1.1102054 5068120
-0.06249987 -0.12395877 1.1120154 5200736
-0.054508135 -0.12553704 1.1161377 4345175
-0.047678422 -0.12768918 1.1189783 4278096
-0.051242605 -0.11913868 1.1236458 4147028
-0.04693795 -0.12360491 1.1249247 3819087
-0.046521306 -0.11722192 1.1303802 3687502
-0.075433269 -0.1470895 1.0951355 5528423
-0.071141772 -0.14737353 1.0957322 5397348
-0.08488027 -0.13795671 1.1000433 4804702
-0.075398788 -0.13859683 1.0998511 5462626
-0.066338003 -0.14178181 1.1016712 5003105
-0.058325902 -0.14217302 1.1054952 4804440
-0.093900219 -0.13418239 1.1096102 3817824
-0.087601803 -0.13268006 1.1047421 4673622
-0.071669511 -0.13452235 1.1051195 5660265
-0.064294554 -0.13476217 1.1067245 5069150
-0.055484205 -0.1365249 1.1103084 4475986
-0.049977396 -0.13547151 1.1143826 4014924
-0.052299973 -0.13254791 1.1154116 4606547
-0.04660416 -0.13271101 1.1179806 3620428
-0.082900785 -0.15540084 1.0914389 4079956
-0.076102838 -0.1544579 1.0897932 5266270
-0.070535608 -0.15704417 1.0912336 5002845
-0.08538416 -0.15082988 1.0962647 4079963
-0.07765425 -0.15089434 1.0932721 5330781
-0.067337111 -0.15273754 1.0962083 5002331
-0.063733034 -0.14926994 1.1011484 5001816
-0.059657142 -0.14972931 1.1043394 4540755
-0.054924626 -0.14645855 1.1102936 4213074
-0.078553267 -0.17121819 1.0864738 5265766
-0.079405867 -0.16670862 1.0894445 5068639
-0.070665903 -0.16662544 1.0909868 4214103
-0.086789295 -0.15861762 1.093014 1580089
-0.06577982 -0.1609433 1.0954573 4145996
-0.062848091 -0.15838616 1.1005809 4212054
-0.085302919 -0.17363133 1.0865284 3618132
-0.079876043 -0.17469153 1.0856473 5199718
-0.073307134 -0.17501843 1.0868126 4214875
-0.078090221 -0.21288559 1.0379393 528927
-0.073019862 -0.21373509 1.0374453 1517876
-0.075506523 -0.22846484 1.0330122 4419983
-0.090138182 -0.2222311 1.0381522 1651559
-0.084349126 -0.21968634 1.0377574 1782104
-0.072141677 -0.22013599 1.0349064 4154236
-0.067378901 -0.22288448 1.0396568 3028033
-0.081865624 -0.22196814 1.0463049 2369321
-0.073688634 -0.2196188 1.0449868 2040105
-0.080870032 -0.21081668 1.0623953 4146252
-0.091104247 -0.23332363 1.0375408 5077683
-0.08424183 -0.23389912 1.0348048 4617364
-0.074889317 -0.2351293 1.0346793 4549258
-0.069195367 -0.23119326 1.0387201 6582660
-0.091399446 -0.22506827 1.046495 7695014
-0.083744526 -0.22509772 1.0503767 2040625
-0.075591885 -0.22493953 1.051435 2172202
-0.068983607 -0.22766027 1.047026 2760198
-0.086810075 -0.24586093 1.0299914 4683677
-0.081149362 -0.24651548 1.0301255 3831442
-0.094093047 -0.24124484 1.0357043 3299734
-0.086983047 -0.24163766 1.0332901 4683420
-0.078590013 -0.24368161 1.0334003 3960460
-0.096860036 -0.28543907 0.96791333 3829135
-0.088775247 -0.28618404 0.96854788 4223637
-0.082602866 -0.28707469 0.96828133 3960467
-0.097449973 -0.28167546 0.97652203 3498881
-0.089025378 -0.28209871 0.97698486 3895695
-0.081241854 -0.28284472 0.97855085 3631246
-0.096731141 -0.27457154 0.98564249 3499128
-0.089553252 -0.27571762 0.98507506 4025235
-0.081001177 -0.27805066 0.98688722 3499655
-0.095678017 -0.26914471 0.99350339 3826560
-0.089043915 -0.27039284 0.99381596 4156303
-0.081432059 -0.27380547 0.9944759 3630985
-0.095560096 -0.26818812 1.0034366 3893387
-0.088821985 -0.26740247 1.0032723 4157333
-0.081744969 -0.26992625 1.0047135 3762828
-0.093904555 -0.26689166 1.0120586 3762325
-0.087764092 -0.26319343 1.0131201 4420507
-0.08186236 -0.26610336 1.0140251 3828877
-0.094724633 -0.26134804 1.0247532 4222878
-0.087208919 -0.25948283 1.0217708 4552347
-0.081406005 -0.26303506 1.0226815 3631755
-0.095633529 -0.25293732 1.0298009 3627913
-0.08685039 -0.25271386 1.0276186 4683676
-0.080045715 -0.25571629 1.0301218 3892613
-0.078541018 -0.24974963 1.0361222 3563127
-0.099311426 -0.29406202 0.96094632 3033484
-0.091335885 -0.29759359 0.96116716 2897991
-0.081256643 -0.29798865 0.9619509 3891064
-0.073934607 -0.30008209 0.96347439 2638186
-0.10293464 -0.28873727 0.96865678 666715
-0.092161253 -0.2908681 0.9668467 4813457
-0.078600533 -0.29127449 0.96987867 3499654
-0.07189662 -0.29541665 0.97159618 3561592
-0.10332344 -0.28420171 0.9791258 6722
-0.078507289 -0.28752685 0.97865069 3694979
-0.07220716 -0.29000872 0.97981966 3233144
-0.076697476 -0.28363597 0.98826063 3104639
-0.072412491 -0.28707477 0.98962551 2640231
-0.077158615 -0.27975589 0.99717891 2907007
-0.073355138 -0.2844556 0.99894518 3099492
-0.099146619 -0.27238438 1.0079259 4089741
-0.077370733 -0.27628547 1.0061271 3496061
-0.073595047 -0.28058198 1.0090749 4278874
-0.096660338 -0.26948291 1.0154258 2972810
-0.077900052 -0.27307853 1.0160269 3757171
-0.074557394 -0.27726859 1.0165238 3748927
-0.095376521 -0.2673535 1.0207713 3630740
-0.076977909 -0.26902542 1.0222701 3953004
-0.092710793 -0.30468976 0.95743406 984897
-0.082209133 -0.30437431 0.96125245 4350584
-0.071494974 -0.29677242 0.98383874 4674411
-0.071624793 -0.29556215 0.99258769 6974583
-0.073105402 -0.29102048 1.0027505 3815753
-0.10406889 -0.28042918 1.0107093 5799072
-0.071707733 -0.28463012 1.0104051 5064001
-0.072939739 -0.31038594 0.98316765 7039097
-0.073191293 -0.30900383 0.9888742 7565430
-0.073638245 -0.30522776 0.99670219 8223350
-0.073188394 -0.29769963 1.0024745 9076613
