# .PCD v0.7 - Point Cloud Data file format
VERSION 0.7
FIELDS x y z rgba
SIZE 4 4 4 4
TYPE F F F U
COUNT 1 1 1 1
WIDTH 174
HEIGHT 1
VIEWPOINT 0 0 0 1 0 0 0
POINTS 174
DATA ascii
-0.084261246 -0.054582506 1.1103834 5134174
-0.077595301 -0.055305809 1.108627 5134176
-0.084544368 -0.052580297 1.1146311 4871515
-0.093102202 -0.068400972 1.0978211 4936281
-0.082784019 -0.06954591 1.0950488 5199967
-0.077909142 -0.069573835 1.0948249 5397348
-0.10102189 -0.06521026 1.1041403 4673880
-0.093348019 -0.063745573 1.1024921 4870232
-0.083784774 -0.064416558 1.1024282 5068382
-0.073958091 -0.06480585 1.1025491 5068384
-0.066051483 -0.065053128 1.1039933 4476504
-0.10102534 -0.059930816 1.1121159 4607822
-0.093976013 -0.058757246 1.11124 4673623
-0.083027914 -0.059140474 1.1100588 5134174
-0.072565161 -0.058817767 1.1103882 4739419
-0.064770989 -0.060127683 1.1103623 4081746
-0.10081823 -0.057856873 1.1204011 4410445
-0.092469364 -0.054733276 1.1197067 4213839
-0.082141638 -0.054573357 1.1196963 4345429
-0.072092071 -0.054807544 1.1188608 4016211
-0.063954152 -0.056045309 1.1186672 3621193
-0.091616288 -0.052411273 1.124593 3884109
-0.082190901 -0.052045442 1.1250489 3752784
-0.071776673 -0.052134052 1.1245092 3621192
-0.064539284 -0.05264166 1.1231902 3686459
-0.10187912 -0.082986519 1.0916605 4673626
-0.093842261 -0.08085496 1.0892507 4870741
-0.084738672 -0.081572957 1.0878551 5265754
-0.074638709 -0.081567638 1.0881507 5397604
-0.065941609 -0.083122812 1.0914953 4608350
-0.10252662 -0.075576082 1.0981703 4673629
-0.094262317 -0.074323341 1.0954697 4870744
-0.085893452 -0.074740596 1.0935233 5134174
-0.073461264 -0.074547634 1.0950384 5397606
-0.065084763 -0.078026064 1.0971464 4476760
-0.05861631 -0.078306437 1.1014427 4015442
-0.10903078 -0.076070562 1.1078795 3883351
-0.10562576 -0.071383551 1.1055106 4475995
-0.072253846 -0.071175829 1.1006079 5068641
-0.06292215 -0.071721867 1.1039426 4082513
-0.056850642 -0.075288311 1.106601 3752531
-0.10640229 -0.066020563 1.1140794 4079443
-0.060534477 -0.067341402 1.1118402 3621705
-0.056077618 -0.071183167 1.1108158 3751503
-0.061815985 -0.062735915 1.1181203 3490378
-0.091032505 -0.10132892 1.0795599 5002588
-0.087836884 -0.10135612 1.0793943 5528419
-0.10120058 -0.097136497 1.0887779 4739163
-0.094144471 -0.095763728 1.0845513 5002333
-0.08467482 -0.095924929 1.08376 5397092
-0.075353108 -0.096363239 1.0856947 5332066
-0.069244623 -0.097408399 1.0871222 4740695
-0.10250048 -0.090677425 1.0902022 4082256
-0.095640123 -0.089647144 1.0880538 5068120
-0.072702304 -0.091423266 1.0882016 5200736
-0.064298421 -0.091987893 1.0917243 4345175
-0.057081144 -0.093295366 1.0940795 4278096
-0.061186336 -0.084992334 1.0987493 4147028
-0.056339756 -0.088926449 1.0998199 3819087
-0.056205004 -0.08232674 1.105026 3687502
-0.084296167 -0.11643067 1.0731202 5528423
-0.079966374 -0.11623716 1.0733835 5397348
-0.094277591 -0.10815979 1.078478 4804702
-0.084824234 -0.10780385 1.0775546 5462626
-0.075360753 -0.10994231 1.0787481 5003105
-0.067087576 -0.10933693 1.0819352 4804440
-0.10290444 -0.10498624 1.0886089 3817824
-0.09719111 -0.10301979 1.083213 4673622
-0.081170283 -0.1031561 1.0823829 5660265
-0.073712625 -0.10255419 1.0834049 5069150
-0.064517997 -0.10323688 1.0863317 4475986
-0.05886554 -0.10145037 1.0899223 4014924
-0.061406262 -0.098749921 1.0910416 4606547
-0.055548579 -0.098211117 1.0931548 3620428
-0.09107884 -0.12562102 1.070285 4079956
-0.084566526 -0.1240318 1.0680773 5266270
-0.07865949 -0.12595847 1.0691509 5002845
-0.093670383 -0.12115218 1.0751494 4079963
-0.086227022 -0.12051836 1.0715569 5330781
-0.075578965 -0.12114747 1.0737215 5002331
-0.072008297 -0.11712879 1.0782511 5001816
-0.067677379 -0.11703083 1.0811217 4540755
-0.062890254 -0.11304913 1.0865785 4213074
-0.085433841 -0.1410739 1.0654804 5265766
-0.086542301 -0.13656665 1.0683689 5068639
-0.077771224 -0.13550237 1.0692104 4214103
-0.094466597 -0.12916575 1.0722616 1580089
-0.073204666 -0.12916639 1.0731025 4145996
-0.070188165 -0.1261161 1.0778964 4212054
-0.091859467 -0.14418113 1.066144 3618132
-0.086431891 -0.14469697 1.0648687 5199718
-0.079797022 -0.14428376 1.0655191 4214875
-0.084134199 -0.18432577 1.018368 528927
-0.079053588 -0.18465471 1.0175 1517876
-0.0802605 -0.19972651 1.0137336 4419983
-0.095050268 -0.19487378 1.0198228 1651559
-0.089616776 -0.19175032 1.0188923 1782104
-0.077682644 -0.19102168 1.0150979 4154236
-0.072305545 -0.19306496 1.0195382 3028033
-0.086262763 -0.19342166 1.0272822 2369321
-0.078510799 -0.19027677 1.0252484 2040105
-0.08526668 -0.18160689 1.0428921 4146252
-0.094854578 -0.20602171 1.0196319 5077683
-0.088196494 -0.20597711 1.0163796 4617364
-0.078802124 -0.20621848 1.0155511 4549258
-0.073278412 -0.20154917 1.0190047 6582660
-0.095363721 -0.19749975 1.0283228 7695014
-0.087479375 -0.19657028 1.0315846 2040625
-0.079335138 -0.19551229 1.0319879 2172202
-0.072823323 -0.19769153 1.0271549 2760198
-0.089812301 -0.21832198 1.0121554 4683677
-0.084120132 -0.21837041 1.0118606 3831442
-0.097099401 -0.21427956 1.0182828 3299734
-0.090191334 -0.21401477 1.0153259 4683420
-0.081642278 -0.21515667 1.0148335 3960460
-0.10018248 -0.26113558 0.9523176 3829135
-0.092039838 -0.26099876 0.95233202 4223637
-0.085845202 -0.26124349 0.9516046 3960467
-0.10052416 -0.25712147 0.96082604 3498881
-0.09209244 -0.25663584 0.96063244 3895695
-0.084177986 -0.25649539 0.96159875 3631246
-0.099891067 -0.24963027 0.96963769 3499128
-0.092694789 -0.25003457 0.9685387 4025235
-0.0838283 -0.25138044 0.96973825 3499655
-0.098840356 -0.24381948 0.97721952 3826560
-0.092105635 -0.24434812 0.97704357 4156303
-0.084141418 -0.2469109 0.97720289 3630985
-0.098076805 -0.24246819 0.98707795 3893387
-0.091494925 -0.24098364 0.98635596 4157333
-0.084097996 -0.24268901 0.98730874 3762828
-0.095924839 -0.24066834 0.99549764 3762325
-0.090157762 -0.23630476 0.99595457 4420507
-0.083924584 -0.2385387 0.9964782 3828877
-0.096378587 -0.23475 1.0080405 4222878
-0.089355431 -0.23222095 1.0044158 4552347
-0.083150327 -0.23510331 1.0049726 3631755
-0.097807862 -0.22629109 1.0128829 3627913
-0.089290395 -0.22522849 1.0100055 4683676
-0.082031481 -0.22739668 1.0120528 3892613
-0.080732018 -0.22107464 1.0177284 3563127
-0.10220612 -0.27023467 0.94583571 3033484
-0.093901694 -0.27289444 0.94553232 2897991
-0.083808601 -0.27219385 0.94552648 3891064
-0.076209113 -0.27344257 0.94652849 2638186
-0.10579122 -0.26502419 0.95364147 666715
-0.095018215 -0.26607656 0.95104963 4813457
-0.081303068 -0.2649323 0.95300823 3499654
-0.07408011 -0.26827434 0.95431572 3561592
-0.10587653 -0.26014906 0.96396369 6722
-0.080953479 -0.26085564 0.9616257 3694979
-0.074351735 -0.26261196 0.96236748 3233144
-0.078854524 -0.256423 0.97093749 3104639
-0.074132048 -0.25933489 0.97206378 2640231
-0.079057746 -0.25226742 0.97974062 2907007
-0.074645922 -0.25646734 0.98134369 3099492
-0.10083923 -0.24684039 0.99196446 4089741
-0.078967571 -0.24849156 0.98856634 3496061
-0.074537665 -0.25224751 0.99133652 4278874
-0.098122075 -0.243402 0.99915087 2972810
-0.079091474 -0.24497369 0.99837351 3757171
-0.075287402 -0.24876538 0.99873269 3748927
-0.096676081 -0.24094179 1.0043095 3630740
-0.078144222 -0.24060498 1.0043962 3953004
-0.094779149 -0.28023654 0.94214022 984897
-0.084114999 -0.27866673 0.94510269 4350584
-0.072610885 -0.26910058 0.96652389 4674411
-0.072209775 -0.2675696 0.97521412 6974583
-0.073401123 -0.26281548 0.98531765 3815753
-0.1046384 -0.25524428 0.99537569 5799072
-0.072128654 -0.25601906 0.99263692 5064001
-0.072621621 -0.28280631 0.96638888 7039097
-0.072589502 -0.28123641 0.97205222 7565430
-0.072849751 -0.27722532 0.97977096 8223350
-0.072781987 -0.26947182 0.98525488 9076613
