# .PCD v0.7 - Point Cloud Data file format
VERSION 0.7
FIELDS x y z rgba
SIZE 4 4 4 4
TYPE F F F U
COUNT 1 1 1 1
WIDTH 1131
HEIGHT 1
VIEWPOINT 0 0 0 1 0 0 0
POINTS 1131
DATA ascii
0.16360998 -0.080138892 1.0608121 10136266
0.17038253 -0.080531679 1.0608289 13159885
0.16390049 -0.073831074 1.0620642 12175571
0.16918015 -0.072757229 1.0584707 13093836
-0.13940838 -0.10995793 1.0792767 1720740
-0.14026937 -0.10307632 1.0789667 3628972
-0.14135948 -0.096906953 1.0802954 4745397
0.16464725 -0.087695166 1.0717782 6256041
0.16922945 -0.090317756 1.0719548 12767188
0.16281104 -0.078602828 1.0736589 7312841
-0.13686633 -0.13395271 1.0908279 2903988
-0.13374975 -0.13391408 1.0907829 1324707
-0.13849002 -0.12195341 1.0899085 2904505
-0.13730627 -0.11320049 1.0884008 2644141
0.16515324 -0.10735247 1.0860896 5801403
0.16959009 -0.10764383 1.086031 11779799
-0.1371617 -0.10213408 1.0863206 3039906
0.16418117 -0.098283373 1.0849577 3630254
0.17040321 -0.09903577 1.0842927 11516624
0.17751467 -0.098887332 1.0857773 13685195
-0.13974112 -0.093162179 1.0885777 2708908
0.16384357 -0.089833125 1.0839517 3762605
0.16862926 -0.09358149 1.0828183 10465738
0.16385731 -0.083086826 1.0797174 6721740
-0.13760054 -0.075777985 1.089905 1588628
-0.13448396 -0.075739369 1.0898598 3826867
-0.13003376 -0.14913684 1.0969754 3694011
-0.13511902 -0.14270143 1.0949444 7178192
-0.12986821 -0.14236644 1.0960181 2114980
-0.1354723 -0.13123494 1.0947653 1063065
-0.1309441 -0.13398442 1.0956451 2447769
-0.13509849 -0.12366997 1.0946386 2578847
-0.1325596 -0.12314595 1.0975947 2907546
0.16515249 -0.11826801 1.091766 6851775
0.17071161 -0.11775785 1.0901781 13029078
-0.13452595 -0.11355934 1.0952184 3104917
-0.13271794 -0.11059995 1.0973957 3170462
0.1636242 -0.10749558 1.091615 3040417
0.17336395 -0.11072329 1.0900273 13422807
0.17624393 -0.10755918 1.0899355 13619661
-0.13677076 -0.10106491 1.09505 3104162
0.16227421 -0.099309705 1.0908599 2973607
-0.13620663 -0.092729121 1.0951582 3169952
0.16259268 -0.08916451 1.0928359 2843043
-0.13813892 -0.083089203 1.0941888 3301299
-0.12461696 -0.16081619 1.1070879 4750553
-0.12091685 -0.16296439 1.1090699 1196192
-0.12676904 -0.15362878 1.1038024 3036848
-0.12276792 -0.15577039 1.108981 1789334
0.16124091 -0.14825207 1.1023053 12898004
-0.12583613 -0.14270094 1.1050364 2776475
0.16160852 -0.13916624 1.101054 9087435
0.16731036 -0.13450892 1.0974971 13488846
-0.12822184 -0.13199627 1.1046764 3038106
0.16131335 -0.12853593 1.0998874 4354994
0.16909853 -0.12651077 1.0973432 13752800
-0.13019744 -0.12228897 1.1059936 2973083
0.16117519 -0.11875185 1.1006403 2121388
-0.13526842 -0.10887293 1.1014051 3301280
-0.13177267 -0.11372354 1.1050704 3039132
0.16177124 -0.11071721 1.0983613 2646946
0.17795938 -0.10524128 1.0998762 13817039
-0.13534787 -0.10257708 1.1013054 3366820
-0.13272539 -0.1029319 1.1062747 3105183
0.16003913 -0.098434992 1.1017232 3631271
0.17898503 -0.10312391 1.0998275 13817037
-0.13548914 -0.091384463 1.1011277 3499424
-0.13273054 -0.092309244 1.1049042 3302563
0.15956447 -0.088201679 1.1008067 3369127
-0.13281816 -0.082813554 1.104453 3434147
0.16137233 -0.078579746 1.1015947 2908578
0.16706568 -0.075911045 1.099561 8233160
-0.13762963 -0.071761973 1.1017008 3365295
-0.13225153 -0.072859511 1.1046313 3499689
0.16203946 -0.068997957 1.1011692 4024485
0.16695943 -0.067493722 1.0994275 11192030
-0.13617751 -0.062831238 1.1036801 2181536
-0.1309354 -0.062605336 1.1048019 3433908
0.16123229 -0.06353572 1.1034467 2708114
-0.13460729 -0.054527767 1.1075255 8233201
-0.1307914 -0.055626538 1.1057739 3564980
0.0094577577 0.11907198 1.0986822 9935247
0.015158266 0.12004459 1.0985852 9934992
-0.11506204 -0.17166659 1.1178203 929696
-0.11084121 -0.17193109 1.1200725 1984411
0.15145734 -0.16441451 1.1162074 13424882
-0.11622774 -0.16215485 1.1153915 2512540
-0.11153527 -0.16394344 1.1186206 2906513
0.15267128 -0.15851536 1.1136504 8955594
0.15825778 -0.15715913 1.1099925 14080986
-0.12354935 -0.14815317 1.1158715 2381461
-0.12034322 -0.15326388 1.1178457 2776212
0.15275201 -0.14893326 1.1122596 3697834
-0.12405909 -0.1422253 1.1166172 2841752
-0.12182895 -0.14646848 1.1198207 2906774
0.15448761 -0.13898769 1.1125554 2646183
-0.12606648 -0.13167273 1.1175005 2907034
-0.12196355 -0.135804 1.1196516 2775704
0.15497008 -0.13022996 1.1135082 3696546
0.15695894 -0.12567815 1.1128401 3761571
-0.12722456 -0.12225812 1.115953 2973083
0.15855086 -0.11956899 1.1120524 3368880
-0.12845519 -0.11207409 1.1152625 3039134
0.1586951 -0.1079656 1.1114702 3500454
-0.12876844 -0.10163334 1.1147994 3171232
0.15753171 -0.099525616 1.1123645 3631529
-0.1294463 -0.092884131 1.1139686 3302564
0.15583357 -0.089221694 1.1079367 3697839
0.15629661 -0.089419775 1.110934 3763633
-0.12966102 -0.082319759 1.1146023 3368355
0.15671641 -0.078164145 1.1104617 3436468
0.17098618 -0.074358493 1.1104827 10992842
-0.12745366 -0.071875393 1.1144031 3697068
0.15447152 -0.065182015 1.114572 3765679
0.15763476 -0.067719057 1.1097484 3830452
0.1705783 -0.070112318 1.1104203 11387079
-0.12648505 -0.064122871 1.1120645 3631022
-0.1243569 -0.06089507 1.1114821 3500456
0.15370694 -0.058321055 1.1115834 3830449
0.16039324 -0.058770873 1.109015 5207985
0.16698384 -0.059636332 1.1129708 10334913
-0.12684485 -0.052071244 1.1139481 3434161
0.15273064 -0.049406335 1.1112002 3893939
0.15981874 -0.04981507 1.1103039 8428221
-0.1271762 -0.041989114 1.1173633 6194370
-0.12264163 -0.039817117 1.118121 4421311
0.15047106 -0.037576482 1.113095 5734064
0.15683487 -0.041153912 1.1141528 10203587
-0.12139266 -0.033135302 1.117996 6852289
0.14888138 -0.03170827 1.110914 8955077
0.016970184 0.096306205 1.1139437 9737616
-0.083885029 -0.20785418 1.1285994 7635861
-0.080456607 -0.20826206 1.1312243 8100012
-0.094229318 -0.19802085 1.1312566 10535920
-0.08720272 -0.20064768 1.128845 5996227
-0.080501907 -0.20467231 1.1311673 6394567
-0.10449045 -0.18724021 1.1232282 8431615
-0.097421803 -0.18955255 1.1259342 1526185
-0.091151088 -0.1918029 1.1299697 1262491
0.13253434 -0.18623528 1.1278303 11717846
-0.11315305 -0.17879179 1.1232163 7571711
-0.10611936 -0.18094893 1.1247064 1917611
-0.099056646 -0.18332243 1.1284224 2379673
-0.092224933 -0.18614802 1.1310375 2644619
0.13403738 -0.17934379 1.1276982 5010097
0.14125857 -0.17633945 1.1244034 10599906
0.14833304 -0.17505497 1.1234244 14081762
-0.10625821 -0.17207828 1.1272217 2709143
0.13494638 -0.1687326 1.127515 2909858
0.14153542 -0.16823646 1.1235939 4026283
0.14908183 -0.16839369 1.1198061 12307424
-0.11340945 -0.15847501 1.1228939 2775446
-0.10893252 -0.16258693 1.1258059 2775442
0.14268506 -0.15926196 1.1242518 3105445
0.14754745 -0.15844992 1.1191682 2578854
-0.11550187 -0.15126763 1.1249626 2775449
-0.11119106 -0.15354834 1.1294515 2906778
0.14491126 -0.14941198 1.1254623 3564451
0.14819473 -0.1484569 1.1213992 3433893
-0.11944763 -0.14262064 1.1260207 2840984
0.14632735 -0.14118563 1.1269104 3565217
0.15000588 -0.13910794 1.12149 3499430
-0.12445364 -0.1308056 1.1226076 2841497
-0.12136269 -0.13245012 1.1285913 2907290
0.15218109 -0.1284218 1.1236215 3237547
-0.12472992 -0.12132753 1.1240599 2973083
-0.12192837 -0.12170528 1.128427 3038877
0.15516794 -0.11868032 1.1246046 3827369
0.15772796 -0.11768387 1.1183687 3564710
-0.12589556 -0.11135338 1.1251739 3039391
-0.12317715 -0.11317345 1.1289747 3170977
0.15530682 -0.10859341 1.1242589 3565735
0.15761998 -0.10912944 1.118233 3500198
-0.12609455 -0.1031301 1.1271881 3170977
0.15545106 -0.099583909 1.1234454 3631790
0.15659395 -0.10120609 1.1261224 3434923
-0.12639698 -0.092596665 1.1260232 3302823
0.15497279 -0.088135056 1.1234353 3566513
-0.12651122 -0.082617924 1.124531 3368614
0.15395173 -0.078890994 1.1233399 3632560
-0.12608576 -0.074885577 1.1257346 3565995
0.15260705 -0.068759747 1.1219245 3895728
-0.12331779 -0.059777588 1.127053 3697842
0.15012223 -0.05885658 1.120334 4158132
-0.12177844 -0.051474296 1.1256611 3502262
0.1488739 -0.048184957 1.1213809 4027837
-0.11926159 -0.041938171 1.1248862 3698611
0.14393204 -0.03673758 1.1252687 4619197
0.14969712 -0.039853651 1.1196966 4946612
-0.12565473 -0.035637531 1.1210977 7180220
-0.11800317 -0.032430366 1.1281387 4815032
0.14375564 -0.030268759 1.1245005 5209534
0.14835295 -0.028575569 1.1170727 8425655
0.018181702 0.092342362 1.1169908 9474444
-0.056701802 -0.21772119 1.1380385 8300241
-0.075070053 -0.20981184 1.1345366 7642055
-0.067539394 -0.21034199 1.1365745 4815810
-0.060716294 -0.21368363 1.138031 5210825
-0.084363312 -0.19801956 1.1341164 932767
-0.077327058 -0.20134951 1.135754 2382238
-0.06863866 -0.20424475 1.1379927 2251168
0.11481209 -0.19872037 1.1352851 6518691
0.12061535 -0.19764504 1.1337562 11319227
-0.086149164 -0.19127083 1.1359007 2447513
-0.080681473 -0.19464016 1.1380105 2513045
0.12236091 -0.18939534 1.1339749 4617903
0.1293622 -0.18937162 1.1309266 10929103
-0.095749833 -0.18036979 1.1354506 2971544
-0.089783266 -0.18405226 1.1359701 2774929
0.12430751 -0.18011355 1.133184 2909086
0.12916763 -0.17914179 1.1307652 3105187
-0.10347056 -0.16729784 1.1338962 2709911
-0.098752335 -0.17226154 1.1362619 2644371
0.13057092 -0.16929951 1.1312027 3368356
-0.10585875 -0.16068384 1.1356428 2775444
-0.10082568 -0.16473144 1.1364845 2709910
0.13487962 -0.15936466 1.1319666 3368613
0.13902548 -0.15637349 1.1302592 3499683
-0.1091845 -0.15216035 1.1352352 2841497
0.1366187 -0.15184864 1.1342218 3237027
0.14127512 -0.14912386 1.1314443 3302821
-0.11527409 -0.14066029 1.1342088 2645144
-0.11173146 -0.14230233 1.1367248 2775964
0.14428118 -0.13913934 1.1320899 3237542
0.14831156 -0.13552335 1.1311256 3106215
-0.11719789 -0.13227151 1.134985 2907291
0.1455408 -0.12956414 1.1324031 3499683
0.14859554 -0.12756987 1.1308035 3303338
-0.11829498 -0.1223447 1.135787 3039134
0.15010676 -0.11905593 1.1309142 3499947
-0.12365653 -0.10815088 1.1332353 3236770
-0.12139586 -0.11235993 1.1366047 3236770
0.15171129 -0.1085226 1.1311288 3500458
-0.12373831 -0.10167221 1.1331325 3237027
-0.12195123 -0.10194848 1.1371123 3302821
0.1539512 -0.097939074 1.1313946 3632048
-0.12386095 -0.091954209 1.1329783 3302824
-0.12206747 -0.092737995 1.1369661 3302569
0.15211007 -0.089074917 1.1311747 3632047
-0.12440736 -0.082889423 1.1328406 3434408
-0.1216036 -0.080423869 1.1367619 3434665
0.14857322 -0.078078128 1.1306851 4026292
-0.12410625 -0.0725182 1.1326699 3631531
-0.12233415 -0.071608059 1.1366309 3631531
0.14855984 -0.070122153 1.1291835 4157366
-0.12418801 -0.066039532 1.1325672 4025255
-0.12107012 -0.060842164 1.1347255 3632304
0.1478681 -0.058348723 1.1285599 4289211
-0.11773168 -0.051818192 1.1339614 3568048
0.14458615 -0.047611076 1.1291013 4094399
0.14699152 -0.051947214 1.1304702 4224702
-0.11652381 -0.045785554 1.1321328 3764911
-0.1131027 -0.041388944 1.1345139 3895729
0.14193484 -0.039210487 1.1297925 4487616
-0.11792354 -0.027650468 1.1348624 6458567
-0.11294956 -0.031370938 1.134251 3895996
0.14171022 -0.028193124 1.1285641 5735616
0.14852545 -0.024862222 1.1280133 9477559
-0.11750413 -0.024946682 1.1358132 6852289
-0.1142533 -0.024906404 1.1357661 5933254
0.051101036 0.078685462 1.1277425 9474701
-0.019640971 -0.22752225 1.1496695 7248329
0.013209733 -0.22871946 1.1484196 5801654
0.021209527 -0.22749944 1.1477524 5210039
0.034029782 -0.22795241 1.1489103 6328255
0.041695058 -0.22785743 1.1487993 7379645
0.053252272 -0.22759256 1.1486301 8430007
0.061122887 -0.22578502 1.1444877 8625323
-0.057757474 -0.21999615 1.142091 9678537
-0.046840593 -0.21975914 1.1484593 4422071
-0.037474588 -0.22029595 1.1498082 2778029
-0.027690191 -0.22198959 1.1496958 2513574
-0.020042837 -0.22460672 1.1496285 2315684
0.0098974518 -0.22496586 1.1492069 2120102
0.021942886 -0.22481659 1.1490325 2185635
0.03506954 -0.22355877 1.1488249 2186146
0.040558554 -0.22458594 1.1487631 2316696
0.055861469 -0.22220594 1.1485064 4486314
0.0633872 -0.22174953 1.1463912 5997746
0.074509643 -0.21863863 1.1470398 6063288
0.083176658 -0.21704869 1.1480337 6589614
0.091282696 -0.21716729 1.1479199 8757678
-0.063345544 -0.20810217 1.1419801 1855898
-0.056547165 -0.21047521 1.1451598 2249885
-0.048778184 -0.21262494 1.149119 2381985
-0.040612556 -0.2146399 1.1497623 3039902
0.077083454 -0.21153876 1.1480323 2841504
0.083099261 -0.21091664 1.1479365 3302564
0.092616692 -0.20856442 1.1464292 4420011
0.10234528 -0.20768026 1.1418941 6984117
0.11171564 -0.20484543 1.1394286 6254993
-0.074611872 -0.19770959 1.1427742 2710418
-0.066794455 -0.20081979 1.1462944 2775447
-0.060003571 -0.20292011 1.1490508 2906776
0.094978161 -0.20062771 1.1472017 3171492
0.10343058 -0.19919375 1.1442573 3237285
0.11169069 -0.19794425 1.1398898 3629215
-0.077529572 -0.19073367 1.1467049 2775191
-0.069313943 -0.19408333 1.1491753 2906012
0.10529366 -0.18994147 1.1456159 3040421
0.11216709 -0.18822709 1.1421036 3105703
0.11803431 -0.18845366 1.1390754 2777257
-0.093103908 -0.1769315 1.1419047 2710677
-0.086238898 -0.18067506 1.1453969 2709909
-0.079941317 -0.18416618 1.1478342 2709910
0.11326412 -0.17977776 1.1455321 3368100
0.12075987 -0.17791964 1.1410012 3302561
-0.094370216 -0.17035381 1.1449291 2710421
-0.089491427 -0.1730805 1.148993 2644886
0.11524498 -0.17196782 1.1468526 3040936
0.12321801 -0.16880333 1.1446005 3237031
0.12954387 -0.16587025 1.1415493 3368615
-0.10422514 -0.15749313 1.1417515 2776209
-0.098669663 -0.16183013 1.1464928 2841240
0.12517315 -0.1602602 1.146523 3237287
0.13152733 -0.15803663 1.1412525 3302822
-0.10524485 -0.15078172 1.1461928 2710683
-0.10046831 -0.15397039 1.1489764 2841499
0.1337201 -0.14955203 1.1436403 3237541
0.13860296 -0.14683715 1.1397144 3237798
-0.10747261 -0.14224435 1.1466973 2907293
0.13533112 -0.14072523 1.1460645 3237797
0.13996084 -0.13820398 1.1409568 3303334
-0.11398446 -0.13069165 1.1426039 2907805
-0.11167876 -0.13220316 1.1486537 2907805
0.14171952 -0.12877886 1.1433365 3434407
-0.11457915 -0.12136798 1.1439869 3039392
-0.11186974 -0.12243216 1.1492999 3039391
0.14354035 -0.11918603 1.1430296 3500202
0.14757639 -0.11630827 1.137496 3631274
-0.11781741 -0.11221127 1.1457533 3170979
0.14539289 -0.10886238 1.1449651 3631791
0.1486952 -0.10834426 1.1391305 3566510
-0.11833524 -0.10184942 1.1467757 3105957
0.14441302 -0.097780272 1.1435786 3632305
0.14957935 -0.098908223 1.1375216 3501227
-0.11887581 -0.091867022 1.1443369 3237546
0.14382857 -0.088730648 1.1425627 3698099
0.14837787 -0.08913409 1.1374487 3698094
-0.11837234 -0.082109183 1.1444113 3434923
0.14495552 -0.079434499 1.1429431 3895479
0.14713722 -0.081511617 1.1369439 3895477
-0.11811654 -0.071639292 1.144859 3566256
0.14509079 -0.068109527 1.1440932 4027579
0.14752948 -0.067556351 1.1407152 4157882
-0.11724512 -0.062730953 1.143947 3567024
0.14292371 -0.058607049 1.1434617 4159422
0.14719123 -0.058771126 1.1389788 4289724
-0.11508624 -0.052902479 1.1415619 3567791
-0.11193157 -0.050844893 1.1468184 3764403
0.14106633 -0.048616588 1.1418374 4356797
-0.11039015 -0.041987341 1.1405576 3830196
0.13826984 -0.039083663 1.1407907 4619718
-0.10902155 -0.031032257 1.1427006 3896507
0.13403654 -0.027236082 1.14115 4817095
0.13852471 -0.027808815 1.1378722 4948420
-0.11672881 -0.021937154 1.1437557 6916535
-0.10923857 -0.02237948 1.1433482 5210049
0.13313961 -0.020822696 1.1431715 5013440
0.13756117 -0.020387799 1.1407676 5998788
0.031838551 0.051928669 1.1393064 5859448
0.040007405 0.0520778 1.1373299 6122362
0.045607585 0.052323356 1.1402466 6319482
0.056759063 0.053791612 1.1440649 5330522
0.032342535 0.056357756 1.137704 5792108
0.040148608 0.05729118 1.1370442 5527648
0.0455525 0.056688175 1.1401774 5067354
-0.013855329 -0.22737548 1.1525853 4354997
-0.0064555611 -0.2282795 1.1544946 4684224
0.0034157094 -0.22788611 1.1528803 4289976
0.014356489 -0.22545728 1.1521517 2054307
0.024793427 -0.22587699 1.1520095 2777510
0.030296765 -0.22690682 1.1519474 4026798
0.046765201 -0.22670276 1.1517091 5604271
0.050587051 -0.22500835 1.1516273 4881326
-0.032963883 -0.21725929 1.1526957 3039902
-0.024996843 -0.21807045 1.1530951 2710943
-0.016465265 -0.2198292 1.1558065 2645152
-0.0065046269 -0.22251047 1.1590705 2514339
0.0034261737 -0.22229227 1.1583917 2514851
0.013289158 -0.21968886 1.1566755 2842787
0.023136446 -0.21917805 1.1543262 2908579
0.032808401 -0.21865553 1.1546687 3039651
0.043025848 -0.21921434 1.1556432 2908578
0.052360043 -0.21823078 1.1552441 2778020
0.062336434 -0.21648258 1.1527517 2646433
0.071924433 -0.21907076 1.1512274 5012145
0.083468512 -0.22020875 1.1510808 8955830
-0.046095386 -0.20899856 1.1530364 2841242
-0.036198489 -0.21091615 1.154974 2775960
-0.027147528 -0.21204853 1.1567967 2841500
-0.017660473 -0.21404383 1.1604275 2907551
0.014021614 -0.21291417 1.1599571 3105184
0.023229577 -0.21243152 1.1598179 3170722
0.033179201 -0.21230823 1.1596738 3302053
0.043306097 -0.21162993 1.1595184 3170723
0.05379685 -0.21057853 1.1593518 3105188
0.063093051 -0.20969707 1.1574903 3170467
0.072640359 -0.2094308 1.1534631 3236258
0.082713038 -0.20589495 1.1513065 3171236
-0.062856473 -0.19786493 1.1528112 2906776
-0.05628226 -0.20000157 1.1538948 2907033
-0.047768459 -0.20082256 1.1574777 2841497
-0.038417649 -0.20471865 1.1605742 2775704
0.064035915 -0.20418626 1.159103 3105443
0.07288003 -0.20407666 1.158975 3105443
0.083608255 -0.2002461 1.1574969 3105956
0.091886878 -0.19732882 1.1537943 3105956
-0.073973984 -0.18702227 1.1527959 2644884
-0.066817917 -0.19045423 1.1557496 2775705
-0.05837369 -0.19317971 1.1583401 2841497
0.087112181 -0.19284372 1.1585916 3172006
0.094724558 -0.19038315 1.1574432 3040421
0.1005215 -0.18800119 1.1548216 2974628
-0.082868002 -0.17834815 1.1527838 2645144
-0.07616023 -0.17998472 1.1557738 2710425
-0.070801884 -0.1826157 1.1572524 2776216
0.10388315 -0.1793161 1.1548843 3171493
0.10878836 -0.17707476 1.1516277 3237026
-0.085970566 -0.17032835 1.1552882 2710424
-0.079517737 -0.17239493 1.1591873 2710937
0.10676029 -0.17269838 1.1579878 3302823
0.11299405 -0.16858613 1.1546743 3172005
0.11873744 -0.16538775 1.1536987 3172006
-0.094823673 -0.15909757 1.1526455 2841498
-0.090327345 -0.16148418 1.1575439 2907290
0.11546488 -0.16153392 1.1576844 3303592
0.12165051 -0.15809637 1.1562073 3237544
0.1276509 -0.15377881 1.1493841 3303337
-0.096670829 -0.15063608 1.1542507 2973342
-0.09195146 -0.15360023 1.1605182 3038879
0.12519324 -0.15027846 1.1566981 3237544
0.12945056 -0.14726838 1.1520547 3303336
-0.1048514 -0.13919614 1.1534696 2973342
-0.098682761 -0.14221279 1.157931 2973600
0.13276139 -0.13808315 1.1530603 3368872
-0.1065094 -0.13133258 1.1547203 3039392
-0.10099067 -0.13199392 1.1603005 3236259
0.13396798 -0.12860066 1.1546414 3500460
0.13828346 -0.12619603 1.1487898 3434923
-0.10772339 -0.12169658 1.1551191 3170978
0.13491008 -0.11964571 1.1554011 3500719
0.13952485 -0.11714106 1.1519608 3500718
-0.11446815 -0.11066115 1.1521487 3237029
-0.11055314 -0.11188786 1.158114 3237286
0.13979045 -0.10823721 1.1545868 3697329
-0.114579 -0.10187819 1.1520094 3237543
-0.11191884 -0.10129102 1.1594638 3172263
0.14088637 -0.099120632 1.1539195 3697843
-0.11496056 -0.092198655 1.1548603 3303340
-0.11282789 -0.091020569 1.159812 3303852
0.14053455 -0.088673346 1.1541569 3764149
-0.11518977 -0.082487024 1.1517069 3500716
-0.11237571 -0.080958724 1.1596441 3501229
0.14332342 -0.078225166 1.1525207 3764661
-0.11492539 -0.074431442 1.1515739 3566512
-0.11173562 -0.070900775 1.1558363 3632306
0.140212 -0.068057269 1.152301 3896764
-0.11125537 -0.061274525 1.1556751 3698357
0.1341328 -0.058057725 1.154424 4291265
0.13790184 -0.059267402 1.1488644 4225217
-0.10976345 -0.052254397 1.1551453 3764408
0.13478452 -0.048457526 1.1535938 4554434
0.13729972 -0.048247281 1.1475531 4488640
-0.10693198 -0.041494802 1.1557324 3895997
-0.1028063 -0.038193263 1.1588212 4027323
0.13424242 -0.037682779 1.1524284 4817354
-0.10555889 -0.031999275 1.1520929 3962044
-0.10151463 -0.030650891 1.1578816 4093118
0.12480394 -0.025422029 1.155367 5014224
0.13017423 -0.028151058 1.1513333 4751563
-0.10461151 -0.021597676 1.1505789 4290235
-0.099667542 -0.021336287 1.1550385 4158908
-0.093467012 -0.01891277 1.1583786 4028609
0.12302615 -0.018434182 1.1535021 4817874
0.12963095 -0.018150285 1.1481799 5145287
-0.097398169 -0.014694348 1.1527658 4487616
-0.091991432 -0.011896625 1.1569113 4356800
0.11401249 -0.0060351044 1.1532096 5276623
0.12033793 -0.0090274662 1.1494521 5604813
0.12973575 -0.010150462 1.1479388 6720449
-0.08995869 -0.0048642755 1.1581031 5671109
0.11210368 -0.00047091395 1.1545764 5802961
0.11842134 -0.0012265071 1.1504022 6787017
0.035846628 0.014385134 1.1559982 12972031
-0.019550297 0.023579828 1.154641 5869264
0.012920292 0.020366468 1.1562295 7515376
0.020417867 0.020090796 1.156127 8764660
0.030029137 0.019767642 1.1559949 10146554
0.036675237 0.018818028 1.1559153 10870005
-0.07745859 0.031078741 1.149346 8028800
-0.072339691 0.031508192 1.149266 7305855
-0.015146513 0.024809882 1.1565589 5671370
-0.01182997 0.024850979 1.1565109 5869265
0.011385815 0.025138646 1.1561749 6988787
0.015807869 0.025193438 1.1561109 7185904
0.10192632 0.03510581 1.1547225 6314850
-0.071182929 0.036524698 1.1491691 8028802
0.098786235 0.038605019 1.1547111 6117979
0.074584372 0.048701286 1.1468927 5593178
0.07678017 0.048728496 1.146861 5658970
-0.012091719 -0.21687694 1.1643944 2973083
-0.0065311063 -0.2179175 1.1643318 2973595
0.0029003145 -0.21735978 1.164855 2973598
-0.032199528 -0.20603141 1.1645075 2842012
-0.025803421 -0.20733899 1.1644372 2776219
-0.016410746 -0.2096788 1.1658647 2907806
-0.0067766532 -0.21091273 1.1673814 2907807
0.0037891688 -0.2113196 1.1674126 2973599
0.012600616 -0.20891349 1.1645809 3039136
0.023339495 -0.20777974 1.1650763 3170723
0.033305392 -0.20754747 1.1642635 3236770
0.043087434 -0.20697612 1.1634479 3170979
0.052129984 -0.2066507 1.1633135 3170980
0.05876492 -0.20490429 1.1631908 3171236
-0.043404751 -0.19729447 1.1645272 2842012
-0.036647443 -0.19945319 1.1659203 2842011
-0.026991967 -0.2015764 1.1668237 2842012
-0.018665075 -0.20289825 1.1682649 2907805
0.027825713 -0.20371377 1.1676142 3302309
0.033805959 -0.20250112 1.1663663 3302308
0.042437196 -0.20229459 1.1648823 3171236
0.05319031 -0.20275441 1.1632359 3171236
0.063821025 -0.20122282 1.1647266 3105443
0.073608205 -0.19918939 1.1638874 3171492
0.080118492 -0.19724321 1.162763 3040420
-0.064621873 -0.1864627 1.1646563 2841497
-0.055804856 -0.18909407 1.1651061 2907291
-0.047315143 -0.19161811 1.1663747 2907549
-0.040596183 -0.1926866 1.1684141 2907551
0.076663002 -0.19197583 1.1667287 3040420
0.083628304 -0.19007818 1.1647037 3106213
0.09138526 -0.18741426 1.1624445 3106214
-0.066178478 -0.17996377 1.1665747 2907290
-0.059534781 -0.18273693 1.1680247 2973340
0.087681934 -0.18293308 1.1664263 3302823
0.093662217 -0.18051222 1.1639016 3237030
0.099760748 -0.1770272 1.1639364 3237031
-0.083732359 -0.16672905 1.1646125 2841497
-0.075285032 -0.1700955 1.1650794 2842012
-0.069102667 -0.17221583 1.1674923 2907547
0.10483613 -0.16929367 1.162885 3368361
0.10986543 -0.16599439 1.161837 3237285
-0.085286118 -0.16083112 1.1645401 2973085
-0.078464538 -0.160928 1.1671816 3039135
0.10704312 -0.16214621 1.1618155 3368615
0.11353496 -0.15872401 1.1623954 3237799
0.11805234 -0.15535299 1.1615493 3303337
-0.092844941 -0.14798099 1.1644417 2973857
-0.087350085 -0.15141809 1.1659744 3039137
-0.081371866 -0.1521861 1.1683463 3104930
0.11544726 -0.15118042 1.16352 3172264
0.12161365 -0.14823472 1.1620511 3238059
-0.094125368 -0.139779 1.1653286 3039650
-0.090056777 -0.14327614 1.1683273 3105700
0.12475019 -0.13842905 1.1633364 3369132
0.12893556 -0.13857609 1.1611247 3434410
-0.096979052 -0.13124025 1.1659467 3171236
0.12655404 -0.13026819 1.1642262 3500719
0.12987956 -0.127942 1.1629411 3435183
-0.10430217 -0.11927674 1.1641448 3302823
-0.09958867 -0.12115555 1.1667747 3171495
0.1305114 -0.11783999 1.1625881 3566514
-0.10613689 -0.1106414 1.1654872 3368873
-0.10241839 -0.11174414 1.1671976 3368875
0.1330961 -0.10863135 1.1613851 3697588
-0.10713792 -0.10156869 1.1665683 3303850
0.1345799 -0.098971926 1.163838 3763892
0.13774706 -0.098304123 1.1603527 3698099
-0.1086254 -0.091398798 1.1653594 3435181
-0.10273042 -0.091777049 1.1676818 3435438
0.13547969 -0.088825405 1.1642339 3829942
0.13827826 -0.088287249 1.1613276 3764149
-0.10770583 -0.081708074 1.1655909 3501229
0.1353111 -0.075468153 1.164022 3896505
0.13971156 -0.078330703 1.1618228 3830455
-0.10723869 -0.071848921 1.1649644 3632563
-0.10302542 -0.068401858 1.167311 3567542
0.1328252 -0.068381459 1.1613717 4027837
0.13807946 -0.071894638 1.1599243 3896505
-0.10660965 -0.061786152 1.1645888 3829940
-0.10310971 -0.061723221 1.167205 3699127
0.13122019 -0.058768436 1.1624788 4291009
-0.10632671 -0.051650357 1.1638886 3895737
-0.10261211 -0.050743312 1.1670218 4027576
0.13138014 -0.04873848 1.1616488 4422849
-0.10524016 -0.044953912 1.1629655 4158911
-0.1007713 -0.041167755 1.1648414 4093372
0.13119386 -0.039004676 1.1609951 4817355
-0.097148634 -0.031731434 1.1641766 4093630
-0.092399843 -0.028192163 1.166514 4094397
0.12361702 -0.028339662 1.1616545 5080014
0.12813923 -0.031522177 1.1594183 4883149
-0.095147818 -0.024118766 1.1624871 4028348
-0.090653613 -0.021481939 1.1638809 4028864
0.1189975 -0.018760622 1.1611222 4949202
-0.087207943 -0.011841774 1.1639953 4029123
-0.082986839 -0.0095208809 1.1660801 3963586
0.11280154 -0.0089587942 1.1619425 5146069
0.11626035 -0.013363115 1.1592965 5080276
-0.086525232 -0.0040414631 1.1620418 5342665
-0.079374015 -0.0017402619 1.1659037 4882633
-0.015973072 0.0028133541 1.1649256 6070261
-0.0092942864 0.0028961152 1.1648289 6528744
-0.0026154984 0.0029788688 1.1647322 8827627
0.01296834 0.0031719655 1.1645067 10340848
0.021722399 0.0026442856 1.1643901 8895736
0.029236915 0.002037622 1.1642926 6266608
0.10359179 0.0037223697 1.1622039 5475287
0.10809364 0.00023394823 1.1605285 5475028
-0.076005451 0.0042605251 1.1637589 5999306
-0.069359705 0.0054523423 1.1636449 5540557
-0.06084428 0.0088820383 1.1628015 5803727
-0.048112653 0.010826558 1.1652558 4950220
-0.039137207 0.0098132715 1.1651438 5016280
-0.029411077 0.009316355 1.1646129 5411294
-0.019390721 0.0093977749 1.1626282 5806569
-0.0093802251 0.0095606297 1.1641231 7120874
0.00020619296 0.0104357 1.1645722 12379901
0.010769883 0.010002255 1.1619016 13891069
0.020577544 0.0098744482 1.1610898 12969723
0.030540852 0.010248959 1.1618259 9946095
0.040619977 0.010148674 1.1620865 10013177
0.050327953 0.012145653 1.161675 7449069
0.056991436 0.014108054 1.1637027 5411552
0.10061088 0.0075504929 1.1606847 6526426
-0.046196193 0.015798211 1.1651486 6264275
-0.038648393 0.016655616 1.1625266 5803990
-0.029101793 0.017380148 1.1608783 5345755
-0.019112065 0.01876568 1.1607136 5412839
-0.0095233638 0.019485489 1.1610652 5676266
-0.00044170953 0.01871413 1.1633055 7253489
0.0093652178 0.018624686 1.1613095 8436213
0.01935729 0.016501307 1.1602007 12051453
0.033722483 0.021117195 1.1599215 10082302
0.041571029 0.020474799 1.1598198 10607102
0.050065368 0.019734748 1.1597104 7515119
0.057129778 0.019229747 1.1609513 6068200
-0.0073784478 0.025045775 1.1604452 6001365
-0.0029411595 0.02510076 1.160381 6396124
0.10947134 0.032262906 1.1586614 6447199
-0.0032705944 -0.20697834 1.1721115 3039391
0.0042857993 -0.20628878 1.1734929 3039135
0.015717391 -0.20674306 1.1718367 3104930
-0.032451998 -0.19616905 1.1723547 2776478
-0.0260364 -0.19695349 1.1742761 2842271
-0.016083017 -0.19843496 1.1763401 2907807
-0.0068263263 -0.20017141 1.1767498 2908063
0.0032175584 -0.20087917 1.1777223 2973600
0.013518151 -0.1997765 1.1770909 3105187
0.023427628 -0.19931714 1.1760223 3236773
0.033104897 -0.19786867 1.1751802 3237029
0.044053037 -0.19781759 1.1750898 3171237
0.053682636 -0.19868445 1.1726657 3171236
0.063174054 -0.19701645 1.1719264 3105444
0.071988955 -0.19543347 1.1708519 3171493
-0.044710707 -0.18740013 1.1755897 2841758
-0.036571439 -0.18959391 1.1763089 2907551
-0.027607977 -0.19054466 1.1790204 2842271
-0.016891625 -0.19158189 1.1800607 2908064
-0.010130085 -0.19262283 1.179981 2973857
0.011236517 -0.19235808 1.1796716 3105444
0.02409384 -0.191199 1.1794696 3237030
0.034136616 -0.19150305 1.1785308 3302823
0.043785475 -0.19060405 1.1782556 3171495
0.053121816 -0.18908645 1.1776296 3105703
0.062830843 -0.18922809 1.1772845 3105703
0.072603241 -0.18863891 1.1752352 3105702
0.080864914 -0.1860764 1.1722897 3105958
-0.056107797 -0.1798681 1.1740782 2973598
-0.048029602 -0.18141985 1.1783417 2907551
-0.038087081 -0.18312806 1.1802278 2908065
0.074327171 -0.18015623 1.1785753 3237288
0.083102532 -0.17937258 1.1759924 3302823
0.091697067 -0.17727065 1.1728511 3237287
-0.065636106 -0.16869885 1.1752454 3105183
-0.058084883 -0.17192772 1.1784507 2974112
-0.049730875 -0.1739935 1.1802474 2842786
0.084544174 -0.17255466 1.1783074 3171750
0.093108289 -0.16885966 1.1767923 3172008
0.10108965 -0.16707405 1.1723152 3303081
-0.073913552 -0.15915373 1.1730194 3104930
-0.06757278 -0.16130114 1.1789647 3170978
0.095510393 -0.16046475 1.1779568 3303337
0.10323621 -0.15888491 1.1755707 3368873
0.11011492 -0.157544 1.1722456 3237543
-0.083878867 -0.14645785 1.1749583 3040164
-0.077093288 -0.15011278 1.1760433 3105701
-0.070598505 -0.15438226 1.1802306 3302822
0.10472729 -0.14981043 1.1776544 3303597
0.11203671 -0.14736167 1.173146 3238059
0.11904731 -0.14424255 1.1713592 3303852
-0.086384304 -0.14013676 1.1760042 3106213
-0.078533977 -0.14201508 1.1801454 3172007
0.11288167 -0.13821578 1.1771518 3369387
0.1207618 -0.13793902 1.173234 3435181
-0.093700826 -0.13002883 1.1735014 3237030
-0.087058194 -0.13055155 1.1777493 3237800
-0.080604859 -0.13388661 1.1800445 3303594
0.1146269 -0.13214234 1.1772295 3500972
0.12293477 -0.12781262 1.1737907 3500976
0.12751341 -0.12492745 1.1689279 3500977
-0.094931528 -0.12075876 1.1751484 3237545
-0.090190582 -0.12230186 1.1791064 3303852
0.12464882 -0.11822176 1.1768631 3566772
0.12791781 -0.11857548 1.172821 3566515
-0.097564012 -0.1110798 1.1751696 3369389
0.12538531 -0.1086794 1.1766994 3763639
0.12866689 -0.10778063 1.1717482 3763639
-0.10454969 -0.097359776 1.1731321 3435181
-0.099085316 -0.10092814 1.1763501 3435438
0.12588802 -0.097586773 1.1765143 3895737
0.13079661 -0.097488031 1.1712649 3764149
-0.10411597 -0.090861104 1.1740885 3435438
-0.098679304 -0.09136074 1.1780814 3501231
0.12581706 -0.091964118 1.1764251 3961530
0.13107112 -0.088000722 1.1711087 3961528
0.13817537 -0.084580183 1.1681283 3895735
-0.10394276 -0.081598178 1.1745375 3501489
-0.099637173 -0.081277005 1.1773539 3501490
0.12559 -0.073971629 1.1761396 4159679
0.13129173 -0.078652203 1.1714048 3962041
0.13814719 -0.082346357 1.1680928 3895735
-0.10451863 -0.074280113 1.1734281 3501747
-0.099712975 -0.070988253 1.1759739 3567541
0.12475987 -0.067608573 1.1760494 4225473
0.12840208 -0.068129107 1.1720047 4159424
-0.098082475 -0.060833529 1.1747208 3764919
0.12439801 -0.05874037 1.1759121 4422597
0.12827478 -0.058042601 1.1718447 4357059
-0.097715683 -0.051059585 1.1743872 3896505
-0.092900656 -0.050810672 1.178887 3962298
0.12413902 -0.048121348 1.1757455 4685767
0.12814748 -0.047956105 1.1716846 4422851
-0.096395954 -0.041946631 1.1723932 4027836
-0.091329202 -0.040035266 1.1776005 4028094
0.12210044 -0.03758695 1.1734874 4948684
0.12795267 -0.039487958 1.1685508 4751818
-0.094824791 -0.033847038 1.1706405 4093632
-0.089214183 -0.030235112 1.1763499 4094399
0.11525249 -0.027236938 1.1755372 5080784
0.11950953 -0.028327458 1.1706928 5211343
-0.086093917 -0.021777734 1.1746868 4094402
-0.079567663 -0.018591307 1.1771795 4226244
-0.073084384 -0.016823918 1.1780587 4620744
-0.019119803 -0.015030541 1.1772597 5412064
0.003371357 -0.014751852 1.1769341 6463211
0.011490133 -0.018488511 1.1768781 6397929
0.021167869 -0.017727874 1.1767278 6397929
0.030376965 -0.015702613 1.1765639 6003432
0.11209617 -0.018037081 1.1729341 5081042
0.11726698 -0.021165237 1.1674092 5081041
-0.078379773 -0.010846406 1.1719037 4160963
-0.07024087 -0.0097256377 1.1770469 4752075
-0.055219188 -0.0064802021 1.1776378 4949201
-0.048464745 -0.0069588572 1.177549 5016022
-0.038880441 -0.0079703107 1.1767616 5213659
-0.029048137 -0.0087615252 1.1760697 5411552
-0.019187786 -0.0094144493 1.1763703 5740773
-0.0090697464 -0.0092824772 1.1770239 6003172
0.0010443907 -0.0091604739 1.1764774 6331366
0.011103412 -0.009051539 1.1737314 6989552
0.021209436 -0.0089241639 1.1739852 6792432
0.031284709 -0.008802101 1.1731893 5937640
0.039791837 -0.0077461451 1.1753016 5806054
0.050503436 -0.0062949136 1.1761255 5674725
0.057236597 -0.0050867721 1.17601 5674983
0.10309427 -0.0070491433 1.1753869 5146841
0.10905582 -0.0091278926 1.1696194 5080789
-0.075114556 -0.0023243353 1.1698532 4554184
-0.071635887 -0.0014072508 1.1727896 4751049
-0.056346126 -0.00090236217 1.1755638 4818129
-0.048916064 -0.0008207038 1.1746563 5015507
-0.039425928 -0.00074333698 1.1711187 5147609
-0.029338367 -0.00063449889 1.1696727 5346018
-0.01965718 -0.00085537881 1.1721498 5937898
-0.0091971755 -0.0014686584 1.1722325 6462952
0.0012353109 -0.00060579181 1.1711807 8303605
0.010594562 -0.00060895085 1.1700311 8501495
0.020451082 -0.0014776736 1.1690909 7252467
0.0317633 -0.00078146905 1.1697576 6069484
0.040908717 0.0004330948 1.170469 6135528
0.051068276 0.00022438169 1.173424 5741031
0.060476456 0.00056200475 1.1748729 5543655
0.069951914 0.0019920692 1.175715 5477092
0.079998538 0.0034431294 1.1755482 5739747
0.091372207 0.0033341125 1.1753876 5280481
0.10057152 0.00076436996 1.1716043 5015513
0.10605154 -0.0011763126 1.1692489 4949463
-0.068497501 0.0044601858 1.16965 4818122
-0.059078082 0.0055698454 1.1694976 5147606
-0.050400168 0.0064221025 1.16936 4818639
-0.041690938 0.0047923401 1.1692619 5344472
0.0029796269 0.0059043914 1.1686064 12971007
0.0074544363 0.005401291 1.1685506 12905215
0.032027118 0.0057057664 1.1681949 5807584
0.045430399 0.0058718473 1.1680008 6004710
0.051481709 0.0069043338 1.1678979 5807083
0.060271338 0.0095229447 1.1698642 5477863
0.068815574 0.0092336014 1.1722808 5542628
0.080710389 0.0064511597 1.1754898 5673698
0.091231391 0.0085164383 1.1738061 5804766
0.096809648 0.0065084845 1.1672572 5147865
0.063160479 0.017262422 1.167565 5412324
-0.0033116564 -0.19539472 1.183929 3039650
0.0031442903 -0.19595958 1.1838459 3039650
-0.023721937 -0.18774803 1.1840976 2842271
-0.01695174 -0.18766415 1.1839997 2973857
-0.0065964945 -0.1886072 1.1851304 2973857
0.0031940583 -0.19021863 1.1862799 3039395
0.013816997 -0.18816435 1.1853466 3171237
0.02309374 -0.18664253 1.1844785 3237030
0.033437457 -0.18595643 1.1847917 3302569
0.041773945 -0.18599758 1.1844682 3237546
-0.043519996 -0.17751427 1.184216 2908065
-0.03593161 -0.17838754 1.1841217 2973857
-0.027214531 -0.18002743 1.1850238 2973857
-0.017429836 -0.18178952 1.1860303 2973858
-0.0091012958 -0.18248552 1.1878054 3105444
0.022599615 -0.18209273 1.1873465 3237030
0.034279712 -0.18043822 1.1871532 3302825
0.043199725 -0.17987747 1.1867092 3171754
0.053037755 -0.18030071 1.1848828 3171752
0.063365892 -0.17975861 1.1841383 3171753
0.071756974 -0.17654353 1.183555 3237546
0.079931147 -0.17404999 1.1823981 3303592
-0.054815538 -0.16819619 1.1842278 2908579
-0.046567291 -0.17023215 1.1861432 2908579
-0.036702786 -0.17156541 1.186933 3105444
-0.028015431 -0.17320837 1.1879265 3105443
0.066640146 -0.17248842 1.1865637 3303339
0.074624471 -0.17013729 1.1850784 3303082
0.082963288 -0.16795875 1.1828287 3237545
0.088844165 -0.16491142 1.1821243 3303850
-0.063984886 -0.15702464 1.1841794 3302822
-0.057287127 -0.16121131 1.1864015 3040165
-0.050088219 -0.16487619 1.188108 3040167
0.077847593 -0.16329095 1.1862561 3303598
0.083845392 -0.15923658 1.1851641 3238061
0.092354782 -0.15709966 1.1830602 3303596
0.099999666 -0.15461653 1.1817998 3369131
-0.073896959 -0.14661464 1.1841539 3171751
-0.067406483 -0.1501448 1.1855299 3368615
-0.060420692 -0.15368097 1.1880758 3171751
0.10175253 -0.14799611 1.1831689 3369134
-0.075960599 -0.13958697 1.1840706 3369130
-0.069775194 -0.14142272 1.1870124 3434922
0.10277837 -0.13829377 1.1845465 3435183
-0.077775076 -0.13099012 1.1852921 3434923
0.1054428 -0.13116366 1.1845465 3501232
0.11215392 -0.12795788 1.1837873 3435694
0.1188259 -0.12617037 1.1810746 3501232
-0.086141653 -0.11995578 1.1849011 3369646
-0.080352955 -0.12361155 1.1865442 3435182
0.11578432 -0.1186602 1.1849984 3567282
0.11985115 -0.11810981 1.1827492 3567027
-0.094705969 -0.10737441 1.1838213 3501231
-0.090032943 -0.1112034 1.1865666 3435439
0.1156843 -0.11073516 1.1848726 3829686
0.12072706 -0.10788821 1.1829768 3829431
-0.094748691 -0.1039894 1.1837676 3501231
-0.090379916 -0.10066866 1.1853189 3567024
0.12292212 -0.098474212 1.183239 3830201
-0.094926693 -0.089885153 1.1835438 3632818
-0.09166012 -0.090533391 1.185508 3698612
0.124896 -0.087850057 1.1823735 3896507
-0.095047735 -0.080294266 1.1833917 3633333
-0.091161057 -0.080397479 1.1861384 3764919
0.12459561 -0.077653646 1.1817141 4093886
-0.095610157 -0.071498811 1.1832585 3633334
-0.091539092 -0.070464112 1.1863846 3830201
0.12148125 -0.068056375 1.1823269 4291523
-0.091267675 -0.060183398 1.184682 3896506
0.12085051 -0.057589922 1.1815456 4619975
-0.088107891 -0.050592866 1.1845306 4028348
0.11486986 -0.046202704 1.1838487 5146320
0.11931138 -0.048384372 1.1828202 4883148
-0.086529575 -0.041181199 1.1829282 3962814
-0.081530236 -0.039719481 1.1854054 3963072
0.11374511 -0.037413493 1.1822234 5146577
0.11749969 -0.039021004 1.1801952 5080527
-0.0852734 -0.032098368 1.1824788 4028607
-0.079087317 -0.030241154 1.1844945 4291526
-0.029173609 -0.027605683 1.1856067 5147865
-0.021704108 -0.027286656 1.1854949 5344731
-0.0054122116 -0.026178926 1.1852446 5345501
0.0013808394 -0.02609475 1.1851462 5739743
0.011568123 -0.028221309 1.1837013 5936862
0.020626578 -0.028112032 1.1839037 5871068
0.030831689 -0.026862152 1.1847382 5739228
0.04893221 -0.02550555 1.184458 5213656
0.11175552 -0.02855821 1.1820098 4949970
-0.077434473 -0.022803836 1.1822177 4422856
-0.069037654 -0.017908685 1.1838379 4686797
-0.058681048 -0.016649306 1.1838517 4884690
-0.048246942 -0.017934486 1.1852237 4950486
-0.037795592 -0.018577233 1.1842513 5213659
-0.029239293 -0.019672319 1.1822796 5279707
-0.01906012 -0.020677119 1.1825505 5345244
-0.0089185592 -0.018920638 1.1822886 5411808
0.00095032714 -0.01991532 1.1819617 5806052
0.010311461 -0.022939138 1.1809672 6068964
0.022352118 -0.023166113 1.180799 6068963
0.0323705 -0.020646714 1.1815388 6003173
0.040816627 -0.018809728 1.1822659 5608417
0.051023953 -0.018683024 1.1827183 5411038
0.057903882 -0.018600419 1.1842191 5279709
0.10255274 -0.016305149 1.1826216 5212630
0.10821825 -0.019853182 1.1808537 5015248
-0.065436259 -0.012216397 1.1818765 4949712
-0.058666058 -0.012132503 1.1817786 4949713
-0.048510753 -0.01200667 1.1816316 5016279
-0.039102953 -0.012266271 1.1815014 5213659
-0.030442648 -0.012911297 1.1813881 5345501
0.042329878 -0.011445336 1.1803257 5871590
0.050785512 -0.010776296 1.1801943 5871847
0.061041288 -0.008384943 1.1820099 5543139
0.068315387 -0.0071612149 1.1821723 5280225
0.092858441 -0.0068440512 1.1835314 5411294
0.098700598 -0.0082254857 1.1809242 5279196
0.070425123 -0.0020690784 1.1797742 5411556
0.079994887 -0.00025772303 1.1796086 5412066
0.091278553 -0.00011790544 1.1794451 5477344
0.09807723 -0.0022907034 1.179383 5213404
0.0042083804 -0.18553287 1.1916653 3105189
-0.016251501 -0.17730531 1.1928256 3039906
-0.0065191574 -0.17931235 1.1931474 3039908
0.0030555828 -0.18032449 1.1949322 3105447
0.013616297 -0.17945787 1.1921836 3105702
0.022671994 -0.17810857 1.1912825 3171750
0.031651385 -0.17758417 1.1911459 3237289
0.043091036 -0.17558329 1.1909505 3237548
0.053314898 -0.17545661 1.1908026 3171752
0.062402774 -0.17534399 1.190671 3171752
-0.044057254 -0.1662107 1.1920443 3039909
-0.036187116 -0.1668303 1.1928309 3105701
-0.027975038 -0.16935197 1.194411 3105443
-0.018288564 -0.17460237 1.1958119 3040163
0.012474339 -0.17330924 1.195352 3105960
0.023858206 -0.17205355 1.1951693 3105958
0.03292397 -0.17044255 1.1942139 3237545
0.043291405 -0.16927052 1.192952 3237547
0.053321615 -0.16884135 1.1922966 3237544
0.063382402 -0.16848812 1.1922315 3237545
0.071993858 -0.16640945 1.1910576 3303339
-0.055422492 -0.1569216 1.1920574 3172009
-0.046927094 -0.15994239 1.1943852 3105961
-0.03754193 -0.16201657 1.1958848 3171752
0.046535797 -0.16239971 1.1946907 3303337
0.053374559 -0.16231495 1.1945916 3303593
0.063457534 -0.16121294 1.1944301 3303594
0.072612651 -0.15850468 1.1930057 3303596
0.079375438 -0.15695554 1.1901336 3238062
-0.06291391 -0.14849342 1.1920291 3434409
-0.057110779 -0.1501396 1.1947968 3237547
-0.04872635 -0.1523879 1.1958899 3237805
0.073500097 -0.15117279 1.1941255 3238318
0.082742564 -0.1481432 1.1928248 3238572
0.092838421 -0.14783031 1.1909952 3434926
0.099313252 -0.14716496 1.1896919 3369134
-0.065350831 -0.13947237 1.1931502 3435179
-0.059349664 -0.1413715 1.1954203 3369388
0.087309428 -0.14137548 1.1937712 3500977
0.092871383 -0.13778354 1.192634 3435186
0.098285951 -0.13778563 1.1895561 3500720
-0.074003853 -0.12884118 1.1928723 3566511
-0.068242259 -0.13162228 1.1945018 3566767
-0.060978755 -0.13409334 1.1957713 3500977
0.094245985 -0.13012585 1.1929916 3501234
0.10206368 -0.12763095 1.1900893 3501490
-0.083777383 -0.11580403 1.1918024 3566770
-0.076923192 -0.12026106 1.1943767 3632306
-0.070212178 -0.12508819 1.1957586 3632563
0.10378207 -0.11891665 1.1917636 3699127
0.11117814 -0.1175715 1.1895183 3633076
-0.085041985 -0.11021554 1.192731 3566770
-0.078983732 -0.11099143 1.1956576 3763892
0.10458064 -0.109813 1.1930182 3633335
0.11119417 -0.10757551 1.1904429 3764407
-0.08527527 -0.10010998 1.1943725 3698868
-0.080907032 -0.1006486 1.1955191 3699126
0.10499951 -0.097838402 1.1928201 3962811
0.11152262 -0.097864494 1.1915605 3830969
0.11920901 -0.098032184 1.1886195 3830714
-0.086601086 -0.090200581 1.1923552 3699126
-0.081286587 -0.090647124 1.1953641 3830712
0.11210418 -0.087908372 1.1919591 4028606
0.12021803 -0.087956771 1.1884434 3962300
-0.086130947 -0.080698863 1.192873 3830970
-0.081200324 -0.080277994 1.1951964 3962813
0.11227012 -0.078838661 1.1924114 4291522
0.12009355 -0.078386724 1.1886554 4094399
-0.086557828 -0.070633769 1.192832 3962044
-0.081645161 -0.070838258 1.1950513 4093630
0.11371447 -0.068080865 1.1919515 4554438
0.11851579 -0.068825871 1.1881608 4357059
-0.086066298 -0.060590457 1.1922828 4093886
-0.081459247 -0.059762202 1.1948709 4291009
0.11174028 -0.057571057 1.1911887 4686026
0.11772534 -0.057636626 1.1879925 4685769
-0.084565885 -0.053326394 1.1908112 4159935
-0.079555266 -0.050750524 1.1935561 4225985
0.10436659 -0.047688704 1.1920245 5015248
0.11043092 -0.048930202 1.1892905 5014991
-0.076674119 -0.040908717 1.1926173 4292037
-0.071247861 -0.043025065 1.1944566 4619977
-0.048538305 -0.035904013 1.1940181 5279449
-0.040559754 -0.035805155 1.1939026 5016538
-0.028007638 -0.036789563 1.1937393 4950743
-0.018465851 -0.038347725 1.1936281 4950488
-0.0093718432 -0.038078576 1.193494 5147351
0.0010642745 -0.036999308 1.1933277 5278422
0.011647924 -0.039196711 1.1923227 5212886
0.02097748 -0.038432155 1.1913159 5278423
0.030945335 -0.037463374 1.1916583 5147094
0.041867994 -0.037715081 1.1927567 4885460
0.051324107 -0.036105458 1.1918683 4950741
0.06043743 -0.035465661 1.1924554 5016279
0.10273266 -0.037878133 1.19049 5212370
0.1101049 -0.038984828 1.187802 5212369
-0.074682124 -0.033918854 1.1923591 4423370
-0.072655194 -0.030705184 1.1918784 4554187
-0.048138909 -0.030880935 1.1936651 5147610
-0.038316064 -0.03005746 1.1917779 5081818
-0.029182818 -0.032218941 1.1916822 5016538
-0.018050026 -0.030642308 1.1916314 5278938
-0.0089530423 -0.029923156 1.1914899 5344730
0.0015111435 -0.03068883 1.190286 5673948
0.011749058 -0.032818668 1.1891072 5805277
0.020836933 -0.032706063 1.1889756 5541848
0.031046456 -0.031443402 1.1888095 5475544
0.041241638 -0.029044822 1.1886256 5213397
0.051912606 -0.029524401 1.1891869 5082070
0.061616302 -0.028595634 1.1907279 5016536
0.07054875 -0.026285946 1.1921637 5213915
0.08128304 -0.025175862 1.1919928 5279453
0.092230797 -0.025496177 1.1918416 5213659
0.10168044 -0.028324135 1.1901517 5212628
0.10826472 -0.02821435 1.1876554 5146833
-0.072428472 -0.024772629 1.1901797 4554443
-0.047232561 -0.022642612 1.1897858 5016281
-0.039950792 -0.02346129 1.189695 5147611
-0.0088133514 -0.02398438 1.1892589 5411294
0.06193899 -0.018563166 1.1881618 5148123
0.070662916 -0.018456466 1.1882356 5213915
0.080722071 -0.018537194 1.1896329 5213917
0.09148407 -0.018328846 1.1900526 5213659
0.099481881 -0.019993842 1.1879823 5212887
0.09214589 -0.01137206 1.1876153 5279708
0.096689828 -0.011315756 1.1875495 5411037
-0.012575522 -0.17519507 1.2007409 3106213
-0.0068527497 -0.17512417 1.2006582 3105959
0.0044375369 -0.17563838 1.2005053 3105706
0.01489378 -0.1748547 1.2003434 3105960
-0.023535457 -0.16846263 1.2007895 3105700
-0.016080793 -0.16960879 1.2014515 3105957
-0.0069195982 -0.16949527 1.201319 3106216
0.0034028552 -0.16947481 1.2020215 3106217
0.014033822 -0.16883048 1.2016879 3171752
0.021919295 -0.168244 1.2012281 3303337
0.033091091 -0.16547157 1.1999331 3369130
0.039958414 -0.16538647 1.1998336 3369132
-0.036272433 -0.15740271 1.2011272 3171753
-0.026534833 -0.1596598 1.2034116 3171752
-0.016210567 -0.15978223 1.2053467 3172010
-0.0069971848 -0.16093303 1.2061839 3172012
0.0030452888 -0.16038097 1.2068273 3237802
0.013694999 -0.15955532 1.2061164 3303338
0.02290073 -0.15946627 1.2061837 3369133
0.033186536 -0.15913084 1.204311 3369388
0.043305986 -0.1586801 1.2034686 3303853
0.052546233 -0.1574212 1.2012765 3369643
0.06262058 -0.1565139 1.1996031 3303851
-0.054155029 -0.14594793 1.2008653 3303598
-0.04598695 -0.14864877 1.2025067 3303341
-0.03735292 -0.15023261 1.2058382 3303340
-0.027950581 -0.15151505 1.2085824 3369132
-0.019756839 -0.15329915 1.2084941 3303600
0.013656147 -0.15288514 1.2080104 3303598
0.026330037 -0.15272808 1.207827 3435186
0.033819154 -0.15263529 1.2077185 3369391
0.043612614 -0.15251395 1.2075768 3369392
0.05337844 -0.14948651 1.2067733 3369390
0.062880889 -0.14835118 1.203034 3435184
0.07219103 -0.1466718 1.1990732 3369392
-0.0551842 -0.13894451 1.2015678 3369646
-0.047956176 -0.14110669 1.2063004 3303853
-0.040612258 -0.14433897 1.208648 3173034
0.055225175 -0.14130774 1.2072312 3566773
0.063383669 -0.13990681 1.2064254 3566516
0.073127888 -0.13794547 1.2033209 3500977
0.083012789 -0.13851497 1.2004725 3500975
-0.065512933 -0.12711926 1.2007253 3632562
-0.056554221 -0.13004003 1.203645 3501236
-0.048973948 -0.1300588 1.2080936 3501494
0.075290933 -0.12878685 1.2067438 3698612
0.082826935 -0.12906633 1.2042766 3567283
0.09161818 -0.12655415 1.2014071 3567283
0.098955221 -0.12344605 1.1983185 3501747
-0.072829016 -0.11756167 1.2006763 3895478
-0.067179881 -0.11999427 1.2031354 3698613
-0.058220901 -0.12077961 1.2071877 3633080
0.076647535 -0.12214419 1.2066178 3699128
0.083165795 -0.11887236 1.2064723 3830713
0.092623085 -0.11838487 1.2051293 3699126
0.099332169 -0.11703102 1.1982101 3633333
-0.074238196 -0.10956619 1.2005682 3961271
-0.067415036 -0.1098663 1.2054768 3896247
-0.060606323 -0.11232163 1.2084197 3764921
0.082971737 -0.11192536 1.2063636 3962300
0.093794778 -0.10928613 1.2056961 3896506
0.10123253 -0.10738063 1.2000287 3764920
-0.075696759 -0.10024282 1.2019397 3830712
-0.068770669 -0.099655375 1.2069993 4093627
0.096629135 -0.098389164 1.2059515 4028352
0.10193812 -0.097797744 1.2005316 3962812
-0.07621979 -0.089925423 1.2022818 3962556
-0.069690764 -0.090895638 1.2077609 4028606
0.095971145 -0.08799348 1.205794 4357317
0.10232729 -0.088164911 1.2017051 4225985
0.10762054 -0.084418684 1.1975685 4225985
-0.075841866 -0.080912471 1.2021317 4028606
-0.070989259 -0.080953419 1.2080646 4094655
0.096396483 -0.079954863 1.2056589 4554695
0.1021383 -0.077796042 1.2009413 4554182
0.10827764 -0.076016024 1.1974243 4619462
-0.076680504 -0.070294112 1.2004436 4159424
-0.068629652 -0.069111422 1.2066097 4160448
-0.062325582 -0.067402288 1.2077234 4554440
0.096688673 -0.066584282 1.2054403 4620747
0.10224029 -0.06756781 1.2031263 4686026
