# .PCD v0.7 - Point Cloud Data file format
VERSION 0.7
FIELDS x y z rgba
SIZE 4 4 4 4
TYPE F F F U
COUNT 1 1 1 1
WIDTH 174
HEIGHT 1
VIEWPOINT 0 0 0 1 0 0 0
POINTS 174
DATA ascii
-0.076302104 -0.041089624 1.0972086 5134174
-0.069691345 -0.041767061 1.0952383 5134176
-0.076461844 -0.039095432 1.1014665 4871515
-0.085451834 -0.054947138 1.0849133 4936281
-0.075220644 -0.056020975 1.0818099 5199967
-0.070355363 -0.056016892 1.08143 5397348
-0.093185328 -0.051817089 1.0914882 4673880
-0.085577838 -0.050300173 1.0895973 4870232
-0.076017424 -0.050908893 1.089226 5068382
-0.066189617 -0.051234476 1.0890313 5068384
-0.058239348 -0.051432438 1.0902212 4476504
-0.092967212 -0.046549283 1.0994685 4607822
-0.085957289 -0.045328662 1.0983691 4673623
-0.075050429 -0.045639008 1.096837 5134174
-0.064584792 -0.045248784 1.0968317 4739419
-0.056787178 -0.046507969 1.0965538 4081746
-0.092508033 -0.044485994 1.1077462 4410445
-0.08420603 -0.041307203 1.1067899 4213839
-0.073885195 -0.04108014 1.1064487 4345429
-0.063866265 -0.0412478 1.1052914 4016211
-0.05573092 -0.042432353 1.1048352 3621193
-0.08321178 -0.038986757 1.1116502 3884109
-0.073779188 -0.038560323 1.1118044 3752784
-0.063387245 -0.038580462 1.1109312 3621192
-0.056192726 -0.039039105 1.10938 3686459
-0.094327442 -0.069580525 1.079013 4673626
-0.086385861 -0.067393288 1.0763503 4870741
-0.077327237 -0.068050086 1.0746627 5265754
-0.067223236 -0.067979544 1.0746346 5397604
-0.058413558 -0.069482982 1.0776961 4608350
-0.094813742 -0.062183842 1.0855525 4673629
-0.086648494 -0.060873523 1.0825906 4870744
-0.078343801 -0.061233565 1.0803761 5134174
-0.065870941 -0.060961977 1.0814925 5397606
-0.057408918 -0.064388923 1.0833253 4476760
-0.05080441 -0.064633444 1.0874116 4015442
-0.10100004 -0.062734596 1.0954642 3883351
-0.09770301 -0.058022141 1.0929952 4475995
-0.06450741 -0.05759044 1.087026 5068641
-0.055070296 -0.058080629 1.090059 4082513
-0.048893824 -0.061611347 1.0925157 3752531
-0.098239072 -0.052676685 1.1015931 4079443
-0.052459024 -0.053696126 1.0978835 3621705
-0.048012599 -0.057507366 1.0967103 3751503
-0.05356827 -0.049108133 1.1042088 3490378
-0.083756149 -0.087834567 1.0665408 5002588
-0.080567367 -0.087840743 1.0662729 5528419
-0.093650386 -0.083721623 1.0760868 4739163
-0.086742364 -0.082296923 1.0716386 5002333
-0.077302098 -0.082395419 1.070544 5397092
-0.067920536 -0.082775921 1.0721781 5332066
-0.061762817 -0.08378341 1.0734076 4740695
-0.094945602 -0.07727319 1.0775627 4082256
-0.088164411 -0.076195247 1.0751973 5068120
-0.065222666 -0.077822439 1.074607 5200736
-0.056706719 -0.078337513 1.0778577 4345175
-0.049409382 -0.079601452 1.0799783 4278096
-0.053416267 -0.071332015 1.0847909 4147028
-0.048512582 -0.07523609 1.0856992 3819087
-0.048253611 -0.068643153 1.0909092 3687502
-0.077132396 -0.10288289 1.0598637 5528423
-0.072797731 -0.10266162 1.0599884 5397348
-0.086990118 -0.094684802 1.0655521 4804702
-0.077573702 -0.094266102 1.0643269 5462626
-0.068063229 -0.096344724 1.065213 5003105
-0.059696235 -0.095690176 1.0681344 4804440
-0.09530811 -0.091582015 1.0759594 3817824
-0.089783467 -0.089570694 1.0703865 4673622
-0.073796935 -0.089601666 1.0690433 5660265
-0.066314384 -0.08895278 1.0698268 5069150
-0.057026461 -0.08957991 1.0724565 4475986
-0.051273461 -0.087761864 1.0758669 4014924
-0.053794373 -0.08507961 1.0770715 4606547
-0.047875568 -0.084505789 1.0789969 3620428
-0.083943039 -0.11211305 1.057232 4079956
-0.077515215 -0.11047834 1.0548195 5266270
-0.071564503 -0.11236812 1.0557001 5002845
-0.086406112 -0.10766816 1.0621843 4079963
-0.079085961 -0.1069808 1.0583563 5330781
-0.068370156 -0.1075438 1.0601776 5002331
-0.064682148 -0.10350853 1.0645971 5001816
-0.060262166 -0.10338656 1.0673275 4540755
-0.055328384 -0.099381715 1.0726348 4213074
-0.078355379 -0.12752196 1.0522236 5265766
-0.079399735 -0.12302618 1.0551536 5068639
-0.070613243 -0.12190612 1.0557153 4214103
-0.087242775 -0.11568256 1.0593103 1580089
-0.06596525 -0.11554622 1.0594695 4145996
-0.062816381 -0.11248331 1.0641693 4212054
-0.084736258 -0.13067184 1.0530876 3618132
-0.079349123 -0.13115054 1.0516381 5199718
-0.072699629 -0.13069516 1.0520763 4214875
-0.078287452 -0.17069645 1.0050225 528927
-0.073235258 -0.17099111 1.0039916 1517876
-0.074465021 -0.18606499 1.0002409 4419983
-0.089083023 -0.18131727 1.0068089 1651559
-0.083702408 -0.17815724 1.0057099 1782104
-0.071900971 -0.17734557 1.0015361 4154236
-0.066371247 -0.17936026 1.0057986 3028033
-0.080070496 -0.17981884 1.0139853 2369321
-0.072408147 -0.17662069 1.0117093 2040105
-0.07865084 -0.16802038 1.0295746 4146252
-0.08882165 -0.19246343 1.0065933 5077683
-0.08227165 -0.19237085 1.0031294 4617364
-0.072907306 -0.19254994 1.002 4549258
-0.067305967 -0.18784982 1.0052825 6582660
-0.089106932 -0.18395749 1.0153102 7695014
-0.081128255 -0.18298151 1.0183191 2040625
-0.072982267 -0.18187119 1.0184631 2172202
-0.066614777 -0.18400107 1.0134203 2760198
-0.083942354 -0.20471987 0.99893892 4683677
-0.078262374 -0.20473087 0.99846166 3831442
-0.091055252 -0.20073374 1.0053033 3299734
-0.084247358 -0.20041977 1.0021271 4683420
-0.075711288 -0.20150538 1.001359 3960460
-0.095948718 -0.24751361 0.93939352 3829135
-0.087810852 -0.24732387 0.93914723 4223637
-0.081641257 -0.2475273 0.93822128 3960467
-0.0960434 -0.24351406 0.94791508 3498881
-0.087625518 -0.24297336 0.94745225 3895695
-0.079685241 -0.24278286 0.9481647 3631246
-0.09517654 -0.23603162 0.95671427 3499128
-0.088016726 -0.23638755 0.95538461 4025235
-0.079107851 -0.2376775 0.95629728 3499655
-0.093920857 -0.23022509 0.96426815 3826560
-0.087191969 -0.23070967 0.96387565 4156303
-0.079210378 -0.23322086 0.96377546 3630985
-0.092850462 -0.22888309 0.97409928 3893387
-0.086304814 -0.22735474 0.97316921 4157333
-0.078870304 -0.22901337 0.97388166 3762828
-0.090441391 -0.22708142 0.98244864 3762325
-0.084690899 -0.22268111 0.98272777 4420507
-0.078429855 -0.22487524 0.98304772 3828877
-0.090531051 -0.22118427 0.99500942 4222878
-0.083644152 -0.21860439 0.99116564 4552347
-0.077405922 -0.22144715 0.99151856 3631755
-0.091858923 -0.21274181 0.9999091 3627913
-0.083445095 -0.2116197 0.99676198 4683676
-0.076110452 -0.21374364 0.99857199 3892613
-0.074670546 -0.20742148 1.0042135 3563127
-0.098120332 -0.25661629 0.93296474 3033484
-0.089812919 -0.25922158 0.93239105 2897991
-0.07972993 -0.2584554 0.93206298 3891064
-0.072094329 -0.25965613 0.93281895 2638186
-0.10148694 -0.25144047 0.94088995 666715
-0.090795979 -0.25241911 0.93795252 4813457
-0.077032767 -0.25118852 0.93947256 3499654
-0.069750205 -0.25448543 0.94054246 3561592
-0.10127281 -0.24658093 0.95121765 6722
-0.076433465 -0.24712209 0.94808114 3694979
-0.069800138 -0.24883653 0.9486081 3233144
-0.074065767 -0.24268933 0.9573282 3104639
-0.069290936 -0.24557209 0.95829779 2640231
-0.074013531 -0.23854791 0.96614015 2907007
-0.069525599 -0.24272135 0.96759415 3099492
-0.095426589 -0.23328018 0.97906458 4089741
-0.073664881 -0.23478425 0.97496468 3496061
-0.069124326 -0.23851533 0.97758532 4278874
-0.092502728 -0.22983459 0.98616588 2972810
-0.073497079 -0.2312814 0.98477656 3757171
-0.069659069 -0.2350488 0.98500741 3748927
-0.090908028 -0.22737247 0.99127966 3630740
-0.072385475 -0.22691533 0.99077302 3953004
-0.090751268 -0.26656434 0.92901671 984897
-0.080007993 -0.2649295 0.93163854 4350584
-0.067885146 -0.25531968 0.95269585 4674411
-0.067215599 -0.25379869 0.9613713 6974583
-0.068113141 -0.24906698 0.97151566 3815753
-0.099060178 -0.24171351 0.98258191 5799072
-0.066650599 -0.242273 0.97880161 5064001
-0.067811802 -0.269025 0.95253867 7039097
-0.067608312 -0.26746309 0.95820063 7565430
-0.067646891 -0.26346493 0.9659304 8223350
-0.067453414 -0.25571907 0.97142208 9076613
