# .PCD v0.7 - Point Cloud Data file format
VERSION 0.7
FIELDS x y z rgba
SIZE 4 4 4 4
TYPE F F F U
COUNT 1 1 1 1
WIDTH 174
HEIGHT 1
VIEWPOINT 0 0 0 1 0 0 0
POINTS 174
DATA ascii
-0.035475031 -0.0073511973 1.0719221 5134174
-0.028903807 -0.008658953 1.0701467 5134176
-0.035550576 -0.0050266832 1.0760114 4871515
-0.045441352 -0.021416642 1.0605309 4936281
-0.035272405 -0.023470052 1.0577314 5199967
-0.030415062 -0.023849778 1.0574532 5397348
-0.053019568 -0.017231531 1.0666864 4673880
-0.045292817 -0.016423829 1.0648438 4870232
-0.035799429 -0.017754175 1.0647182 5068382
-0.026021067 -0.018808767 1.0647531 5068384
-0.018126274 -0.019492425 1.0661192 4476504
-0.052531563 -0.011390999 1.074245 4607822
-0.045434594 -0.01077304 1.0732014 4673623
-0.03455897 -0.011994727 1.0719242 5134174
-0.024094349 -0.012369357 1.0721064 4739419
-0.016408378 -0.014210843 1.0720872 4081746
-0.052045487 -0.008731313 1.0823492 4410445
-0.043516994 -0.006249316 1.081326 4213839
-0.033203799 -0.0068016574 1.0811827 4345429
-0.023208618 -0.0077877492 1.0802498 4016211
-0.015177658 -0.0095934644 1.080054 3621193
-0.042426731 -0.0036377609 1.0860149 3884109
-0.032991905 -0.0038887858 1.0863318 3752784
-0.02261813 -0.0047333315 1.0856787 3621192
-0.015454898 -0.0058335885 1.0843167 3686459
-0.055288412 -0.035777882 1.0555795 4673626
-0.047167145 -0.034387819 1.0529234 4870741
-0.038157806 -0.035831429 1.0514791 5265754
-0.028077165 -0.036499359 1.0516554 5397604
-0.019450556 -0.038398601 1.0550048 4608350
-0.055323076 -0.027880929 1.061525 4673629
-0.047039341 -0.027402274 1.058642 4870744
-0.038751796 -0.02853673 1.0566343 5134174
-0.026311444 -0.029088572 1.0579854 5397606
-0.018155701 -0.032970347 1.0602492 4476760
-0.011649976 -0.033377789 1.0644785 4015442
-0.061682049 -0.027209818 1.0713193 3883351
-0.058007501 -0.022955574 1.0685675 4475995
-0.024785122 -0.025406606 1.0632732 5068641
-0.015457256 -0.026346259 1.0665299 4082513
-0.0095976125 -0.030116417 1.069376 3752531
-0.058275074 -0.016935028 1.0767204 4079443
-0.012646172 -0.021570414 1.0740501 3621705
-0.0084776543 -0.025774784 1.0732632 3751503
-0.013507193 -0.016437419 1.0799831 3490378
-0.04591395 -0.055664934 1.0447563 5002588
-0.042730741 -0.055924088 1.0445559 5528419
-0.055618588 -0.050114881 1.0537537 4739163
-0.048557557 -0.049546119 1.0493543 5002333
-0.039135192 -0.05041644 1.0484666 5397092
-0.029833471 -0.051351402 1.0503194 5332066
-0.023786753 -0.052706368 1.0517496 4740695
-0.056453809 -0.043494307 1.0547069 4082256
-0.049576402 -0.043099679 1.0524076 5068120
-0.026812386 -0.046434265 1.0524193 5200736
-0.018408174 -0.047314711 1.0558758 4345175
-0.011257594 -0.048938598 1.0582376 4278096
-0.014711896 -0.040051259 1.062322 4147028
-0.010125732 -0.044219941 1.0636266 3819087
-0.0094568469 -0.037279464 1.0683235 3687502
-0.040325239 -0.071627825 1.0393839 5528423
-0.035988484 -0.07171385 1.0395813 5397348
-0.049632087 -0.062317416 1.0442255 4804702
-0.040193152 -0.062681854 1.0431676 5462626
-0.030877624 -0.065372661 1.0444067 5003105
-0.022530166 -0.065104797 1.0474427 4804440
-0.057852976 -0.057819817 1.0541914 3817824
-0.052110836 -0.056654193 1.0485971 4673622
-0.036152244 -0.05795341 1.0475924 5660265
-0.028654847 -0.057792436 1.0484793 5069150
-0.019479817 -0.058888666 1.0513412 4475986
-0.013659887 -0.05723561 1.0547221 4014924
-0.015992679 -0.054291606 1.0556662 4606547
-0.010077339 -0.054002896 1.0576646 3620428
-0.047761604 -0.080513552 1.0373223 4079956
-0.041194517 -0.07954324 1.0349262 5266270
-0.035414428 -0.081787452 1.0360714 5002845
-0.049962465 -0.075530671 1.0418694 4079963
-0.042554557 -0.07567703 1.0381528 5330781
-0.031938795 -0.076876126 1.0402337 5002331
-0.028028598 -0.072789833 1.0444086 5001816
-0.023653463 -0.072778851 1.047213 4540755
-0.018516727 -0.068744726 1.0523009 4213074
-0.043257941 -0.096630201 1.0336192 5265766
-0.044009872 -0.091856778 1.036176 5068639
-0.035173964 -0.091339462 1.036833 4214103
-0.051348124 -0.083661422 1.0395975 1580089
-0.030123988 -0.085063189 1.0401875 4145996
-0.026827775 -0.081882745 1.0447046 4212054
-0.049867295 -0.09923052 1.0345881 3618132
-0.044509288 -0.1002112 1.0332915 5199718
-0.037851702 -0.10020873 1.0338316 4214875
-0.045682035 -0.14322294 0.989856 528927
-0.040650655 -0.14396377 0.98895562 1517876
-0.042938963 -0.15915328 0.98633951 4419983
-0.057261754 -0.15285882 0.99222183 1651559
-0.051645491 -0.15019375 0.9909972 1782104
-0.03975473 -0.15056968 0.98701966 4154236
-0.034454718 -0.15264533 0.99153697 3028033
-0.0482722 -0.1514691 0.99944878 2369321
-0.040360168 -0.14902353 0.99709529 2040105
-0.046216272 -0.13863274 1.0141201 4146252
-0.057825066 -0.16397749 0.99286151 5077683
-0.051234733 -0.16463095 0.9895373 4617364
-0.041893527 -0.16557859 0.98861939 4549258
-0.036008999 -0.16105866 0.99164993 6582660
-0.057609819 -0.15482345 1.0008972 7695014
-0.049627025 -0.1542009 1.0039881 2040625
-0.041424204 -0.153679 1.0042161 2172202
-0.035156973 -0.15665138 0.99948347 2760198
-0.053753853 -0.17711301 0.98626596 4683677
-0.048083797 -0.17757463 0.98590893 3831442
-0.060646541 -0.17213821 0.99215913 3299734
-0.053786967 -0.17256802 0.98911017 4683420
-0.04534439 -0.17432868 0.98860437 3960460
-0.068003021 -0.2234045 0.92991728 3829135
-0.059870735 -0.2238276 0.9298262 4223637
-0.053719979 -0.22455098 0.92904669 3960467
-0.067929208 -0.2187603 0.93810564 3498881
-0.059488393 -0.21887162 0.93777776 3895695
-0.051567525 -0.21920529 0.93863833 3631246
-0.066642329 -0.21070148 0.9463253 3499128
-0.059509426 -0.21167991 0.94517553 4025235
-0.050735634 -0.21354064 0.94636846 3499655
-0.065073326 -0.20443389 0.95343935 3826560
-0.058393799 -0.20543623 0.9532246 4156303
-0.050619975 -0.20852223 0.95348173 3630985
-0.064054757 -0.20241553 0.96315974 3893387
-0.057400454 -0.20144464 0.96225196 4157333
-0.050121136 -0.20358011 0.96324289 3762828
-0.061644893 -0.20015243 0.97139579 3762325
-0.055588573 -0.19617426 0.9714582 4420507
-0.049513169 -0.19878715 0.97207427 3828877
-0.061486199 -0.19330871 0.98346627 4222878
-0.05436961 -0.19154295 0.97958082 4552347
-0.048365593 -0.19479659 0.98027873 3631755
-0.062257655 -0.18443769 0.9876799 3627913
-0.053737223 -0.18417865 0.98463178 4683676
-0.046608582 -0.18668446 0.98675019 3892613
-0.044788759 -0.1800658 0.99192232 3563127
-0.070746928 -0.23279563 0.92415696 3033484
-0.062648058 -0.23603565 0.92395592 2897991
-0.052532207 -0.23603356 0.92377979 3891064
-0.045019057 -0.23772505 0.92478335 2638186
-0.073839352 -0.22678974 0.93159324 666715
-0.063207388 -0.22876912 0.92896146 4813457
-0.049415313 -0.22843009 0.93066865 3499654
-0.042414483 -0.23215577 0.93213755 3561592
-0.073421039 -0.22117293 0.94152296 6722
-0.048645854 -0.22376321 0.93895298 3694979
-0.042166766 -0.22591019 0.93974662 3233144
-0.046095528 -0.21881136 0.94788265 3104639
-0.041562974 -0.22195038 0.94916797 2640231
-0.045869071 -0.21401429 0.95635271 2907007
-0.041725684 -0.21837825 0.95821321 3099492
-0.067024738 -0.20621523 0.96839106 4089741
-0.045375276 -0.20961344 0.96487021 3496061
-0.041164201 -0.21345097 0.96786112 4278874
-0.063960724 -0.20245177 0.97526836 2972810
-0.045096062 -0.20538226 0.97438806 3757171
-0.041552149 -0.20938993 0.97498488 3748927
-0.062265053 -0.19972342 0.98021173 3630740
-0.043754119 -0.20065716 0.98005629 3953004
-0.064077713 -0.24352992 0.92113203 984897
-0.053283531 -0.24248362 0.92384416 4350584
-0.040800087 -0.23217925 0.94435525 4674411
-0.040150497 -0.23004326 0.95290166 6974583
-0.040847387 -0.22448683 0.96263528 3815753
-0.071326822 -0.2140635 0.97246444 5799072
-0.038994797 -0.21727322 0.96941119 5064001
-0.041741684 -0.24582434 0.94524419 7039097
-0.041508302 -0.24384728 0.95077366 7565430
-0.041366704 -0.23926994 0.95817393 8223350
-0.040681813 -0.23115647 0.96306241 9076613
