# .PCD v0.7 - Point Cloud Data file format
VERSION 0.7
FIELDS x y z rgba
SIZE 4 4 4 4
TYPE F F F U
COUNT 1 1 1 1
WIDTH 174
HEIGHT 1
VIEWPOINT 0 0 0 1 0 0 0
POINTS 174
DATA ascii
0.046707168 -0.012477607 1.0693791 5134174
0.052784696 -0.013712198 1.0662836 5134176
0.047467373 -0.010396942 1.0735294 4871515
0.034484126 -0.025798872 1.0593759 4936281
0.043878403 -0.027735934 1.0545328 5199967
0.048581764 -0.028123349 1.0532902 5397348
0.028319012 -0.021944091 1.0671197 4673880
0.03555147 -0.021068826 1.0638523 4870232
0.044815645 -0.022437714 1.0618002 5068382
0.05439502 -0.023542196 1.0598649 5068384
0.062392384 -0.024345011 1.059622 4476504
0.030365046 -0.016560167 1.0747558 4607822
0.037132308 -0.015918054 1.0723832 4673623
0.047529656 -0.017117843 1.0689394 5134174
0.057821929 -0.017555684 1.0670528 4739419
0.065325789 -0.019431889 1.0654289 4081746
0.032463107 -0.014383599 1.0827464 4410445
0.040668909 -0.011889145 1.0802195 4213839
0.050746426 -0.012484506 1.0780339 4345429
0.060351178 -0.013464853 1.0751126 4016211
0.068159595 -0.015296727 1.0732503 3621193
0.042693883 -0.009563081 1.0847454 3884109
0.052004494 -0.0098802149 1.083199 3752784
0.062037349 -0.010737628 1.0804858 3621192
0.068779327 -0.011792362 1.077691 3686459
0.023626786 -0.039794296 1.0556381 4673626
0.03109738 -0.038291886 1.0515301 4870741
0.039628211 -0.039693929 1.0482746 5265754
0.04953796 -0.040422261 1.0464408 5397604
0.058619127 -0.042558759 1.0479281 4608350
0.024880014 -0.032260105 1.0619131 4673629
0.032450799 -0.031655036 1.0574996 4870744
0.040169183 -0.0327117 1.0538512 5134174
0.052623771 -0.03340514 1.0527134 5397606
0.0609992 -0.037454545 1.0531173 4476760
0.068196177 -0.038142756 1.0559647 4015442
0.020561231 -0.032133147 1.0727828 3883351
0.023699237 -0.027743332 1.0696115 4475995
0.055210557 -0.030047916 1.057801 5068641
0.064977221 -0.031224608 1.0591149 4082513
0.071216002 -0.035185143 1.0605438 3752531
0.025122905 -0.022210777 1.0779872 4079443
0.069276594 -0.026913062 1.0661993 3621705
0.073142484 -0.031085074 1.0643768 3751503
0.069671534 -0.022133112 1.0724672 3490378
0.030386673 -0.059058659 1.0420842 5002588
0.033465274 -0.059321754 1.0412517 5528419
0.022711786 -0.053997435 1.0531032 4739163
0.028789705 -0.053207126 1.0474489 5002333
0.037843388 -0.054071657 1.0446903 5397092
0.047311187 -0.055161074 1.0446349 5332066
0.053497512 -0.056628406 1.0447776 4740695
0.022187078 -0.047440119 1.0545744 4082256
0.02849086 -0.046946064 1.0510023 5068120
0.050763711 -0.050391182 1.0463793 5200736
0.059664361 -0.051515814 1.0480726 4345175
0.067110211 -0.053311922 1.0488966 4278096
0.064663708 -0.044662394 1.0540735 4147028
0.069346927 -0.048923753 1.0542191 3819087
0.071031377 -0.042274639 1.0590802 3687502
0.034559373 -0.074706614 1.0348289 5528423
0.038849588 -0.074826114 1.0341704 5397348
0.026527429 -0.065649495 1.0419139 4804702
0.035572588 -0.065999113 1.0390142 5462626
0.044905577 -0.068805352 1.0382558 5003105
0.05368761 -0.068758681 1.0396134 4804440
0.020478919 -0.061703321 1.0535316 3817824
0.025040597 -0.06024031 1.046999 4673622
0.040474735 -0.061559319 1.0428251 5660265
0.048002973 -0.061488807 1.0422384 5069150
0.057540309 -0.062797844 1.0431867 4475986
0.063933417 -0.061375804 1.0454539 4014924
0.061877787 -0.058480531 1.0470006 4606547
0.068072923 -0.058339756 1.0478184 3620428
0.02671884 -0.083418019 1.0337595 4079956
0.032708909 -0.082342014 1.0301858 5266270
0.038563672 -0.084678963 1.0300514 5002845
0.0255275 -0.078699708 1.0389235 4079963
0.03206677 -0.078665145 1.0338296 5330781
0.042863362 -0.080038309 1.033726 5002331
0.047578108 -0.076224208 1.0372814 5001816
0.052415036 -0.076400191 1.0391734 4540755
0.058509592 -0.072698027 1.0433803 4213074
0.030149834 -0.099312 1.0283418 5265766
0.029988606 -0.094693244 1.0312623 5068639
0.038790666 -0.094260305 1.0302092 4214103
0.02359258 -0.086675838 1.0365094 1580089
0.044499546 -0.088217631 1.0328627 4145996
0.048663877 -0.085324779 1.0368218 4212054
0.023813687 -0.10193113 1.030434 3618132
0.028799918 -0.10286117 1.0280626 5199718
0.035434406 -0.10292425 1.0272913 4214875
0.018487072 -0.14324088 0.98332828 528927
0.023234058 -0.14395311 0.98142225 1517876
0.020230779 -0.15895091 0.97844768 4419983
0.0074325614 -0.15294014 0.9873606 1651559
0.012746045 -0.15023631 0.98521566 1782104
0.02362722 -0.15043837 0.97897774 4154236
0.029670339 -0.15280266 0.98224813 3028033
0.017678585 -0.15202299 0.99275964 2369321
0.025020247 -0.14948365 0.98904866 2040105
0.022761982 -0.14008114 1.0074497 4146252
0.0068217814 -0.16407418 0.98746747 5077683
0.012627278 -0.16456473 0.98288864 4617364
0.02159423 -0.16550426 0.98011202 4549258
0.028029636 -0.16120011 0.9821859 6582660
0.0087476838 -0.15540916 0.99581146 7695014
0.017188594 -0.15500978 0.9973141 2040625
0.025286322 -0.15454385 0.99596488 2172202
0.030462649 -0.15726492 0.98993897 2760198
0.0093146116 -0.17682013 0.97947091 4683677
0.01479833 -0.17728877 0.97798795 3831442
0.0037837382 -0.17216511 0.98686874 3299734
0.0099105481 -0.17244995 0.98251951 4683420
0.018063042 -0.17422071 0.98027587 3960460
-0.016390374 -0.21964899 0.92446131 3829135
-0.0084394645 -0.22010735 0.92276001 4223637
-0.0025708545 -0.22081491 0.92075467 3960467
-0.014647624 -0.2154942 0.9327271 3498881
-0.0064351019 -0.21562895 0.93075138 3895695
0.0014951751 -0.21605282 0.9300282 3631246
-0.011652919 -0.20793873 0.94098008 3499128
-0.0048973765 -0.20888415 0.93840587 4025235
0.0039089881 -0.21085629 0.93775511 3499655
-0.0086262356 -0.20210785 0.94799387 3826560
-0.0021336954 -0.20312977 0.94642246 4156303
0.0054896437 -0.20626502 0.94498128 3630985
-0.005701879 -0.20066912 0.95742661 3893387
0.00066346489 -0.19968042 0.95529324 4157333
0.0079603046 -0.20190737 0.95472091 3762828
-0.0016979594 -0.19890597 0.96514809 3762325
0.0043192301 -0.19496916 0.96425164 4420507
0.010354534 -0.19764456 0.96352041 3828877
0.00091991574 -0.19278395 0.97732282 4222878
0.0071720667 -0.19082919 0.97222877 4552347
0.013142746 -0.19414866 0.97155535 3631755
0.0011294559 -0.18417193 0.98210138 3627913
0.0088966079 -0.1837776 0.9774676 4683676
0.016259067 -0.18643966 0.97800773 3892613
0.019159509 -0.18014556 0.98309118 3563127
-0.020357175 -0.22867152 0.91882551 3033484
-0.01250677 -0.23193523 0.91686362 2897991
-0.0026200842 -0.2319742 0.91471571 3891064
0.0049158446 -0.23375985 0.91413534 2638186
-0.021843662 -0.22309715 0.92705041 666715
-0.011961421 -0.22497249 0.9222852 4813457
0.0019028075 -0.22480442 0.92128247 3499654
0.008993417 -0.22864544 0.92114246 3561592
-0.019408083 -0.21807547 0.93700898 6722
0.0043468568 -0.22063616 0.92950767 3694979
0.01082029 -0.22285892 0.92889786 3233144
0.0086677764 -0.21623036 0.9380331 3104639
0.013311567 -0.21946245 0.93822861 2640231
0.010617573 -0.21194029 0.94655353 2907007
0.014971535 -0.21642697 0.94731891 3099492
-0.0076587629 -0.20475443 0.96291351 4089741
0.012832282 -0.20804989 0.95504582 3496061
0.017481338 -0.21207781 0.95693463 4278874
-0.0032531302 -0.201417 0.96926183 2972810
0.015028491 -0.20438653 0.9645499 3757171
0.018554395 -0.20844029 0.96421522 3748927
-0.00058296137 -0.19899239 0.97392523 3630740
0.017525684 -0.20000941 0.97010511 3953004
-0.014581835 -0.23924334 0.9139536 984897
-0.0034504738 -0.23841299 0.91456026 4350584
0.012954682 -0.2293947 0.93278837 4674411
0.01529057 -0.22776774 0.94115031 6974583
0.016593274 -0.22278914 0.95113122 3815753
-0.011214076 -0.21280642 0.96729761 5799072
0.019847833 -0.21599549 0.95781225 5064001
0.01197988 -0.24306351 0.93307006 7039097
0.01331768 -0.24141586 0.93855041 7565430
0.014972396 -0.23728184 0.94602758 8223350
0.016729131 -0.22947311 0.95113957 9076613
