# .PCD v0.7 - Point Cloud Data file format
VERSION 0.7
FIELDS x y z rgba
SIZE 4 4 4 4
TYPE F F F U
COUNT 1 1 1 1
WIDTH 174
HEIGHT 1
VIEWPOINT 0 0 0 1 0 0 0
POINTS 174
DATA ascii
0.091642886 -0.050280854 1.0861751 5134174
0.097579047 -0.051985249 1.0830287 5134176
0.092592269 -0.048428439 1.090394 4871515
0.078213915 -0.062010184 1.0757344 4936281
0.087387025 -0.064671271 1.0708116 5199967
0.092033558 -0.065465331 1.0695488 5397348
0.072434239 -0.057852536 1.0836176 4673880
0.079722993 -0.057563096 1.0803709 4870232
0.088816345 -0.059743546 1.0782576 5068382
0.098248638 -0.061695293 1.0762695 5068384
0.10613229 -0.063253835 1.0759859 4476504
0.07497482 -0.052958906 1.0914329 4607822
0.081776574 -0.052887827 1.0890732 4673623
0.092016518 -0.054960527 1.0855731 5134174
0.10222237 -0.056319326 1.0836557 4739419
0.10951407 -0.058850184 1.0819553 4081746
0.077258423 -0.051273167 1.099491 4410445
0.085670292 -0.049492285 1.0970392 4213839
0.095647767 -0.050976753 1.0948179 4345429
0.10511896 -0.052773185 1.0918487 4016211
0.11271848 -0.055280924 1.0899113 3621193
0.087901518 -0.047530338 1.10164 3884109
0.097141258 -0.048686579 1.1000684 3752784
0.10705002 -0.050409086 1.0973108 3621192
0.11366431 -0.052008852 1.0944701 3686459
0.066068694 -0.07475923 1.0715296 4673626
0.073656194 -0.07383959 1.0674644 4870741
0.082018495 -0.075940706 1.0641483 5265754
0.091815598 -0.077553555 1.0622743 5397604
0.1006469 -0.080603078 1.0636716 4608350
0.068029083 -0.067603096 1.0780609 4673629
0.07563062 -0.067575097 1.0736589 4870744
0.083218105 -0.069240913 1.0699636 5134174
0.095550418 -0.071087763 1.0687821 5397606
0.10349734 -0.075934716 1.0690315 4476760
0.11058995 -0.077409796 1.0718415 4015442
0.063723624 -0.067439854 1.0889353 3883351
0.067274362 -0.063264221 1.0859137 4475995
0.098438948 -0.068173558 1.0739793 5068641
0.10804509 -0.070328131 1.0752356 4082513
0.11387201 -0.074917033 1.0765158 3752531
0.069208451 -0.058188662 1.0944743 4079443
0.1127265 -0.066698574 1.0824587 3621705
0.11617683 -0.071156807 1.0804861 3751503
0.11356798 -0.062199548 1.0888885 3490378
0.070969999 -0.094100915 1.0573031 5002588
0.074010514 -0.094629467 1.0564568 5528419
0.063797757 -0.088711977 1.0685037 4739163
0.069933295 -0.088313133 1.0628706 5002333
0.07886681 -0.08994706 1.060069 5397092
0.088186227 -0.091938488 1.0599604 5332066
0.094202705 -0.093997464 1.060042 4740695
0.063902922 -0.082189724 1.0702029 4082256
0.070231199 -0.082179688 1.06664 5068120
0.092078015 -0.087585934 1.0618641 5200736
0.1008265 -0.089618705 1.0635028 4345175
0.10806389 -0.092149436 1.0642518 4278096
0.10645074 -0.083490148 1.0697303 4147028
0.11070262 -0.08818423 1.0697201 3819087
0.11300965 -0.08190079 1.0748068 3687502
0.073632598 -0.10981557 1.0495011 5528423
0.077892624 -0.11032374 1.0488319 5397348
0.066495694 -0.10028055 1.0569098 4804702
0.075470433 -0.10139654 1.0539851 5462626
0.084491946 -0.1050584 1.0531145 5003105
0.09323547 -0.10590294 1.0544587 4804440
0.06083414 -0.096177906 1.0686677 3817824
0.065526605 -0.094933659 1.0621824 4673622
0.080769837 -0.097583488 1.0579401 5660265
0.088271037 -0.098216236 1.0573442 5069150
0.097636834 -0.10046771 1.0582309 4475986
0.10413303 -0.09974619 1.0605359 4014924
0.1023624 -0.09672235 1.0621856 4606547
0.10854098 -0.097205967 1.0629979 3620428
0.064993255 -0.11769091 1.0481421 4079956
0.071065187 -0.11707176 1.0445983 5266270
0.076668568 -0.11995432 1.0443732 5002845
0.064251781 -0.1130624 1.0534691 4079963
0.070772946 -0.11347915 1.0483688 5330781
0.081387833 -0.11587884 1.0482001 5002331
0.086441033 -0.11266131 1.0518783 5001816
0.091235384 -0.11336688 1.0537552 4540755
0.097650126 -0.11041594 1.0580785 4213074
0.066890761 -0.13364294 1.0421693 5265766
0.067168958 -0.12913442 1.0452489 5068639
0.075973704 -0.12951282 1.0441973 4214103
0.061563693 -0.12072694 1.0507821 1580089
0.082232118 -0.12414253 1.0470502 4145996
0.086648241 -0.1218026 1.0511007 4212054
0.06032867 -0.13571237 1.0441794 3618132
0.065206587 -0.13703412 1.041769 5199718
0.071805656 -0.13770749 1.0409853 4214875
0.051139604 -0.17465608 0.99567407 528927
0.055799507 -0.17575437 0.99373674 1517876
0.051374372 -0.19028169 0.99024719 4419983
0.039197393 -0.1833827 0.99938446 1651559
0.044749781 -0.18112893 0.99732625 1782104
0.055572018 -0.18215844 0.99106753 4154236
0.06135435 -0.1852047 0.99424392 3028033
0.049474753 -0.18364251 1.0047956 2369321
0.05703285 -0.18169278 1.0011632 2040105
0.055656448 -0.17276239 1.0198839 4146252
0.037519552 -0.1944035 0.99910498 5077683
0.043259002 -0.19529003 0.99450254 4617364
0.052099012 -0.19698961 0.99168044 4549258
0.058914565 -0.19339839 0.99389237 6582660
0.040254556 -0.18625902 1.0077422 7695014
0.048692171 -0.18672496 1.0092442 2040625
0.056799531 -0.18699257 1.0078989 2172202
0.061700933 -0.18998718 1.0017736 2760198
0.038790155 -0.20704418 0.99066597 4683677
0.044206046 -0.20798567 0.98915875 3831442
0.033719271 -0.20213938 0.9982301 3299734
0.03979791 -0.20286012 0.99386376 4683420
0.047746446 -0.20532688 0.99154669 3960460
0.0091847852 -0.24526629 0.93424165 3829135
0.017057825 -0.24642698 0.93251258 4223637
0.022834774 -0.24762495 0.93047434 3960467
0.0113043 -0.24158813 0.94264412 3498881
0.019469306 -0.2424425 0.94065166 3895695
0.027323417 -0.2436009 0.93990129 3631246
0.014996715 -0.23464692 0.95115 3499128
0.021634638 -0.23614693 0.94853359 4025235
0.030211911 -0.23893219 0.9478004 3499655
0.018557429 -0.22938125 0.95835745 3826560
0.024924468 -0.23096697 0.95674098 4156303
0.032213815 -0.23476811 0.95517933 3630985
0.02159011 -0.22855903 0.96782976 3893387
0.028024692 -0.22811288 0.96572179 4157333
0.035074808 -0.23100933 0.96506065 3762828
0.0257315 -0.2274583 0.97560143 3762325
0.032100633 -0.22408903 0.97483277 4420507
0.037852235 -0.22730485 0.9739992 3828877
0.028904308 -0.2220432 0.9879775 4222878
0.035324171 -0.22052222 0.98294443 4552347
0.040949471 -0.22437455 0.98214632 3631755
0.029931989 -0.21366256 0.99305236 3627913
0.037709124 -0.2138554 0.98842257 4683676
0.044780817 -0.21722969 0.98885787 3892613
0.048263725 -0.21142396 0.99415249 3563127
0.0043792836 -0.25366449 0.92830181 3033484
0.011883207 -0.25759715 0.92621493 2897991
0.021724124 -0.2585111 0.92405105 3891064
0.029054638 -0.26099125 0.92339671 2638186
0.0034209639 -0.24826249 0.93671805 666715
0.013085566 -0.25091177 0.93187451 4813457
0.026903532 -0.25204176 0.93085587 3499654
0.033592541 -0.25653905 0.93057096 3561592
0.0063104518 -0.24384741 0.94684124 6722
0.029722463 -0.24841614 0.93921709 3694979
0.035953447 -0.25122803 0.9385199 3233144
0.034431878 -0.24474502 0.94788361 3104639
0.038743321 -0.24841316 0.94795907 2640231
0.036770038 -0.24096102 0.95654494 2907007
0.040671468 -0.24586916 0.95714682 3099492
0.019240268 -0.23262574 0.97317445 4089741
0.03933353 -0.23759909 0.96516383 3496061
0.043570817 -0.24211827 0.96690387 4278874
0.023935143 -0.22994983 0.97962785 2972810
0.041855045 -0.2344964 0.97478598 3757171
0.04497575 -0.23885608 0.97430485 3748927
0.02681781 -0.22795662 0.9843685 3630740
0.044751577 -0.23057529 0.98048604 3953004
0.0091206655 -0.26456645 0.92305589 984897
0.020279232 -0.26483101 0.92367309 4350584
0.037443284 -0.25806996 0.9421773 4674411
0.039910164 -0.25696671 0.95058697 6974583
0.041667838 -0.25248641 0.96073294 3815753
0.014920205 -0.24044646 0.97728157 5799072
0.045548446 -0.24627332 0.96764088 5064001
0.035159275 -0.27158335 0.94198501 7039097
0.036639668 -0.27026343 0.94751716 7565430
0.038670931 -0.26657006 0.95513088 8223350
0.041160889 -0.25914875 0.96050853 9076613
