# .PCD v0.7 - Point Cloud Data file format
VERSION 0.7
FIELDS x y z rgba
SIZE 4 4 4 4
TYPE F F F U
COUNT 1 1 1 1
WIDTH 174
HEIGHT 1
VIEWPOINT 0 0 0 1 0 0 0
POINTS 174
DATA ascii
0.079337999 -0.094785511 1.1017658 5134174
0.08546555 -0.096185923 1.0988443 5134176
0.080032825 -0.092995793 1.1060606 4871515
0.066840842 -0.10678084 1.0905027 4936281
0.076313369 -0.10897075 1.085927 5199967
0.081037246 -0.10955516 1.0848505 5397348
0.060570717 -0.10303311 1.0982147 4673880
0.067973837 -0.1023871 1.0952946 4870232
0.077228136 -0.10416488 1.0935318 5068382
0.086806417 -0.10570399 1.0919139 5068384
0.094750553 -0.10694956 1.0919397 4476504
0.062580489 -0.098226875 1.1062361 4607822
0.069468349 -0.097838312 1.1041759 4673623
0.079922043 -0.099432081 1.1010803 5134174
0.090246066 -0.10035056 1.0995793 4739419
0.097698078 -0.1025576 1.0981433 4081746
0.064450502 -0.09664081 1.1144199 4410445
0.072881915 -0.094479814 1.1123745 4213839
0.082995862 -0.095525645 1.1105574 4345429
0.092648566 -0.096885405 1.1079646 4016211
0.10041705 -0.099051967 1.1063057 3621193
0.074835829 -0.092539936 1.1171089 3884109
0.084172636 -0.093301415 1.1159158 3752784
0.094250239 -0.094575301 1.1135547 3621192
0.10103762 -0.095852032 1.1109704 3686459
0.055400286 -0.11988936 1.0855021 4673626
0.063111514 -0.11858331 1.0817908 4870741
0.071684033 -0.1202823 1.0787969 5265754
0.081608228 -0.12147138 1.077316 5397604
0.090485953 -0.12420864 1.0790298 4608350
0.05679585 -0.11281566 1.0922642 4673629
0.064570747 -0.11239202 1.0881982 4870744
0.072368667 -0.11367735 1.084801 5134174
0.084803566 -0.11501817 1.0841169 5397606
0.092918485 -0.1195587 1.0846072 4476760
0.099937961 -0.120823 1.0876905 4015442
0.052028418 -0.11307041 1.1029425 3883351
0.055536285 -0.10869189 1.100168 4475995
0.087350562 -0.11211537 1.0894959 5068641
0.096972361 -0.11392538 1.0911218 4082513
0.10291676 -0.1183139 1.0925552 3752531
0.056901667 -0.10374458 1.1089114 4079443
0.10119464 -0.11028546 1.0986176 3621705
0.10489973 -0.11456016 1.0967014 3751503
0.10158278 -0.10590709 1.1051728 3490378
0.061665133 -0.13869303 1.0710906 5002588
0.064757466 -0.13908394 1.0703661 5528419
0.053814828 -0.13384581 1.0820822 4739163
0.060163911 -0.13307992 1.0767306 5002333
0.069266282 -0.13430201 1.0742853 5397092
0.078653455 -0.13592857 1.0745389 5332066
0.084737875 -0.13775471 1.0748376 4740695
0.053589065 -0.12736538 1.0839237 4082256
0.06005786 -0.12702832 1.0806401 5068120
0.082285181 -0.13147396 1.0767027 5200736
0.091029666 -0.13320428 1.0786759 4345175
0.098323219 -0.13546991 1.079684 4278096
0.096136525 -0.12700842 1.0852716 4147028
0.10056764 -0.1315331 1.0853456 3819087
0.10240532 -0.1252844 1.0906612 3687502
0.065277942 -0.15410846 1.0630767 5528423
0.06957937 -0.15443593 1.0625825 5397348
0.057459995 -0.14503032 1.0703712 4804702
0.066588238 -0.14573056 1.0678157 5462626
0.075776637 -0.14901975 1.0672594 5003105
0.084481627 -0.14955643 1.0689638 4804440
0.05114508 -0.14142254 1.0819571 3817824
0.056056298 -0.1398482 1.0757099 4673622
0.071559273 -0.14180788 1.072078 5660265
0.079098217 -0.14213619 1.0717949 5069150
0.088499635 -0.14404374 1.0730391 4475986
0.09485817 -0.14312504 1.075639 4014924
0.0929005 -0.14021088 1.0772748 4606547
0.099053219 -0.14047387 1.078344 3620428
0.057023104 -0.16227843 1.0611752 4079956
0.063211039 -0.16134323 1.0579127 5266270
0.068928741 -0.16400099 1.0578694 5002845
0.055872783 -0.15780643 1.066563 4079963
0.062616482 -0.15785271 1.061743 5330781
0.073315673 -0.15983564 1.0619841 5002331
0.078076296 -0.15651101 1.0659465 5001816
0.082810618 -0.15707387 1.0680141 4540755
0.08891359 -0.15397783 1.0726743 4213074
0.059803668 -0.17800285 1.0549501 5265766
0.059771687 -0.17355932 1.0581348 5068639
0.068621285 -0.17357258 1.0574588 4214103
0.053607296 -0.16550501 1.0635982 1580089
0.0745349 -0.16803171 1.0606952 4145996
0.078678451 -0.16561703 1.0649829 4212054
0.053249136 -0.18037036 1.0566285 3618132
0.058273755 -0.18144645 1.0544044 5199718
0.064921685 -0.18184586 1.0538938 4214875
0.047682982 -0.21850863 1.0069464 528927
0.052460961 -0.21938084 1.0051903 1517876
0.048767455 -0.23398386 1.0012013 4419983
0.035948858 -0.22777392 1.0099468 1651559
0.041490141 -0.22526017 1.0081805 1782104
0.052601211 -0.22572553 1.002377 4154236
0.058359284 -0.22861853 1.0057355 3028033
0.045988839 -0.22776115 1.0157924 2369321
0.053611472 -0.22543719 1.0125344 2040105
0.051086847 -0.21700184 1.0313646 4146252
0.03472244 -0.23884195 1.0093585 5077683
0.040683173 -0.23939927 1.0049918 4617364
0.049695671 -0.24069008 1.0025206 4549258
0.056263257 -0.23689011 1.0051028 6582660
0.036762521 -0.23079963 1.018279 7695014
0.045140401 -0.23097357 1.0201356 2040625
0.053301901 -0.23089632 1.0191383 2172202
0.058574341 -0.23355681 1.0131689 2760198
0.036850911 -0.25122559 1.0007137 4683677
0.042359088 -0.25192186 0.99942333 3831442
0.031272352 -0.2466967 1.0081539 3299734
0.037555084 -0.24708074 1.0040412 4683420
0.045686521 -0.2491841 1.0020192 3960460
0.011211418 -0.28924936 0.94225073 3829135
0.019190706 -0.29006451 0.94084078 4223637
0.025092088 -0.29099077 0.93903017 3960467
0.012824014 -0.28568721 0.95081425 3498881
0.021093845 -0.28617895 0.9491604 3895695
0.029012507 -0.28701514 0.94872725 3631246
0.015873156 -0.27880687 0.95961928 3499128
0.022670627 -0.27998823 0.95726204 4025235
0.031374954 -0.2824221 0.9568426 3499655
0.018912464 -0.27357548 0.96708578 3826560
0.025400359 -0.27487606 0.96571368 4156303
0.032894447 -0.27835536 0.96438903 3630985
0.02150432 -0.27285579 0.97669631 3893387
0.028000046 -0.27211258 0.9748798 4157333
0.035181135 -0.2747182 0.97446352 3762828
0.025264345 -0.27177572 0.98466229 3762325
0.031521913 -0.2681458 0.98424333 4420507
0.03742668 -0.2711167 0.98359162 3828877
0.027690526 -0.2665295 0.99727768 4222878
0.034253456 -0.26464549 0.99256188 4552347
0.040055849 -0.26825795 0.99192649 3631755
0.028168423 -0.25823492 1.0025707 3627913
0.036137074 -0.25801986 0.99828005 4683676
0.043311976 -0.26112735 0.99894965 3892613
0.046333618 -0.25531521 1.0045137 3563127
0.006999597 -0.29768753 0.93592924 3033484
0.014735464 -0.30127782 0.93408644 2897991
0.024688032 -0.30176032 0.93233287 3891064
0.032132261 -0.3039394 0.93194449 2638186
0.0054706745 -0.29252264 0.94440973 666715
0.015430029 -0.29468358 0.93993485 4813457
0.029312737 -0.29525456 0.9394933 3499654
0.036180764 -0.29948211 0.93940282 3561592
0.0077495128 -0.28823429 0.95474118 6722
0.031627409 -0.29171693 0.94804484 3694979
0.037988938 -0.29426891 0.94755876 3233144
0.035814568 -0.28806776 0.9569844 3104639
0.040260848 -0.29156721 0.9571684 2640231
0.03763023 -0.28439739 0.96581817 2907007
0.041693926 -0.28916362 0.96648359 3099492
0.019092139 -0.27713278 0.9818455 4089741
0.039689377 -0.28113899 0.97461033 3496061
0.044024508 -0.28552997 0.97643554 4278874
0.023398396 -0.27442724 0.98855257 2972810
0.041674189 -0.27816439 0.98439717 3757171
0.044982839 -0.28238785 0.98395872 3748927
0.025995459 -0.27243415 0.99345553 3630740
0.044167873 -0.27426702 0.99030042 3953004
0.012388188 -0.30827385 0.93066174 984897
0.023512091 -0.30812097 0.93175715 4350584
0.039591715 -0.30113083 0.95112997 4674411
0.04165281 -0.30012771 0.95966059 6974583
0.042798199 -0.29581851 0.96996695 3815753
0.014914483 -0.28520754 0.9855926 5799072
0.046132069 -0.28962138 0.9771685 5064001
0.037855208 -0.31471437 0.95054913 7039097
0.039045367 -0.31346643 0.9561674 7565430
0.040602822 -0.30987427 0.96393955 8223350
0.042565651 -0.30248851 0.96957803 9076613
