# .PCD v0.7 - Point Cloud Data file format
VERSION 0.7
FIELDS x y z rgba
SIZE 4 4 4 4
TYPE F F F U
COUNT 1 1 1 1
WIDTH 174
HEIGHT 1
VIEWPOINT 0 0 0 1 0 0 0
POINTS 174
DATA ascii
0.076390125 -0.1041683 1.1031755 5134174
0.082585528 -0.10592512 1.1006116 5134176
0.076961391 -0.10216291 1.1073925 4871515
0.063982867 -0.11637414 1.0920399 4936281
0.073561974 -0.11911831 1.0880185 5199967
0.078304797 -0.11991241 1.0871876 5397348
0.057520483 -0.11200096 1.0992475 4673880
0.065059595 -0.11175616 1.0966297 4870232
0.074314512 -0.11392394 1.0953819 5068382
0.083894901 -0.11585571 1.09428 5068384
0.091783315 -0.1173501 1.0947285 4476504
0.059348568 -0.10681765 1.1070751 4607822
0.066327557 -0.106765 1.1053064 4673623
0.076843426 -0.10886228 1.1027725 5134174
0.087184697 -0.11019188 1.1017864 4739419
0.094611347 -0.11271228 1.1008077 4081746
0.06091981 -0.10483419 1.1152352 4410445
0.069500133 -0.10306112 1.1134528 4213839
0.079640813 -0.1045289 1.112149 4345429
0.089343399 -0.1063389 1.1100681 4016211
0.097096965 -0.10884151 1.1088789 3621193
0.071314931 -0.10092126 1.1181563 3884109
0.080662668 -0.10204545 1.1174246 3752784
0.090782523 -0.10377023 1.1155891 3621192
0.097626582 -0.10540569 1.1133842 3686459
0.052324429 -0.1293723 1.0872593 4673626
0.060227662 -0.12852314 1.08383 4870741
0.06885723 -0.13065985 1.0813193 5265754
0.078789145 -0.13224563 1.0803503 5397604
0.087486371 -0.13516337 1.0826062 4608350
0.05367082 -0.12197754 1.0936793 4673629
0.061622579 -0.12203092 1.0899473 4870744
0.06951014 -0.12375283 1.0869771 5134174
0.081909671 -0.12552515 1.0869234 5397606
0.089835837 -0.13028693 1.0880234 4476760
0.096669465 -0.13159864 1.0914816 4015442
0.048444767 -0.1214795 1.1041319 3883351
0.052216131 -0.1173778 1.1012812 4475995
0.084322065 -0.122407 1.0922434 5068641
0.093797773 -0.12442806 1.094394 4082513
0.099521533 -0.12891603 1.0963296 3752531
0.053374719 -0.1119926 1.1097926 4079443
0.09781757 -0.12050863 1.1018602 3621705
0.10145265 -0.12500007 1.1003484 3751503
0.09807457 -0.11578313 1.1081764 3490378
0.058552455 -0.14914656 1.0741938 5002588
0.061657749 -0.1496758 1.0736306 5528419
0.050409563 -0.14344144 1.0845418 4739163
0.0570044 -0.14318019 1.0794451 5002333
0.066155881 -0.14482699 1.0774791 5397092
0.075462341 -0.1467347 1.0782404 5332066
0.081462257 -0.14873391 1.07891 4740695
0.050327346 -0.1368638 1.0860137 4082256
0.056938514 -0.13691801 1.0830085 5068120
0.079148613 -0.14228332 1.0803168 5200736
0.087736204 -0.14417741 1.0827701 4345175
0.094898008 -0.14661379 1.0842255 4278096
0.092765346 -0.13778615 1.089238 4147028
0.097031608 -0.14243826 1.0897574 3819087
0.098853096 -0.1359622 1.0947994 3687502
0.061974678 -0.16509542 1.0672058 5528423
0.066279575 -0.16558692 1.0669227 5397348
0.054167308 -0.15537718 1.0736356 4804702
0.06336721 -0.15651023 1.0715324 5462626
0.072452903 -0.16011631 1.0715679 5003105
0.081053458 -0.16083314 1.0736859 4804440
0.047489583 -0.15092437 1.0847131 3817824
0.05271475 -0.14986098 1.0786145 4673622
0.068282731 -0.15251431 1.075791 5660265
0.0758112 -0.15309781 1.0758631 5069150
0.085079864 -0.15523067 1.0776285 4475986
0.091349028 -0.1543701 1.0804553 4014924
0.089424133 -0.15130772 1.08184 4606547
0.095512822 -0.15170589 1.0831956 3620428
0.053533722 -0.17309248 1.0653882 4079956
0.059884042 -0.17253968 1.0623589 5266270
0.065503933 -0.17537633 1.0627165 5002845
0.05230774 -0.16829023 1.0704662 4079963
0.059246019 -0.16882214 1.0659618 5330781
0.069850855 -0.17112793 1.0667886 5002331
0.074548632 -0.16773896 1.0707713 5001816
0.079168037 -0.16833507 1.0730761 4540755
0.085168444 -0.1651777 1.0778273 4213074
0.056037802 -0.18922262 1.0601642 5265766
0.056021802 -0.18460828 1.0630962 5068639
0.06488657 -0.18494122 1.0628176 4214103
0.049908791 -0.17606732 1.0678294 1580089
0.070842609 -0.17941818 1.0660063 4145996
0.074879125 -0.1768993 1.070336 4212054
0.04934017 -0.19128215 1.0616755 3618132
0.054415558 -0.19264102 1.0597403 5199718
0.061061658 -0.19327991 1.0595497 4214875
0.04460223 -0.23195747 1.0139588 528927
0.049418315 -0.23307872 1.0124681 1517876
0.045400769 -0.24775796 1.0091243 4419983
0.03243988 -0.24066114 1.0169356 1651559
0.03813456 -0.23842838 1.0152832 1782104
0.049461383 -0.23957279 1.0100158 4154236
0.054967918 -0.24245417 1.0137814 3028033
0.042214986 -0.24063927 1.023214 2369321
0.050045233 -0.23874602 1.020177 2040105
0.047007427 -0.22918899 1.0383853 4146252
0.030861264 -0.25170007 1.0169004 5077683
0.036980849 -0.25269154 1.0128412 4617364
0.046041347 -0.25440553 1.0108491 4549258
0.05261872 -0.25067735 1.01351 6582660
0.032792006 -0.24323785 1.025449 7695014
0.041071851 -0.2435737 1.0276846 2040625
0.049266405 -0.2438125 1.0270499 2172202
0.054695278 -0.24697095 1.0214765 2760198
0.032932263 -0.26461175 1.0090507 4683677
0.038463537 -0.26555449 1.0080476 3831442
0.027198799 -0.25949633 1.0159751 3299734
0.033634964 -0.26031083 1.0121742 4683420
0.041768655 -0.26278237 1.0106355 3960460
0.0085309595 -0.3050276 0.95167261 3829135
0.016530667 -0.30617434 0.95066708 4223637
0.022468939 -0.30738834 0.94917518 3960467
0.0098966286 -0.30104268 0.96009153 3498881
0.018207971 -0.30188963 0.95883799 3895695
0.026104605 -0.30300051 0.9588052 3631246
0.012800038 -0.29377863 0.96863371 3499128
0.019647706 -0.29530644 0.96665055 4025235
0.028273508 -0.29803586 0.96675402 3499655
0.015694428 -0.28823501 0.97593057 3826560
0.02218673 -0.28981656 0.97492278 4156303
0.029607039 -0.29360163 0.97412664 3630985
0.01789568 -0.28705889 0.98559332 3893387
0.024484849 -0.28662613 0.98403066 4157333
0.031583682 -0.2894783 0.98407876 3762828
0.021346085 -0.28565276 0.99364811 3762325
0.027736541 -0.28225321 0.99331063 4420507
0.033558533 -0.2854425 0.99308693 3828877
0.023408383 -0.27978531 1.0060529 4222878
0.030227842 -0.27837932 1.0015385 4552347
0.035924934 -0.28220469 1.0013617 3631755
0.02394319 -0.27122563 1.0108995 3627913
0.03209088 -0.27150595 1.0069635 4683676
0.039119862 -0.27479768 1.008122 3892613
0.042097937 -0.26878098 1.0134887 3563127
0.0043069385 -0.31366962 0.94564128 3033484
0.011987034 -0.31760228 0.94434506 2897991
0.021983162 -0.31849918 0.9430666 3891064
0.029358156 -0.32093251 0.94313097 2638186
0.0025942884 -0.3079899 0.9537493 666715
0.012656163 -0.31071502 0.94984859 4813457
0.026517328 -0.31175154 0.95005912 3499654
0.033234045 -0.31619394 0.9505071 3561592
0.0045744069 -0.30320209 0.96392167 6722
0.028583691 -0.30781406 0.95849878 3694979
0.034869019 -0.31059057 0.9584378 3233144
0.032506935 -0.30380309 0.96740299 3104639
0.03681875 -0.30742642 0.96797681 2640231
0.034067512 -0.29970142 0.97609466 2907007
0.037933305 -0.3045496 0.97720098 3099492
0.015120182 -0.29096055 0.99085629 4089741
0.035858866 -0.29602093 0.98477823 3496061
0.039958909 -0.30043811 0.98703295 4278874
0.019225579 -0.28802055 0.99759066 2972810
0.037523702 -0.29256535 0.99446625 3757171
0.040701434 -0.29690993 0.99440801 3748927
0.021677155 -0.2858386 1.0024881 3630740
0.039894491 -0.28842351 1.0002525 3953004
0.009550184 -0.32470155 0.94120747 984897
0.020615708 -0.32484144 0.94278836 4350584
0.036081415 -0.31728834 0.96244752 4674411
0.037808642 -0.31587318 0.97099388 6974583
0.038658805 -0.31102985 0.98108953 3815753
0.010511763 -0.29867476 0.99484998 5799072
0.041891742 -0.3045468 0.98808235 5064001
0.033906981 -0.33082086 0.96253484 7039097
0.034897625 -0.32929748 0.96812385 7565430
0.036243141 -0.32532531 0.97574925 8223350
0.038214721 -0.31770039 0.98105663 9076613
