# .PCD v0.7 - Point Cloud Data file format
VERSION 0.7
FIELDS x y z rgba
SIZE 4 4 4 4
TYPE F F F U
COUNT 1 1 1 1
WIDTH 174
HEIGHT 1
VIEWPOINT 0 0 0 1 0 0 0
POINTS 174
DATA ascii
0.049803734 -0.12869391 1.1075468 5134174
0.056122698 -0.13013886 1.105092 5134176
0.050197303 -0.12674263 1.1118095 4871515
0.038175035 -0.1412133 1.0959296 4936281
0.047947619 -0.14347419 1.0920765 5199967
0.052736975 -0.14405058 1.0913382 5397348
0.031376928 -0.13725016 1.103065 4673880
0.038953256 -0.13663745 1.1006207 4870232
0.048317477 -0.13838652 1.0995427 5068382
0.057993509 -0.13988861 1.098622 5068384
0.065927312 -0.14105383 1.0992208 4476504
0.032811545 -0.13213614 1.1110193 4607822
0.03981835 -0.13175459 1.1094078 4673623
0.050466768 -0.13335632 1.1070735 5134174
0.060874447 -0.13422659 1.1062959 4739419
0.068421848 -0.13641056 1.10544 4081746
0.034119863 -0.13023552 1.1192451 4410445
0.04265257 -0.12806699 1.1176853 4213839
0.052872673 -0.12907809 1.1165832 4345429
0.062686637 -0.13043565 1.1146885 4016211
0.070564359 -0.13258412 1.1136299 3621193
0.044271965 -0.12593725 1.1224642 3884109
0.053672958 -0.12664923 1.121922 3752784
0.063894764 -0.12790832 1.1202836 3621192
0.070848674 -0.12921092 1.1182042 3686459
0.027191289 -0.15460721 1.0906678 4673626
0.035122871 -0.15336064 1.0874308 4870741
0.043888357 -0.15508243 1.085077 5265754
0.053897783 -0.15622634 1.0843028 5397604
0.062661618 -0.15881167 1.0867019 4608350
0.028080165 -0.14727917 1.0972421 4673629
0.036105499 -0.14692663 1.0936881 4870744
0.044121932 -0.14825734 1.0908655 5134174
0.056584407 -0.14949915 1.0910581 5397606
0.064682171 -0.15393843 1.092253 4476760
0.071489662 -0.15502048 1.0958397 4015442
0.022613389 -0.14719309 1.1075824 3883351
0.026265733 -0.14288375 1.1048874 4475995
0.058745407 -0.14637789 1.0964835 5068641
0.068250582 -0.14803246 1.09881 4082513
0.074118704 -0.15230705 1.1007955 3752531
0.027008221 -0.13760892 1.1135136 4079443
0.071936458 -0.14408116 1.1064299 3621705
0.075792804 -0.14838579 1.1049229 3751503
0.071854055 -0.13946401 1.1128304 3490378
0.034542948 -0.17385902 1.0774074 5002588
0.037679527 -0.17424537 1.0769047 5528419
0.025941363 -0.16869365 1.0876675 4739163
0.032627255 -0.16805989 1.0827245 5002333
0.041881271 -0.16927993 1.0809352 5397092
0.051242493 -0.17080334 1.081871 5332066
0.057306882 -0.17255719 1.0826399 4740695
0.025545061 -0.16215317 1.0892496 4082256
0.032215714 -0.16187164 1.0863923 5068120
0.05468858 -0.1662374 1.0841053 5200736
0.063294694 -0.16780841 1.0867168 4345175
0.070521459 -0.16996373 1.0882896 4278096
0.06790413 -0.16132694 1.0934038 4147028
0.072354019 -0.16580193 1.0939386 3819087
0.073786616 -0.15934646 1.0991302 3687502
0.038796745 -0.18951881 1.070225 5528423
0.043123879 -0.18982148 1.0700297 5397348
0.030442452 -0.1802595 1.0766447 4804702
0.039725728 -0.1809618 1.0747283 5462626
0.048955001 -0.18417805 1.0749047 5003105
0.057530738 -0.18456641 1.0772015 4804440
0.023342386 -0.17629594 1.0876452 3817824
0.028647348 -0.17490104 1.0816839 4673622
0.04437216 -0.176838 1.0791633 5660265
0.051915437 -0.17710182 1.0793935 5069150
0.061226912 -0.1788699 1.0813284 4475986
0.067390934 -0.17779459 1.0843087 4014924
0.065306909 -0.17484243 1.0857024 4606547
0.071376428 -0.1750056 1.0871866 3620428
0.030748127 -0.19783364 1.0680827 4079956
0.037132692 -0.19695643 1.0652057 5266270
0.042860188 -0.19955736 1.06564 5002845
0.029207863 -0.19318053 1.0732136 4079963
0.03625809 -0.19333516 1.0688567 5330781
0.046931863 -0.19520217 1.0698802 5002331
0.051392809 -0.19168894 1.0740244 5001816
0.055982787 -0.19212952 1.0764211 4540755
0.061738238 -0.18880612 1.0813586 4213074
0.034054589 -0.2137455 1.0626402 5265766
0.033777248 -0.2091898 1.0656496 5068639
0.042652078 -0.20914012 1.0655632 4214103
0.027202489 -0.20100372 1.0703911 1580089
0.048295327 -0.2034272 1.0689783 4145996
0.052125663 -0.20081756 1.0734396 4212054
0.027420545 -0.21611518 1.0639662 3618132
0.032590147 -0.21722162 1.0621216 5199718
0.039260115 -0.21757355 1.0620683 4214875
0.02546354 -0.25608566 1.0154651 528927
0.030354351 -0.2569738 1.0140632 1517876
0.027043875 -0.27174786 1.0103794 4419983
0.013624797 -0.26535141 1.01802 1651559
0.019252649 -0.26284885 1.0165337 1782104
0.030729104 -0.26341477 1.0115016 4154236
0.036271811 -0.26612684 1.0153391 3028033
0.023252303 -0.26502714 1.0245144 2369321
0.031057686 -0.26274779 1.021686 2040105
0.027220409 -0.25365955 1.039983 4146252
0.012522781 -0.27644509 1.0177604 5077683
0.018765394 -0.2771017 1.0138223 4617364
0.027931977 -0.27839226 1.0120039 4549258
0.03428429 -0.27443627 1.0148743 6582660
0.013903597 -0.26806438 1.0264938 7695014
0.022140102 -0.26808792 1.0289074 2040625
0.030349132 -0.2679663 1.0284517 2172202
0.036027525 -0.27078956 1.0229475 2760198
0.015315073 -0.28911287 1.0097387 4683677
0.020902067 -0.28980106 1.0088432 3831442
0.0092192739 -0.28437212 1.01662 3299734
0.015764933 -0.28484315 1.0129503 4683420
0.02402853 -0.28693807 1.0115514 3960460
-0.0060854107 -0.32948622 0.95114577 3829135
0.0019759759 -0.33027312 0.95029944 4223637
0.0079916883 -0.33120614 0.94891983 3960467
-0.0050739571 -0.32559967 0.95966017 3498881
0.0032911804 -0.32606938 0.95857799 3895695
0.011227103 -0.32684246 0.95870239 3631246
-0.0026700012 -0.31837434 0.96838826 3499128
0.0042781178 -0.31957325 0.96653253 4025235
0.013008926 -0.32193458 0.96678162 3499655
-0.00017433986 -0.31284547 0.97584188 3826560
0.0064001102 -0.31413078 0.97495228 4156303
0.013991548 -0.31758168 0.97425711 3630985
0.0017655268 -0.31175166 0.98557013 3893387
0.0083621964 -0.31101072 0.98416251 4157333
0.015574269 -0.31355864 0.98432004 3762828
0.0049778931 -0.31034586 0.9937228 3762325
0.011222266 -0.30667192 0.99358636 4420507
0.017179308 -0.30960602 0.99343795 3828877
0.0065183938 -0.30462125 1.0062692 4222878
0.013366936 -0.30284497 1.0019331 4552347
0.019225527 -0.30642056 1.0018178 3631755
0.0065805241 -0.2961356 1.0112728 3627913
0.014815707 -0.29599774 1.0075153 4683676
0.021952938 -0.29900777 1.0087737 3892613
0.024553504 -0.29296786 1.0143077 3563127
-0.0098034143 -0.33818966 0.94487435 3033484
-0.0019353703 -0.34176785 0.94368261 2897991
0.0081152879 -0.3422153 0.94261241 3891064
0.015584866 -0.34433335 0.94279951 2638186
-0.011932798 -0.33273554 0.95303833 666715
-0.0016814247 -0.33495903 0.94931698 4813457
0.012203703 -0.33540839 0.94981897 3499654
0.019093761 -0.33956832 0.95034051 3561592
-0.010379892 -0.32805252 0.96333301 6722
0.013916628 -0.33153981 0.9583689 3694979
0.020315235 -0.33404478 0.95840061 3233144
0.017471123 -0.32752723 0.96742594 3104639
0.021921173 -0.33097357 0.96803355 2640231
0.018666359 -0.32352072 0.9762193 2907007
0.02271202 -0.32821923 0.9773283 3099492
-0.00095269829 -0.31586245 0.99070215 4089741
0.020110378 -0.31992495 0.98500252 3496061
0.024346743 -0.32420373 0.98727208 4278874
0.0028765053 -0.31287265 0.99757582 2972810
0.021416014 -0.31657743 0.9947831 3757171
0.024777893 -0.32078111 0.99472129 3748927
0.0051259622 -0.31067729 1.0025635 3630740
0.023481451 -0.31244379 1.0006909 3953004
-0.0039969087 -0.34890646 0.9403702 984897
0.0070277546 -0.34860396 0.94219494 4350584
0.021727381 -0.3407563 0.96232098 4674411
0.023207579 -0.33942372 0.9709267 6974583
0.023631107 -0.334732 0.98112041 3815753
-0.0053106546 -0.32383668 0.99445915 5799072
0.026431145 -0.32824475 0.98829377 5064001
0.020134669 -0.35436848 0.96212769 7039097
0.020938247 -0.35290563 0.96776271 7565430
0.021947226 -0.34901837 0.97548324 8223350
0.023474678 -0.34141368 0.98096323 9076613
