# .PCD v0.7 - Point Cloud Data file format
VERSION 0.7
FIELDS x y z rgba
SIZE 4 4 4 4
TYPE F F F U
COUNT 1 1 1 1
WIDTH 174
HEIGHT 1
VIEWPOINT 0 0 0 1 0 0 0
POINTS 174
DATA ascii
-0.037348323 -0.11327793 1.1271739 5134174
-0.031053066 -0.11394401 1.124351 5134176
-0.036942217 -0.1113646 1.1314526 4871515
-0.048102789 -0.12686206 1.1159163 4936281
-0.038367052 -0.1279173 1.1114932 5199967
-0.033592101 -0.12792537 1.1104857 5397348
-0.054898921 -0.1238271 1.1234949 4673880
-0.047590978 -0.12230474 1.1206617 4870232
-0.038163386 -0.12294434 1.1190428 5068382
-0.028445935 -0.12330531 1.1175694 5068384
-0.020409968 -0.12355757 1.1177144 4476504
-0.053614832 -0.11871323 1.131475 4607822
-0.046798758 -0.11749981 1.1294986 4673623
-0.036184564 -0.11782435 1.1265597 5134174
-0.025805568 -0.11747578 1.1252044 4739419
-0.018117923 -0.11876048 1.1238948 4081746
-0.052073736 -0.1168099 1.1396598 4410445
-0.043945402 -0.11364656 1.1376936 4213839
-0.033754535 -0.11345415 1.1360213 4345429
-0.023971306 -0.11363962 1.1335716 4016211
-0.015971426 -0.11484766 1.1320426 3621193
-0.042314913 -0.11142313 1.1424258 3884109
-0.032939322 -0.11103728 1.1413634 3752784
-0.022748457 -0.11108217 1.1391499 3621192
-0.015818657 -0.11153983 1.1366707 3686459
-0.057761829 -0.14134488 1.1109488 4673626
-0.050218318 -0.13913897 1.1073195 4870741
-0.041459136 -0.13979955 1.1044596 5265754
-0.031443708 -0.13976872 1.1031229 5397604
-0.02232144 -0.14136532 1.1049881 4608350
-0.057349235 -0.13407229 1.1176308 4673629
-0.049628343 -0.13273829 1.1136597 4870744
-0.041683048 -0.13308915 1.110381 5134174
-0.029169194 -0.13288857 1.1098754 5397606
-0.020563215 -0.1363835 1.1105322 4476760
-0.013486624 -0.13673215 1.1137224 4015442
-0.062202521 -0.13478717 1.1282493 3883351
-0.059223011 -0.13004169 1.1254606 4475995
-0.027078573 -0.12962854 1.1152464 5068641
-0.017331364 -0.13021402 1.1170206 4082513
-0.010911454 -0.1338155 1.1185904 3752531
-0.058606185 -0.12485896 1.1341523 4079443
-0.01370021 -0.12598985 1.1245196 3621705
-0.0094678327 -0.12979573 1.12271 3751503
-0.013951048 -0.12151886 1.1310188 3490378
-0.049013071 -0.1593999 1.0968777 5002588
-0.045885991 -0.15941367 1.0961986 5528419
-0.057560425 -0.15543023 1.1077 4739163
-0.051277988 -0.15394855 1.1024206 5002333
-0.042059958 -0.15406378 1.1001095 5397092
-0.032548375 -0.1545127 1.1005062 5332066
-0.02628986 -0.15556796 1.100908 4740695
-0.058612075 -0.14900599 1.1094496 4082256
-0.052187748 -0.14791019 1.1062452 5068120
-0.029526789 -0.1496172 1.1026553 5200736
-0.020664932 -0.15022804 1.1047642 4345175
-0.013162609 -0.1515612 1.1058972 4278096
-0.016458979 -0.14336909 1.1113398 4147028
-0.01150411 -0.14730927 1.1115327 3819087
-0.010529943 -0.1408179 1.1167854 3687502
-0.043407053 -0.17434451 1.0891227 5528423
-0.039091438 -0.17414293 1.0886883 5397348
-0.052391797 -0.16621712 1.0961909 4804702
-0.043211013 -0.16581264 1.093763 5462626
-0.033679444 -0.16794564 1.0933701 5003105
-0.025000433 -0.16738021 1.0951934 4804440
-0.059271097 -0.1632801 1.1076443 3817824
-0.05450232 -0.16118497 1.10144 4673622
-0.038825113 -0.16125402 1.0980349 5660265
-0.031300109 -0.16064999 1.0978533 5069150
-0.021753984 -0.16136411 1.0992444 4475986
-0.015596025 -0.15963432 1.101913 4014924
-0.017922334 -0.15696548 1.1034834 4606547
-0.011800393 -0.15645203 1.1046352 3620428
-0.050560378 -0.18349564 1.0872271 4079956
-0.044488966 -0.18184087 1.0840319 5266270
-0.038486578 -0.18377078 1.0840986 5002845
-0.052332424 -0.17913616 1.0925379 4079963
-0.045565732 -0.17840514 1.0878062 5330781
-0.034708105 -0.17904542 1.088212 5002331
-0.030452723 -0.17510983 1.0921894 5001816
-0.02571553 -0.17505752 1.0943254 4540755
-0.020110073 -0.17117421 1.0990208 4213074
-0.045767806 -0.19882844 1.081254 5265766
-0.046394829 -0.1943852 1.0843769 5068639
-0.037602611 -0.19331105 1.0838151 4214103
-0.05358585 -0.18709095 1.0896498 1580089
-0.032466639 -0.1870424 1.0870512 4145996
-0.028715769 -0.18408218 1.0913584 4212054
-0.052003019 -0.20196877 1.0828801 3618132
-0.046852291 -0.20244123 1.0807359 5199718
-0.040199291 -0.20202076 1.0803164 4214875
-0.052093443 -0.24109556 1.0336572 528927
-0.047219403 -0.24139063 1.0319747 1517876
-0.049021516 -0.25638527 1.0281388 4419983
-0.062634498 -0.25170541 1.0366329 1651559
-0.057421464 -0.24854645 1.0349038 1782104
-0.046255331 -0.24770242 1.0292506 4154236
-0.040232997 -0.24981996 1.0327222 3028033
-0.052758671 -0.25037992 1.0426064 2369321
-0.04543544 -0.24716952 1.0394152 2040105
-0.049255367 -0.23888642 1.0580941 4146252
-0.062474821 -0.26284638 1.0361804 5077683
-0.056428395 -0.26271391 1.0318987 4617364
-0.047290672 -0.26290876 1.0295615 4549258
-0.041281175 -0.25829437 1.0321758 6582660
-0.061573654 -0.25450704 1.0450155 7695014
-0.05326625 -0.25362033 1.0469819 2040625
-0.045163322 -0.25254542 1.0460888 2172202
-0.039516702 -0.25460416 1.0402247 2760198
-0.058707222 -0.27497405 1.0277339 4683677
-0.053137138 -0.27499861 1.0265242 3831442
-0.064909793 -0.27108163 1.0350391 3299734
-0.058568958 -0.27073431 1.0310131 4683420
-0.050211512 -0.27183908 1.029125 3960460
-0.07860212 -0.31657717 0.96947175 3829135
-0.070563719 -0.31641519 0.96817583 4223637
-0.064567536 -0.31662548 0.96645415 3960467
-0.077566184 -0.31274039 0.97800577 3498881
-0.069275938 -0.31222451 0.97646534 3895695
-0.061309218 -0.31207925 0.97614551 3631246
-0.075518504 -0.3054305 0.9867543 3499128
-0.06859377 -0.30578953 0.98450112 4025235
-0.059650205 -0.30713212 0.984227 3499655
-0.073257416 -0.29977399 0.99418694 3826560
-0.066639356 -0.30027783 0.99291641 4156303
-0.05875431 -0.30281842 0.99173599 3630985
-0.070913628 -0.29862386 1.0038192 3893387
-0.064533994 -0.29710415 1.0020765 4157333
-0.057080641 -0.29880565 1.0017884 3762828
-0.067431524 -0.29699126 1.0118175 3762325
-0.061665215 -0.29262 1.0114294 4420507
-0.055429704 -0.29484475 1.0108944 3828877
-0.065855071 -0.29133421 1.0243901 4222878
-0.059507851 -0.28870901 1.0197338 4552347
-0.05329486 -0.29158282 1.0192225 3631755
-0.066482678 -0.28298146 1.0295749 3627913
-0.058540519 -0.28183311 1.0253845 4683676
-0.051046971 -0.28402033 1.0261889 3892613
-0.048847679 -0.2778126 1.0317112 3563127
-0.081646793 -0.32554698 0.96321267 3033484
-0.073500641 -0.32817394 0.96151876 2897991
-0.063540444 -0.32744175 0.9599002 3891064
-0.055879127 -0.32868713 0.95963752 2638186
-0.08392486 -0.32050973 0.97160125 666715
-0.07371112 -0.32147479 0.96728492 4813457
-0.059859369 -0.32032824 0.96702981 3499654
-0.052520886 -0.3236739 0.9670856 3561592
-0.082343191 -0.31584877 0.98190153 6722
-0.058123618 -0.31642902 0.9755612 3694979
-0.051489074 -0.31817958 0.97519207 3233144
-0.054549322 -0.31218272 0.98450315 3104639
-0.049707722 -0.31510246 0.98479223 2640231
-0.053329185 -0.30821019 0.99330854 2907007
-0.048717577 -0.31242844 0.99409133 3099492
-0.072852865 -0.30310452 1.0089951 4089741
-0.051815934 -0.30461681 1.002081 3496061
-0.046998147 -0.30841523 1.0040218 4278874
-0.06901148 -0.29980651 1.0157194 2972810
-0.050355744 -0.30130228 1.011851 3757171
-0.046544436 -0.30508867 1.011513 3748927
-0.066751853 -0.29744869 1.0206276 3630740
-0.04844854 -0.29705572 1.0177319 3953004
-0.074915409 -0.33544725 0.95816028 984897
-0.063912712 -0.33390546 0.95939648 4350584
-0.049102232 -0.32474703 0.97887713 4674411
-0.0473045 -0.3233943 0.98741901 6974583
-0.046849679 -0.31885326 0.99767935 3815753
-0.076054141 -0.31158876 1.0127983 5799072
-0.044411857 -0.3122052 1.0048378 5064001
-0.049137853 -0.33844703 0.97845989 7039097
-0.048192438 -0.33699411 0.98407543 7565430
-0.047203481 -0.33314389 0.99181712 8223350
-0.046250358 -0.3255049 0.99737877 9076613
