# .PCD v0.7 - Point Cloud Data file format
VERSION 0.7
FIELDS x y z rgba
SIZE 4 4 4 4
TYPE F F F U
COUNT 1 1 1 1
WIDTH 174
HEIGHT 1
VIEWPOINT 0 0 0 1 0 0 0
POINTS 174
DATA ascii
-0.074411012 -0.07332398 1.1029581 5134174
-0.067983888 -0.073712267 1.1003922 5134176
-0.074273005 -0.071306884 1.107206 4871515
-0.083994076 -0.087679952 1.0916007 4936281
-0.074050851 -0.088306665 1.0875756 5199967
-0.069246173 -0.088082187 1.086751 5397348
-0.091230661 -0.084858209 1.0988466 4673880
-0.083906613 -0.08300817 1.0962609 4870232
-0.07440234 -0.083180279 1.0950162 5068382
-0.064629048 -0.083055943 1.0939221 5068384
-0.056602698 -0.082879752 1.0943784 4476504
-0.09052822 -0.079525381 1.1067554 4607822
-0.083712451 -0.077992722 1.1050136 4673623
-0.072988831 -0.077813812 1.1024888 5134174
-0.062596984 -0.076943725 1.1015222 4739419
-0.054807466 -0.077845789 1.1005346 4081746
-0.089410096 -0.077380285 1.1149491 4410445
-0.081386834 -0.073831186 1.1132247 4213839
-0.071162164 -0.07313329 1.1119376 4345429
-0.061294142 -0.072849736 1.1098669 4016211
-0.053188458 -0.073663116 1.1086704 3621193
-0.080060959 -0.071430653 1.1179655 3884109
-0.070683792 -0.070570596 1.1172523 3752784
-0.06042558 -0.070120409 1.1154299 3621192
-0.053389583 -0.070260167 1.113227 3686459
-0.092683554 -0.10274972 1.0865886 4673626
-0.085128874 -0.10022064 1.0832014 4870741
-0.076241903 -0.10047381 1.0806923 5265754
-0.066197023 -0.099939823 1.0797373 5397604
-0.057084024 -0.10101402 1.0819831 4608350
-0.092912383 -0.095333628 1.0931201 4673629
-0.085121892 -0.093672514 1.0894173 4870744
-0.077046812 -0.09366785 1.0864519 5134174
-0.064550214 -0.092815623 1.0864187 5397606
-0.055806179 -0.09583655 1.0874791 4476760
-0.048851408 -0.095746607 1.0909433 4015442
-0.098133951 -0.096092299 1.1035593 3883351
-0.095298782 -0.091252416 1.1007824 4475995
-0.062844202 -0.089343064 1.0917925 5068641
-0.053156704 -0.089376524 1.0939487 4082513
-0.046624288 -0.092601269 1.0958405 3752531
-0.095293641 -0.08587195 1.1093752 4079443
-0.050047003 -0.08481741 1.1014858 3621705
-0.045554485 -0.088429369 1.0999228 3751503
-0.050784741 -0.08023718 1.1078708 3490378
-0.082461767 -0.1205937 1.073261 5002588
-0.079314016 -0.12045556 1.0727017 5528419
-0.09162157 -0.11686669 1.0836602 4739163
-0.085222922 -0.11516032 1.0785925 5002333
-0.075927988 -0.11483378 1.0766369 5397092
-0.066428773 -0.11477087 1.0774051 5332066
-0.060144328 -0.1154853 1.078068 4740695
-0.093074173 -0.11047346 1.085227 4082256
-0.086595103 -0.10910346 1.0822461 5068120
-0.063752808 -0.10968046 1.0795597 5200736
-0.054960556 -0.1097794 1.0820172 4345175
-0.047449104 -0.11069092 1.0834639 4278096
-0.051378381 -0.10257773 1.0885957 4147028
-0.046236329 -0.10624561 1.0890636 3819087
-0.045808114 -0.099608302 1.0942057 3687502
-0.075785421 -0.13537252 1.0660552 5528423
-0.071472473 -0.13495162 1.0657811 5397348
-0.085451268 -0.12759247 1.0725961 4804702
-0.07621599 -0.12675136 1.0705111 5462626
-0.06657818 -0.1283845 1.0705281 5003105
-0.058018479 -0.12732443 1.0726676 4804440
-0.09291748 -0.12479562 1.0837121 3817824
-0.088025011 -0.12257532 1.0776491 4673622
-0.07224419 -0.12188277 1.0748454 5660265
-0.064759545 -0.12088521 1.0749372 5069150
-0.055250987 -0.12106539 1.0767059 4475986
-0.049300745 -0.11895934 1.0795684 4014924
-0.05182264 -0.11638652 1.0809901 4606547
-0.045785572 -0.11552703 1.0823624 3620428
-0.082372576 -0.14492528 1.0640904 4079956
-0.076275147 -0.14301568 1.0610931 5266270
-0.070187591 -0.14462362 1.0614305 5002845
-0.084575936 -0.14056058 1.0692328 4079963
-0.077676415 -0.13956712 1.0647471 5330781
-0.066824406 -0.13962385 1.0655799 5002331
-0.062938862 -0.13539007 1.0696288 5001816
-0.058298115 -0.1350446 1.071942 4540755
-0.053090755 -0.13077728 1.0767608 4213074
-0.076557502 -0.16009916 1.0586425 5265766
-0.077536963 -0.1556339 1.0616409 5068639
-0.068797395 -0.15410751 1.0613905 4214103
-0.085299186 -0.14862657 1.0664747 1580089
-0.064125635 -0.14751261 1.0646812 4145996
-0.060705636 -0.14427274 1.069062 4212054
-0.082679547 -0.16353191 1.0600988 3618132
-0.07743118 -0.16377388 1.0581629 5199718
-0.070797801 -0.16301048 1.0579878 4214875
-0.078803793 -0.20358285 1.0117799 528927
-0.07385885 -0.20365316 1.010291 1517876
-0.074725755 -0.21879569 1.0067197 4419983
-0.088886246 -0.21467406 1.0145847 1651559
-0.083781146 -0.21127884 1.0129862 1782104
-0.072461337 -0.20995818 1.0077449 4154236
-0.06647744 -0.21168447 1.0114889 3028033
-0.079334401 -0.21270901 1.0208992 2369321
-0.072069012 -0.20917998 1.0179192 2040105
-0.077043831 -0.20073959 1.0362527 4146252
-0.08812879 -0.22579777 1.0143836 5077683
-0.081934445 -0.22543103 1.0103333 4617364
-0.07271447 -0.22518876 1.0083504 4549258
-0.067060515 -0.22021167 1.0110894 6582660
-0.088009983 -0.21724784 1.0230612 7695014
-0.079843439 -0.21588382 1.0253224 2040625
-0.071778759 -0.21439976 1.0247148 2172202
-0.065807246 -0.21627346 1.0191166 2760198
-0.083406627 -0.23787522 1.0063553 4683677
-0.07779973 -0.23762918 1.0053592 3831442
-0.090084866 -0.23417145 1.0133317 3299734
-0.083617948 -0.23356955 1.0095434 4683420
-0.075146772 -0.23426804 1.0079993 3960460
-0.098810248 -0.28162664 0.94830656 3829135
-0.090746619 -0.28106549 0.94731426 4223637
-0.084684812 -0.28099257 0.94582707 3960467
-0.098310597 -0.27757096 0.95678741 3498881
-0.090004526 -0.27664801 0.95555264 3895695
-0.082049787 -0.27608788 0.95553321 3631246
-0.09699069 -0.26998991 0.96544474 3499128
-0.089973733 -0.27002695 0.96346521 4025235
-0.080968514 -0.27089965 0.96356124 3499655
-0.095320165 -0.26407453 0.97283196 3826560
-0.088640168 -0.26425278 0.9718256 4156303
-0.08059331 -0.26639569 0.97100228 3630985
-0.093418494 -0.26261008 0.98251891 3893387
-0.08706335 -0.26079005 0.98098725 4157333
-0.079525918 -0.26210025 0.98102045 3762828
-0.090342067 -0.2606363 0.99060601 3762325
-0.084800549 -0.25597471 0.99034172 4420507
-0.078441449 -0.25787666 0.99009347 3828877
-0.089556046 -0.25465411 1.0031022 4222878
-0.083176725 -0.25179017 0.99863422 4552347
-0.076807208 -0.25434086 0.9984231 3631755
-0.090820499 -0.24624443 1.0080744 3627913
-0.082790941 -0.24476135 1.0041652 4683676
-0.075230882 -0.24653259 1.005302 3892613
-0.073575929 -0.24010827 1.0107664 3563127
-0.10113604 -0.29086804 0.94213474 3033484
-0.092804022 -0.29309362 0.94081032 2897991
-0.082839757 -0.29186797 0.93955624 3891064
-0.075119562 -0.29271123 0.93961281 2638186
-0.1040002 -0.28579205 0.95031786 666715
-0.093588859 -0.28630129 0.9464156 4813457
-0.079816297 -0.28442881 0.94666272 3499654
-0.072321311 -0.28737977 0.94707131 3561592
-0.10306808 -0.28084937 0.96056592 6722
-0.078621469 -0.2802738 0.95516628 3694979
-0.071895383 -0.28167793 0.95508844 3233144
-0.075626172 -0.27566683 0.96414226 3104639
-0.070654079 -0.27831995 0.96467954 2640231
-0.074960411 -0.27146047 0.97289824 2907007
-0.070169516 -0.27541235 0.97394854 3099492
-0.095322877 -0.2670829 0.98771435 4089741
-0.073981121 -0.26761773 0.98164088 3496061
-0.069051705 -0.27111647 0.9838466 4278874
-0.091924809 -0.2634528 0.99450588 2972810
-0.073079318 -0.26403636 0.99138415 3757171
-0.06906563 -0.26762179 0.99127477 3748927
-0.089985035 -0.26088127 0.99944353 3630740
-0.071627706 -0.25957838 0.99723864 3953004
-0.093705341 -0.30049711 0.93756104 984897
-0.082854778 -0.29835105 0.93918097 4350584
-0.069315791 -0.28803509 0.95900518 4674411
-0.067926869 -0.28641903 0.96757746 6974583
-0.068111397 -0.28165644 0.97774541 3815753
-0.098224297 -0.27564707 0.99157852 5799072
-0.066305421 -0.27474728 0.98484349 5064001
-0.068621293 -0.30172339 0.95888811 7039097
-0.067973495 -0.30011076 0.96450222 7565430
-0.067490399 -0.29605991 0.97218943 8223350
-0.067155056 -0.28827175 0.9776141 9076613
