# .PCD v0.7 - Point Cloud Data file format
VERSION 0.7
FIELDS x y z rgba
SIZE 4 4 4 4
TYPE F F F U
COUNT 1 1 1 1
WIDTH 174
HEIGHT 1
VIEWPOINT 0 0 0 1 0 0 0
POINTS 174
DATA ascii
-0.05706884 -0.010008924 1.0728357 5134174
-0.050455086 -0.011178605 1.0711231 5134176
-0.057234254 -0.0077572092 1.0769631 4871515
-0.066657461 -0.024034992 1.0610777 4936281
-0.056421552 -0.025873818 1.0583748 5199967
-0.051555488 -0.026169583 1.0581528 5397348
-0.074380659 -0.020081125 1.0672059 4673880
-0.06664566 -0.01911597 1.0654771 4870232
-0.057130802 -0.020289294 1.0654513 5068382
-0.047337592 -0.021185093 1.065594 5068384
-0.039450452 -0.021763794 1.0670499 4476504
-0.074084364 -0.014365382 1.074869 4607822
-0.066985957 -0.013614036 1.0739279 4673623
-0.05607643 -0.014636271 1.0727702 5134174
-0.045610178 -0.01484368 1.0730807 4739419
-0.037895255 -0.016559258 1.0731291 4081746
-0.073744416 -0.011839092 1.0830233 4410445
-0.065245792 -0.0092012808 1.0821527 4213839
-0.054923903 -0.0095831826 1.0821331 4345429
-0.044902854 -0.010390185 1.0813122 4016211
-0.036841378 -0.01206132 1.081189 3621193
-0.064257942 -0.0066540465 1.0868994 3884109
-0.054825004 -0.0067569837 1.0873337 3752784
-0.044431303 -0.0074211732 1.0867999 3621192
-0.037234299 -0.008380942 1.0855116 3686459
-0.07620316 -0.038466536 1.0557547 4673626
-0.068073079 -0.03689865 1.0532277 4870741
-0.059023667 -0.038170226 1.0518749 5265754
-0.048936404 -0.038677 1.0521697 5397604
-0.040322557 -0.040493429 1.0555969 4608350
-0.076442987 -0.030675478 1.0618335 4673629
-0.068132587 -0.030012183 1.0590662 4870744
-0.059802812 -0.030976646 1.0571463 5134174
-0.047373071 -0.031349353 1.0586481 5397606
-0.039183613 -0.03513658 1.0609499 4476760
-0.032725886 -0.035511412 1.065255 4015442
-0.082935132 -0.030277885 1.0715551 3883351
-0.079296842 -0.025917329 1.0689242 4475995
-0.045974456 -0.0277353 1.0640173 5068641
-0.036674157 -0.028579392 1.0673774 4082513
-0.030789485 -0.032302491 1.0702338 3752531
-0.079766415 -0.02004423 1.0771749 4079443
-0.03403724 -0.023889579 1.0750139 3621705
-0.02979037 -0.028011285 1.074209 3751503
-0.035057519 -0.018874936 1.0810225 3490378
-0.066366322 -0.058007725 1.044714 5002588
-0.063176997 -0.058211535 1.0445502 5528419
-0.076273814 -0.052773185 1.0536793 4739163
-0.069168225 -0.052013397 1.0493817 5002333
-0.059722345 -0.052714765 1.0486007 5397092
-0.05043057 -0.053530246 1.0505569 5332066
-0.044380836 -0.054811247 1.0520414 4740695
-0.077230051 -0.046184599 1.0547349 4082256
-0.070331648 -0.045638308 1.0525316 5068120
-0.047517695 -0.048601761 1.0527796 5200736
-0.039144345 -0.049405158 1.0563285 4345175
-0.031998299 -0.050953198 1.058754 4278096
-0.035649911 -0.042195402 1.0629452 4147028
-0.031012436 -0.046310917 1.0642374 3819087
-0.030517358 -0.039442979 1.0690607 3687502
-0.060447846 -0.073781997 1.0391413 5528423
-0.056113094 -0.073800854 1.0393931 5397348
-0.069967262 -0.064709619 1.0440212 4804702
-0.060511012 -0.064902022 1.0430791 5462626
-0.05116874 -0.067461997 1.0443919 5003105
-0.042865768 -0.06711103 1.0475394 4804440
-0.07838618 -0.060519885 1.053956 3817824
-0.072593972 -0.059164144 1.048457 4673622
-0.056604728 -0.060185909 1.0476359 5660265
-0.049122784 -0.059918366 1.0486221 5069150
-0.039967731 -0.060914636 1.0515828 4475986
-0.034218937 -0.059225984 1.0550662 4014924
-0.036611676 -0.056337141 1.0560305 4606547
-0.030727563 -0.055986926 1.0581098 3620428
-0.067710087 -0.082750462 1.0368321 4079956
-0.061130207 -0.081632011 1.0345378 5266270
-0.055328794 -0.083801404 1.0357188 5002845
-0.070049971 -0.077883653 1.0414351 4079963
-0.062594391 -0.077844985 1.0378124 5330781
-0.051987372 -0.078907102 1.0400091 5002331
-0.048198033 -0.074830741 1.0443034 5001816
-0.043859378 -0.074797213 1.0471637 4540755
-0.038854413 -0.070768885 1.0523859 4213074
-0.06289494 -0.098725051 1.0329118 5265766
-0.063757658 -0.094009548 1.03554 5068639
-0.054940462 -0.093360007 1.0363196 4214103
-0.071272604 -0.085995257 1.0390067 1580089
-0.050037362 -0.087061517 1.0398459 4145996
-0.046851255 -0.083906673 1.044459 4212054
-0.069472194 -0.10144898 1.0337508 3618132
-0.064082831 -0.1023197 1.0325066 5199718
-0.057433527 -0.10221829 1.0331324 4214875
-0.063998461 -0.1445851 0.98832905 528927
-0.058944598 -0.14522824 0.98748106 1517876
-0.060948946 -0.16040531 0.98457575 4419983
-0.075446606 -0.1544477 0.99037999 1651559
-0.069860071 -0.15167075 0.98927373 1782104
-0.057915524 -0.15178412 0.98544389 4154236
-0.052639373 -0.1538513 0.98999292 3028033
-0.066573016 -0.15303743 0.99774498 2369321
-0.058673345 -0.15042302 0.99553591 2040105
-0.064914167 -0.14042568 1.0126593 4146252
-0.075834505 -0.16558348 0.99082178 5077683
-0.069192916 -0.16607186 0.98757207 4617364
-0.059826519 -0.16685133 0.98675859 4549258
-0.054056004 -0.1622895 0.98994166 6582660
-0.075871564 -0.15656789 0.99901521 7695014
-0.067939721 -0.15586922 1.002219 2040625
-0.059750151 -0.15521796 1.0025616 2172202
-0.053375591 -0.15800545 0.99785995 2760198
-0.071464412 -0.17853466 0.98405516 4683677
-0.065783463 -0.17889769 0.9837634 3831442
-0.078511946 -0.17377561 0.98994339 3299734
-0.071608327 -0.17404082 0.98697615 4683420
-0.063132152 -0.17565483 0.98654914 3960460
-0.084236771 -0.22406769 0.92674261 3829135
-0.076098114 -0.22435679 0.92674917 4223637
-0.069926932 -0.22496635 0.92603672 3960467
-0.084342793 -0.2195656 0.9350096 3498881
-0.075897828 -0.21953386 0.9347887 3895695
-0.067984007 -0.21975347 0.93574548 3631246
-0.0832927 -0.21163067 0.94338208 3499128
-0.076130711 -0.21247281 0.94230777 4025235
-0.067343161 -0.21421096 0.94358164 3499655
-0.081917077 -0.20546269 0.95062208 3826560
-0.075219758 -0.20635235 0.95047629 4156303
-0.067399956 -0.20931545 0.95078069 3630985
-0.081054553 -0.20359689 0.96038795 3893387
-0.074406251 -0.20250228 0.95958281 4157333
-0.067105778 -0.2045359 0.96063071 3762828
-0.078786358 -0.20143808 0.96869195 3762325
-0.072797731 -0.19736359 0.96890056 4420507
-0.066688314 -0.19988754 0.96955001 3828877
-0.078892723 -0.19480306 0.98087895 4222878
-0.071757801 -0.19285461 0.97711641 4552347
-0.065710224 -0.19602174 0.97783577 3631755
-0.079863414 -0.18602017 0.98523366 3627913
-0.071310669 -0.1855697 0.98230052 4683676
-0.064168945 -0.18799552 0.98446739 3892613
-0.062523864 -0.18143883 0.98977518 3563127
-0.086752608 -0.23340091 0.92078739 3033484
-0.078599513 -0.23650473 0.92063528 2897991
-0.068483658 -0.23633501 0.92058957 3891064
-0.060956884 -0.23792118 0.92166078 2638186
-0.090037152 -0.227576 0.928285 666715
-0.079341657 -0.22933617 0.92575693 4813457
-0.065579668 -0.22880244 0.92764735 3499654
-0.058537424 -0.23243865 0.92914224 3561592
-0.089836732 -0.22212619 0.93831402 6722
-0.064991772 -0.22426805 0.9360196 3694979
-0.058488678 -0.22632276 0.93685979 3233144
-0.062636226 -0.21943095 0.94506496 3104639
-0.058069088 -0.22251764 0.94635457 2640231
-0.062595695 -0.21477842 0.95361817 2907007
-0.058404699 -0.21910602 0.95545685 3099492
-0.084027179 -0.2075346 0.96551466 4089741
-0.062281959 -0.21051854 0.96221542 3496061
-0.058046214 -0.21433832 0.96519423 4278874
-0.081112593 -0.2038416 0.97249436 2972810
-0.06219257 -0.20644906 0.97180724 3757171
-0.058590855 -0.21040827 0.97238094 3748927
-0.079524592 -0.20117217 0.97750521 3630740
-0.061000288 -0.20180176 0.97757238 3953004
-0.07986968 -0.2439712 0.91766518 984897
-0.069129266 -0.24279657 0.92053372 4350584
-0.057077013 -0.23264772 0.94137758 4674411
-0.056570522 -0.23065001 0.94996697 6974583
-0.057481602 -0.22527528 0.95978457 3815753
-0.088250265 -0.21552126 0.96939725 5799072
-0.055833787 -0.21815106 0.9667064 5064001
-0.057804592 -0.24631968 0.94202036 7039097
-0.057673573 -0.24443531 0.94758546 7565430
-0.057700779 -0.23998526 0.9550643 8223350
-0.057211459 -0.23194775 0.96009946 9076613
