# .PCD v0.7 - Point Cloud Data file format
VERSION 0.7
FIELDS x y z rgba
SIZE 4 4 4 4
TYPE F F F U
COUNT 1 1 1 1
WIDTH 1132
HEIGHT 1
VIEWPOINT 0 0 0 1 0 0 0
POINTS 1132
DATA ascii
-0.063018493 0.025431924 1.0223327 6254982
-0.059346288 0.029864565 1.0282533 6648965
-0.043616772 0.029183999 1.0206839 5270660
0.059797861 0.033955082 1.0200709 5662844
0.065700173 0.032746777 1.0199491 5794679
0.074329987 0.030202761 1.0185157 5926261
0.082696915 0.026770703 1.0211852 6253428
-0.053523444 0.034803152 1.0228453 7043204
-0.044441111 0.03571333 1.0229499 6188928
-0.034118108 0.039073274 1.0235534 5991293
-0.024412515 0.041483656 1.0233347 5794427
-0.014662495 0.041721493 1.0221912 5597052
-0.0065003205 0.041515604 1.0206989 5399930
0.0027956422 0.042119682 1.0191749 5203324
0.013502345 0.042405933 1.0187985 5269365
0.026222434 0.042774588 1.0193522 5334394
0.035488501 0.041996568 1.0210171 5466234
0.042112112 0.040348351 1.0215988 5597049
0.059720695 0.036885306 1.0201044 5991033
0.06442032 0.036921367 1.0222256 6055795
-0.022510832 0.043483615 1.0230882 6056827
-0.013413427 0.044814721 1.0262823 5859449
-0.0050885528 0.0451985 1.0248904 5728377
0.0041430779 0.044878826 1.0261611 5532027
0.014797799 0.04460296 1.0257806 5532021
-0.099827394 -0.0036386922 1.0323377 7306630
-0.097887583 -0.0026027411 1.0322798 7438985
-0.080650583 0.015600279 1.0378644 7044228
-0.076837242 0.015688017 1.0347282 6255491
0.087780051 0.02450341 1.0259845 6187632
0.093172789 0.025139637 1.0258001 6119529
-0.062904224 0.028445929 1.0313665 6780808
0.055565476 0.033975124 1.0272259 5465215
0.079539649 0.029437974 1.0313319 6056820
0.085601315 0.028920963 1.0294105 5988198
-0.050737828 0.037037611 1.0310256 7108737
-0.044336252 0.040057331 1.0341327 7108222
-0.036098644 0.041365385 1.0305523 6582396
0.046885267 0.04085952 1.0298574 5859705
0.05223982 0.039162338 1.028399 5728122
-0.031578317 0.044847503 1.0329304 6713719
-0.025142437 0.045921177 1.0341146 6450807
-0.017001105 0.046380088 1.0321797 6122104
-0.005204279 0.047681019 1.0317754 6122617
0.0071136663 0.04851985 1.0317645 6057083
0.013473351 0.04852359 1.0324731 6057334
-0.085514002 0.01420819 1.0410243 7832202
0.079254143 0.032794401 1.0353801 5792617
0.082228377 0.032873914 1.0352755 5724767
-0.043055519 0.04342173 1.0398268 7764863
-0.023331722 0.047919765 1.0391749 6384242
-0.014409 0.048158318 1.0388613 6121843
0.16307087 -0.074813358 1.0502911 13950701
0.16609935 -0.074732393 1.0501845 13160147
0.16501006 -0.071729198 1.0502547 13423577
0.16465256 -0.084535033 1.0571375 12898285
0.16864625 -0.085400909 1.0564865 12832198
0.16298373 -0.078597724 1.0554006 10136266
0.16975974 -0.078896359 1.0552645 13159885
0.16321655 -0.07232222 1.0568165 12175571
0.1684034 -0.071079135 1.0531433 13093836
-0.13914502 -0.11312182 1.079412 1720740
-0.1401044 -0.10624706 1.0793064 3628972
-0.14124826 -0.10013124 1.080824 4745397
0.16435605 -0.086429425 1.0661342 6256041
0.16897562 -0.088991664 1.0661436 12767188
0.162439 -0.077417135 1.0682982 7312841
-0.1360361 -0.13737921 1.0902544 2903988
-0.13292199 -0.13729596 1.0901449 1324707
-0.13783936 -0.12538341 1.0896939 2904505
-0.13680524 -0.11657765 1.0883989 2644141
0.16543055 -0.10645355 1.0798951 5801403
0.16986863 -0.10668133 1.0797354 11779799
-0.13685314 -0.10545862 1.0866163 3039906
0.16431332 -0.097371839 1.0790296 3630254
0.17052923 -0.098019361 1.0782138 11516624
0.17766817 -0.097811557 1.0795523 13685195
-0.13950351 -0.096587136 1.0891688 2708908
0.16384135 -0.088903233 1.0782597 3762605
0.16865142 -0.092552856 1.076925 10465738
0.16367437 -0.082046553 1.0742099 6721740
-0.13756771 -0.07921651 1.0909203 1588628
-0.13445361 -0.079133257 1.0908108 3826867
-0.12887125 -0.15262562 1.0958443 3694011
-0.13408437 -0.14620972 1.0940951 7178192
-0.12881677 -0.14583036 1.095067 2114980
-0.13459472 -0.13474858 1.0942336 1063065
-0.13001238 -0.13745719 1.0949434 2447769
-0.13432488 -0.12717845 1.0943037 2578847
-0.13173065 -0.12669833 1.0972189 2907546
0.16569708 -0.11751596 1.085273 6851775
0.17121364 -0.11688605 1.0835831 13029078
-0.13387536 -0.11707993 1.0951445 3104917
-0.13206095 -0.11415492 1.0973625 3170462
0.16402198 -0.10676569 1.0854455 3040417
0.17376785 -0.10981368 1.083567 13422807
0.17660266 -0.1066084 1.0835003 13619661
-0.13629009 -0.10461798 1.0953611 3104162
0.16254683 -0.098582171 1.0849406 2973607
-0.1358353 -0.096281014 1.0956829 3169952
0.16277178 -0.088490002 1.087183 2843043
-0.13791662 -0.086646497 1.0950152 3301299
-0.12308393 -0.16449463 1.1055211 4750553
-0.11931393 -0.16664326 1.1073663 1196192
-0.12540166 -0.15725261 1.1024772 3036848
-0.1212625 -0.15947597 1.1075108 1789334
0.1624129 -0.14782281 1.0950776 12898004
-0.1245888 -0.14634973 1.1039863 2776475
0.16263217 -0.13870251 1.094065 9087435
0.16819391 -0.13387269 1.0905163 13488846
-0.12712459 -0.13567357 1.103966 3038106
0.16217001 -0.12804995 1.0931927 4354994
0.16987126 -0.12584913 1.0905412 13752800
-0.1292012 -0.12603347 1.1055864 2973083
0.16191715 -0.1182924 1.0942125 2121388
-0.13454804 -0.11257149 1.10147 3301280
-0.13091022 -0.1174692 1.1049284 3039132
0.16235685 -0.11019213 1.0921397 2646946
0.17849898 -0.10453352 1.0934616 13817039
-0.1347138 -0.10627694 1.101542 3366820
-0.13198118 -0.10672797 1.1064439 3105183
0.16053289 -0.098029584 1.095868 3631271
0.17949495 -0.10240152 1.0934488 13817037
-0.13500847 -0.095086642 1.1016701 3499424
-0.13215768 -0.096073553 1.1053613 3302563
0.15990196 -0.087783039 1.0952387 3369127
-0.13238189 -0.086571336 1.1051691 3434147
0.16159742 -0.078161351 1.0962484 2908578
0.16720979 -0.075360097 1.0941685 8233160
-0.13739844 -0.07551825 1.1028184 3365295
-0.13194473 -0.076618701 1.1056045 3499689
0.16212712 -0.068563245 1.0960684 4024485
0.16698818 -0.06694451 1.0942649 11192030
-0.13602389 -0.066624284 1.1050075 2181536
-0.1307625 -0.066355407 1.1060246 3433908
0.16129583 -0.063175663 1.0985091 2708114
-0.13448305 -0.058405556 1.109042 8233201
-0.1306911 -0.05940377 1.1071817 3564980
0.0070258332 0.11736032 1.1018722 9935247
0.012709452 0.11841455 1.1016818 9934992
-0.11315759 -0.17549396 1.1157533 929696
-0.10888644 -0.1757597 1.1179084 1984411
0.15314564 -0.16448617 1.1087401 13424882
-0.11450205 -0.16593781 1.1136075 2512540
-0.10971814 -0.16774654 1.1166879 2906513
0.15422565 -0.15850438 1.1063186 8955594
0.1597141 -0.15697303 1.1025822 14080986
-0.1219983 -0.15205742 1.1146196 2381461
-0.11868265 -0.1571739 1.116387 2776212
0.15414852 -0.1488883 1.105186 3697834
-0.12257122 -0.14615929 1.1155357 2841752
-0.12021659 -0.15045515 1.1185759 2906774
0.15575689 -0.13893099 1.1057141 2646183
-0.12470018 -0.13566315 1.1167461 2907034
-0.12049735 -0.13979287 1.118698 2775704
0.15614244 -0.13019601 1.1068929 3696546
0.15805554 -0.12560065 1.1063064 3761571
-0.12601687 -0.12622759 1.1154784 2973083
0.15954845 -0.11945101 1.1056511 3368880
-0.12739803 -0.11604688 1.1150895 3039134
0.15952502 -0.10783531 1.1053798 3500454
-0.12786071 -0.10560285 1.1149156 3171232
0.15826826 -0.099439315 1.1065264 3631529
-0.12867311 -0.096844852 1.114336 3302564
0.15633824 -0.089045323 1.1024154 3697839
0.15686786 -0.089317024 1.1053958 3763633
-0.12901546 -0.086305231 1.1152594 3368355
0.1571269 -0.078048036 1.1052192 3436468
0.17134169 -0.074045725 1.1050434 10992842
-0.12695272 -0.075829521 1.1152965 3697068
0.15479694 -0.065213054 1.1097254 3765679
0.15789005 -0.067575812 1.1047695 3830452
0.17087585 -0.069805503 1.1051046 11387079
-0.12613811 -0.068004459 1.1131485 3631022
-0.12406623 -0.064732879 1.112609 3500456
0.153877 -0.058285933 1.10694 3830449
0.1605123 -0.05857363 1.1042206 5207985
0.16719691 -0.059452616 1.1080122 10334913
-0.12661867 -0.056013715 1.1153644 3434161
0.15277365 -0.049378637 1.1068187 3893939
0.15984578 -0.049664386 1.1057628 8428221
-0.12701175 -0.046032149 1.1190572 6194370
-0.1224915 -0.043818187 1.1197779 4421311
0.15039708 -0.037636351 1.1090797 5734064
0.15682928 -0.041151721 1.1099063 10203587
-0.12133493 -0.037118651 1.1198074 6852289
0.14868279 -0.031734638 1.107092 8955077
0.015166425 0.094301417 1.1163515 9737616
-0.08127626 -0.2115187 1.1248928 7635861
-0.077787377 -0.21194881 1.1274332 8100012
-0.091691971 -0.20190515 1.1280316 10535920
-0.084684022 -0.20436832 1.1254027 5996227
-0.077881888 -0.20835981 1.1274742 6394567
-0.10226556 -0.19105774 1.1205149 8431615
-0.095110416 -0.19334285 1.1230084 1526185
-0.088725366 -0.1956127 1.1268489 1262491
0.13476881 -0.18687174 1.1201634 11717846
-0.11103865 -0.18273361 1.1209134 7571711
-0.1039465 -0.18483156 1.1221966 1917611
-0.096774876 -0.18720493 1.1256979 2379673
-0.089851677 -0.1900039 1.1280915 2644619
0.13617641 -0.17995888 1.1201863 5010097
0.14328472 -0.1767671 1.116823 10599906
0.15031886 -0.17535838 1.1157308 14081762
-0.10415018 -0.17603415 1.124953 2709143
0.1369393 -0.16933495 1.120271 2909858
0.14343582 -0.16864228 1.1162273 4026283
0.15090102 -0.1685929 1.1122788 12307424
-0.11157354 -0.16242103 1.1211458 2775446
-0.10698082 -0.16654655 1.1238508 2775442
0.14447916 -0.15967344 1.1171033 3105445
0.14922051 -0.158658 1.1119425 2578854
-0.11371746 -0.15530144 1.1234521 2775449
-0.10928161 -0.15764108 1.1277862 2906778
0.14659879 -0.14982927 1.1185327 3564451
0.14978164 -0.14872016 1.1144288 3433893
-0.11775499 -0.14674169 1.1248262 2840984
0.14793536 -0.14162567 1.1201726 3565217
0.15146914 -0.13935265 1.1147343 3499430
-0.12299033 -0.13491052 1.1218398 2841497
-0.11975051 -0.13667127 1.1277106 2907290
0.15354627 -0.12869805 1.1171076 3237547
-0.12336224 -0.12547949 1.1235533 2973083
-0.12046321 -0.12593481 1.1278487 3038877
0.15642291 -0.11894567 1.1182909 3827369
0.15883555 -0.11774717 1.1120319 3564710
-0.12463709 -0.11555591 1.1249608 3039391
-0.12181398 -0.11743892 1.128653 3170977
0.1564195 -0.10885216 1.1182152 3565735
0.15861033 -0.10919451 1.1121298 3500198
-0.12490294 -0.10739303 1.1272004 3170977
0.15642583 -0.099822991 1.1176429 3631790
0.15764724 -0.1015001 1.1202503 3434923
-0.12537098 -0.096837439 1.1263273 3302823
0.1557944 -0.088385738 1.1179522 3566513
-0.12565051 -0.086824924 1.1251082 3368614
0.15464802 -0.079157569 1.1181284 3632560
-0.12530285 -0.079122357 1.1265111 3565995
0.15313804 -0.069011822 1.117016 3895728
-0.12270964 -0.064017922 1.1281792 3697842
0.1504876 -0.059105262 1.1157464 4158132
-0.12131155 -0.055659715 1.1269803 3502262
0.14911935 -0.048483901 1.1171074 4027837
-0.1189396 -0.046072107 1.1264107 3698611
0.14410903 -0.037214626 1.1214062 4619197
0.14979488 -0.040099856 1.1156321 4946612
-0.1254959 -0.039762132 1.1229291 7180220
-0.11773921 -0.036638081 1.129892 4815032
0.14382978 -0.030730657 1.1208171 5209534
0.14824426 -0.028775461 1.1133429 8425655
0.016495677 0.090274766 1.1192641 9474444
-0.053768024 -0.22125474 1.1334888 8300241
-0.072311036 -0.21351138 1.1305885 7642055
-0.064732134 -0.21399082 1.1324527 4815810
-0.057835393 -0.21727477 1.1336747 5210825
-0.081768006 -0.20184281 1.1306826 932767
-0.074654467 -0.20511694 1.1320814 2382238
-0.065882273 -0.20794961 1.134058 2251168
0.11737845 -0.19979762 1.1276487 6518691
0.1231328 -0.19860098 1.1260278 11319227
-0.083605409 -0.19516978 1.1326858 2447513
-0.078049317 -0.19851777 1.1345884 2513045
0.12477216 -0.19033656 1.1264328 4617903
0.13170578 -0.19013366 1.1232399 10929103
-0.09335842 -0.18439552 1.1327323 2971544
-0.087333404 -0.188007 1.1330266 2774929
0.12657714 -0.18101068 1.1258525 2909086
0.13137104 -0.1799069 1.1233592 3105187
-0.10128471 -0.17139557 1.1316944 2709911
-0.096451052 -0.1763545 1.1338255 2644371
0.13265161 -0.17006123 1.1240332 3368356
-0.10372326 -0.1648646 1.1336689 2775444
-0.098619677 -0.1688627 1.1342951 2709910
0.13684243 -0.16009128 1.1249747 3368613
0.14091046 -0.15699799 1.123262 3499683
-0.10717065 -0.15638044 1.133562 2841497
0.13852863 -0.15261474 1.1273953 3237027
0.14308779 -0.14975199 1.1245953 3302821
-0.11343401 -0.14494307 1.132975 2645144
-0.10981681 -0.14660227 1.1353707 2775964
0.14597315 -0.13974738 1.1254473 3237542
0.14993331 -0.13605106 1.1244967 3106215
-0.11545279 -0.13660569 1.1340179 2907291
0.14711106 -0.13016734 1.1259929 3499683
0.15010397 -0.12808861 1.1243838 3303338
-0.11666515 -0.12672016 1.1351109 3039134
0.15150321 -0.11956044 1.124693 3499947
-0.12226932 -0.11253928 1.133057 3236770
-0.11988109 -0.11680502 1.1362631 3236770
0.15297097 -0.10901527 1.1251585 3500458
-0.1224399 -0.10606195 1.1331311 3237027
-0.12056465 -0.10641964 1.1370636 3302821
0.1550743 -0.098412439 1.1256633 3632048
-0.12269575 -0.096345961 1.1332425 3302824
-0.12080713 -0.097211055 1.1371691 3302569
0.15311052 -0.089572102 1.1257219 3632047
-0.12336615 -0.087289236 1.1333615 3434408
-0.12051243 -0.084890604 1.1372882 3434665
0.14941728 -0.07861653 1.1256042 4026292
-0.12320746 -0.076913968 1.1334649 3631531
-0.12136344 -0.076085478 1.1374109 3631531
0.14926544 -0.070624202 1.124319 4157366
-0.12337803 -0.070436642 1.1335391 4025255
-0.12028451 -0.065255895 1.1357712 3632304
0.14840317 -0.058849093 1.1240286 4289211
-0.11708412 -0.056169048 1.1351814 3568048
0.14499022 -0.048176572 1.1249288 4094399
0.14748207 -0.052513812 1.1261292 4224702
-0.1159964 -0.050073404 1.1334915 3764911
-0.1125843 -0.045694787 1.1359184 3895729
0.14224221 -0.039835256 1.1259023 4487616
-0.11757983 -0.032039098 1.1367394 6458567
-0.11257076 -0.035672177 1.1359231 3895996
0.14184408 -0.028793171 1.1249774 5735616
0.14860085 -0.025354035 1.1243738 9477559
-0.11717639 -0.029356137 1.137754 6852289
-0.11392815 -0.029269293 1.1376398 5933254
0.049816929 0.076795444 1.1289489 9474701
-0.01633936 -0.23084573 1.1440697 7248329
0.016490202 -0.23155093 1.1420982 5801654
0.024456881 -0.23020208 1.1412963 5210039
0.037303865 -0.23050711 1.142172 6328255
0.044963062 -0.23030233 1.1419027 7379645
0.05650945 -0.2298719 1.141498 8430007
0.064264871 -0.22784464 1.1372417 8625323
-0.054706343 -0.22365177 1.1374996 9678537
-0.043660007 -0.22343299 1.1436412 4422071
-0.034260981 -0.22387508 1.1447781 2778029
-0.02445945 -0.22542851 1.1444144 2513574
-0.016780963 -0.22793604 1.1441159 2315684
0.013145603 -0.22786631 1.143056 2120102
0.025181487 -0.22754452 1.1426328 2185635
0.038282715 -0.22609869 1.1421837 2186146
0.043782398 -0.2270472 1.1419787 2316696
0.059043139 -0.22444806 1.1414652 4486314
0.066515177 -0.22383033 1.1392056 5997746
0.077606343 -0.22058314 1.1397043 6063288
0.086270578 -0.21889967 1.1405586 6589614
0.094373196 -0.21890214 1.1402714 8757678
-0.060454056 -0.21183813 1.1378275 1855898
-0.053558156 -0.21420035 1.1407986 2249885
-0.045678288 -0.2163467 1.1445341 2381985
-0.037474565 -0.21826409 1.144951 3039902
0.080105603 -0.21347716 1.1408341 2841504
0.086109124 -0.21276888 1.1406288 3302564
0.095559865 -0.21024473 1.1389861 4420011
0.10517663 -0.20910403 1.1342733 6984117
0.11445342 -0.20607391 1.1316892 6254993
-0.071838811 -0.20162861 1.1391389 2710418
-0.063907057 -0.20472255 1.1424086 2775447
-0.057031341 -0.20680097 1.1449641 2906776
0.097830966 -0.20229937 1.1399232 3171492
0.10619861 -0.20066944 1.1368418 3237285
0.11434605 -0.19918853 1.1323372 3629215
-0.074764863 -0.19480169 1.1433171 2775191
-0.066454269 -0.19810134 1.145523 2906012
0.10796641 -0.19143175 1.1384107 3040421
0.11473967 -0.18952838 1.1348023 3105703
0.12054335 -0.18959203 1.1316466 2777257
-0.090621397 -0.18109453 1.13922 2710677
-0.083633885 -0.18483409 1.1424649 2709909
-0.077239536 -0.18830101 1.1446741 2709910
0.11579663 -0.18115932 1.1384343 3368100
0.12316833 -0.17907633 1.133799 3302561
-0.091910638 -0.17461839 1.142447 2710421
-0.086910091 -0.17738453 1.1463324 2644886
0.11770064 -0.17336062 1.1399236 3040936
0.1255807 -0.17002617 1.1375909 3237031
0.13180012 -0.16692463 1.134488 3368615
-0.10200231 -0.16181596 1.1398261 2776209
-0.09628927 -0.16620037 1.1443307 2841240
0.12746206 -0.16151108 1.1397022 3237287
0.13367188 -0.15905897 1.1343615 3302822
-0.10301653 -0.15524063 1.1444676 2710683
-0.098139383 -0.1584357 1.147063 2841499
0.13580151 -0.15061153 1.1369312 3237541
0.14056261 -0.14772479 1.1329784 3237798
-0.10534697 -0.14675169 1.1452494 2907293
0.13734579 -0.14183111 1.1395588 3237797
0.14183116 -0.13910984 1.134425 3303334
-0.1120987 -0.13518555 1.1416075 2907805
-0.10964426 -0.13682604 1.1475646 2907805
0.1435141 -0.12972815 1.1370213 3434407
-0.11278834 -0.1259114 1.1432544 3039392
-0.10995201 -0.12707944 1.1484785 3039391
0.14519952 -0.12010609 1.1369357 3500202
0.14907753 -0.11702536 1.1313983 3631274
-0.11611027 -0.11685126 1.1453353 3170979
0.14695479 -0.10981308 1.1391102 3631791
0.15012445 -0.10909309 1.1332237 3566510
-0.11674463 -0.10652868 1.146648 3105957
0.14579739 -0.098712601 1.1380448 3632305
0.15084773 -0.099605992 1.1318524 3501227
-0.11747063 -0.09649314 1.144492 3237546
0.14507042 -0.089648061 1.1372865 3698099
0.14951438 -0.089851104 1.1320689 3698094
-0.11709622 -0.086734712 1.1448197 3434923
0.14608084 -0.080350608 1.1378943 3895479
0.14816143 -0.082235888 1.1317967 3895477
-0.11697093 -0.076277986 1.1455446 3566256
0.14608918 -0.06905967 1.139347 4027579
0.14844751 -0.068382382 1.1359348 4157882
-0.11623841 -0.067337163 1.1448559 3567024
0.14378226 -0.059574835 1.1390183 4159422
0.14795482 -0.059559427 1.134444 4289724
-0.1142626 -0.057419255 1.1426926 3567791
-0.11102413 -0.055459227 1.1479354 3764403
0.14175715 -0.049571365 1.1377041 4356797
-0.10973544 -0.046416752 1.1418854 3830196
0.13881168 -0.04005377 1.1369746 4619718
-0.10846797 -0.035504885 1.1442945 3896507
0.13442899 -0.028280213 1.137743 4817095
0.13885336 -0.028702438 1.1343572 4948420
-0.11627188 -0.026549615 1.1457568 6916535
-0.1087868 -0.026876405 1.1451802 5210049
0.13348979 -0.02193632 1.1399555 5013440
0.13785276 -0.021375678 1.1374718 5998788
0.031165473 0.049472943 1.1401873 5859448
0.0392875 0.049788803 1.1380442 6122362
0.044944946 0.050034299 1.1408484 6319482
0.056154832 0.051555216 1.1444699 5330522
0.031575825 0.053949937 1.1386949 5792108
0.039352842 0.05500941 1.1378968 5527648
0.044830032 0.054398209 1.1408983 5067354
-0.010495212 -0.23069635 1.1468661 4354997
-0.0030449089 -0.23154785 1.1485945 4684224
0.0067834677 -0.23097384 1.1467844 4289976
0.017672723 -0.22837408 1.1458921 2054307
0.028108917 -0.22864427 1.1455194 2777510
0.03362295 -0.22959527 1.145314 4026798
0.050078332 -0.22915532 1.1447355 5604271
0.05387456 -0.22740619 1.1446192 4881326
-0.029730612 -0.22085412 1.1476513 3039902
-0.021746727 -0.2215645 1.1478612 2710943
-0.013136396 -0.22327605 1.1503444 2645152
-0.0030733235 -0.22590454 1.1533246 2514339
0.0068369005 -0.22552982 1.1524436 2514851
0.016625263 -0.22274417 1.1505916 2842787
0.02641239 -0.22203347 1.1480508 2908579
0.036081605 -0.22138549 1.1482041 3039651
0.046324097 -0.22182766 1.1489483 2908578
0.055633649 -0.22070375 1.14838 2778020
0.065530233 -0.21875057 1.1457268 2646433
0.075117223 -0.22116312 1.1439321 5012145
0.086669706 -0.22213572 1.1435124 8955830
-0.042961121 -0.21278936 1.1484909 2841242
-0.033000328 -0.2146199 1.1501677 2775960
-0.023898153 -0.21567436 1.1517687 2841500
-0.014309844 -0.21763358 1.1551441 2907551
0.017337017 -0.21605012 1.1540391 3105184
0.026532628 -0.21543559 1.1537197 3170722
0.036474362 -0.21516979 1.1533701 3302053
0.046585649 -0.21434644 1.1530204 3170723
0.057055451 -0.21314481 1.152662 3105188
0.066297129 -0.21208435 1.1506301 3170467
0.075751781 -0.21157739 1.146412 3236258
0.0857279 -0.207845 1.1441408 3171236
-0.059870593 -0.20188844 1.1489189 2906776
-0.053246729 -0.20396143 1.149806 2907033
-0.044648081 -0.2047592 1.1531858 2841497
-0.035181992 -0.20860596 1.1559788 2775704
0.06720046 -0.20660603 1.1523712 3105443
0.076037563 -0.20636977 1.1520605 3105443
0.086679578 -0.20235184 1.1504616 3105956
0.094837427 -0.19922143 1.146666 3105956
-0.071129888 -0.19120531 1.1494303 2644884
-0.063867077 -0.19461495 1.1521391 2775705
-0.055333741 -0.19729075 1.154477 2841497
0.090106793 -0.19493325 1.1516821 3172006
0.097659312 -0.19233695 1.1504411 3040421
0.10336652 -0.18980514 1.1477637 2974628
-0.08013732 -0.18265882 1.1498394 2645144
-0.0733459 -0.1842811 1.1526426 2710425
-0.06792248 -0.18687573 1.1539367 2776216
0.10661232 -0.18107882 1.1479906 3171493
0.11141641 -0.178683 1.1446934 3237026
-0.083292626 -0.17475292 1.1526244 2710424
-0.076730892 -0.17683288 1.1563299 2710937
0.10946637 -0.17450699 1.1512108 3302823
0.11557236 -0.17022106 1.1478794 3172005
0.1212503 -0.16691798 1.1468701 3172006
-0.092349574 -0.16357997 1.1504729 2841498
-0.087718084 -0.16603385 1.1552094 2907290
0.11801242 -0.16321816 1.1510266 3303592
0.12411855 -0.15965641 1.1495134 3237544
0.12991349 -0.15507463 1.1426849 3303337
-0.094274983 -0.15519103 1.1523448 2973342
-0.08938355 -0.15825568 1.1584291 3038879
0.12756611 -0.15180579 1.1501409 3237544
0.13168259 -0.14861353 1.1454921 3303336
-0.10262264 -0.14384946 1.1520451 2973342
-0.096320279 -0.14689809 1.1562928 2973600
0.13489103 -0.13941321 1.1466759 3368872
-0.10435853 -0.13604605 1.1535425 3039392
-0.098713465 -0.13677941 1.1589857 3236259
0.13600422 -0.12996049 1.1484871 3500460
0.14016113 -0.12734027 1.1426134 3434923
-0.10569248 -0.12644204 1.1542271 3170978
0.1368425 -0.1210168 1.1494688 3500719
0.14134882 -0.11835694 1.1460013 3500718
-0.11264613 -0.11542621 1.1516986 3237029
-0.10858846 -0.11675733 1.1575449 3237286
0.14155138 -0.10952367 1.1488609 3697329
-0.11287736 -0.10664506 1.1517991 3237543
-0.11006663 -0.10622047 1.159209 3172263
0.14251076 -0.10037811 1.1484175 3697843
-0.11332733 -0.097051509 1.154918 3303340
-0.11110527 -0.095976681 1.1598539 3303852
0.14202444 -0.089946844 1.1489446 3764149
-0.1137537 -0.087263152 1.1520339 3500716
-0.11079136 -0.085908622 1.1599487 3501229
0.14463772 -0.07942076 1.1475332 3764661
-0.11359998 -0.079203993 1.1521132 3566512
-0.11036734 -0.075744472 1.1564016 3632306
0.14138666 -0.069295004 1.1476539 3896764
-0.11001942 -0.06611158 1.1564907 3698357
0.13522102 -0.059441548 1.1501737 4291265
0.13888626 -0.060449418 1.1445055 4225217
-0.10865993 -0.057060596 1.1561737 3764408
0.13572642 -0.049814425 1.1495899 4554434
0.13810892 -0.049407627 1.1435056 4488640
-0.10596068 -0.046282131 1.156992 3895997
-0.10181445 -0.043007191 1.1600816 4027323
0.13501549 -0.039020963 1.1487279 4817354
-0.10479278 -0.036674425 1.1535826 3962044
-0.10064413 -0.035425112 1.1593194 4093118
0.12547886 -0.026975997 1.1521945 5014224
0.13079776 -0.029521011 1.1479765 4751563
-0.10401714 -0.026223846 1.1523308 4290235
-0.098982938 -0.02601295 1.156691 4158908
-0.092745416 -0.023593418 1.1599643 4028609
0.12356834 -0.01996623 1.150557 4817874
0.13005355 -0.01944802 1.1451068 5145287
-0.096851677 -0.019281588 1.1545514 4487616
-0.091395475 -0.016520649 1.1586566 4356800
0.11438549 -0.0076906458 1.1507891 5276623
0.12066865 -0.010492943 1.1468202 5604813
0.13004616 -0.011443928 1.1450801 6720449
-0.089431956 -0.0094950274 1.1599952 5671109
0.11243209 -0.0021921545 1.1523458 5802961
0.11866865 -0.0027476624 1.1480209 6787017
0.036031008 0.01155591 1.1557699 12972031
-0.01950028 0.02001036 1.1558256 5869264
0.01303691 0.017208695 1.1566443 7515376
0.020533597 0.017040424 1.1563768 8764660
0.030143313 0.016854957 1.1560344 10146554
0.036798298 0.016000576 1.1557895 10870005
-0.077603593 0.026840143 1.1519525 8028800
-0.072493784 0.027342901 1.1517767 7305855
-0.015073353 0.021249965 1.157683 5671370
-0.011759441 0.021338567 1.1575665 5869265
0.011437939 0.021958776 1.1567509 6988787
0.015856488 0.022076897 1.1565956 7185904
0.10178535 0.033222571 1.1536673 6314850
-0.071406543 0.032375857 1.1517911 8028802
0.098599233 0.036676705 1.1538166 6117979
0.074102975 0.046640098 1.1467841 5593178
0.07629703 0.046698764 1.1467068 5658970
-0.0086202063 -0.22049387 1.1589152 2973083
-0.0030487832 -0.22145475 1.1587076 2973595
0.0063833641 -0.22077978 1.1590475 2973598
-0.028864233 -0.20993665 1.1597437 2842012
-0.022454182 -0.21115258 1.1595037 2776219
-0.013002692 -0.21339855 1.1606699 2907806
-0.0033227541 -0.21453819 1.16195 2907807
0.0072458191 -0.21479836 1.1617483 2973599
0.015961781 -0.21219477 1.1587983 3039136
0.026692672 -0.21092504 1.1590985 3170723
0.036634929 -0.2105322 1.1580831 3236770
0.04638879 -0.2098029 1.1570779 3170979
0.055421248 -0.20934799 1.1567626 3170980
0.062028095 -0.20750657 1.1565478 3171236
-0.040182307 -0.20136045 1.1602349 2842012
-0.033368513 -0.20346123 1.1614269 2842011
-0.023668414 -0.20547301 1.1620697 2842012
-0.015295694 -0.20671672 1.1632993 2907805
0.031177327 -0.20686628 1.1616507 3302309
0.037112791 -0.20553744 1.1603106 3302308
0.045706816 -0.20517096 1.1586518 3171236
0.056427471 -0.2054366 1.1567681 3171236
0.067066185 -0.20379737 1.158076 3105443
0.076805137 -0.20160598 1.1570868 3171492
0.083263293 -0.19953984 1.155879 3040420
-0.061534777 -0.19083285 1.1611024 2841497
-0.052675769 -0.19335213 1.1612957 2907291
-0.044127896 -0.19579059 1.162317 2907549
-0.037353195 -0.19681947 1.1641852 2907551
0.079823211 -0.1944291 1.1600573 3040420
0.086717658 -0.19238102 1.1579385 3106213
0.094388239 -0.18954974 1.1555897 3106214
-0.063136801 -0.18440992 1.163228 2907290
-0.056427151 -0.18712795 1.1644627 2973340
0.090711258 -0.18522874 1.1597682 3302823
0.096603312 -0.18265808 1.1571848 3237030
0.10265405 -0.17909054 1.1571858 3237031
-0.080904007 -0.17137346 1.1619935 2841497
-0.072404377 -0.17463309 1.1621917 2842012
-0.066144057 -0.17673081 1.1644161 2907547
0.10760193 -0.17126164 1.1562375 3368361
0.11256313 -0.16786572 1.1551737 3237285
-0.082537688 -0.16549796 1.1621132 2973085
-0.075660534 -0.16557032 1.1646074 3039135
0.10968979 -0.16405809 1.1553155 3368615
0.1161462 -0.16056243 1.1558512 3237799
0.12059899 -0.15710734 1.155002 3303337
-0.090268046 -0.15275641 1.1625211 2973857
-0.084696226 -0.15615633 1.1638446 3039137
-0.078658953 -0.15690407 1.1660688 3104930
0.11798105 -0.15302569 1.1571389 3172264
0.12407469 -0.14995606 1.1556211 3238059
-0.091638803 -0.14459974 1.1636562 3039650
-0.087460652 -0.14811876 1.1664732 3105700
0.12710659 -0.1401455 1.157105 3369132
0.13124534 -0.14017498 1.1548027 3434410
-0.094592549 -0.13612118 1.1645648 3171236
0.12881976 -0.13198701 1.1581769 3500719
0.13208565 -0.12958114 1.1568856 3435183
-0.10211182 -0.12421702 1.163241 3302823
-0.0973185 -0.1260996 1.1657197 3171495
0.13257466 -0.11946549 1.1567928 3566514
-0.10403274 -0.11564711 1.1648548 3368873
-0.10026412 -0.11674324 1.1664562 3368875
0.13500969 -0.11019281 1.1557851 3697588
-0.10513168 -0.10662138 1.1662016 3303850
0.13641626 -0.10058271 1.1584666 3763892
0.13949901 -0.099777833 1.1549349 3698099
-0.10678051 -0.096444532 1.1652997 3435181
-0.10083272 -0.09680254 1.1674867 3435438
0.13718854 -0.09043885 1.1591177 3829942
0.13991694 -0.089784175 1.1561688 3764149
-0.10598588 -0.08675158 1.1657736 3501229
0.13683687 -0.077084355 1.1592706 3896505
0.14122722 -0.079825424 1.1569029 3830455
-0.10566411 -0.076873645 1.1654042 3632563
-0.10144813 -0.073432177 1.1677542 3567542
0.13420035 -0.069964662 1.1568657 4027837
0.139469 -0.073364258 1.1552137 3896505
-0.10517786 -0.066796638 1.1652877 3829940
-0.10162397 -0.066754922 1.1678307 3699127
0.13249098 -0.060407996 1.1582657 4291009
-0.1050455 -0.056642782 1.1648561 3895737
-0.10127726 -0.055768169 1.1679339 4027576
0.13249901 -0.050358173 1.157704 4422849
-0.10406858 -0.049909551 1.1640917 4158911
-0.099611685 -0.046112984 1.1659751 4093372
0.13216865 -0.040613912 1.1573179 4817355
-0.096130557 -0.03661266 1.1654897 4093630
-0.091380648 -0.033071317 1.1678218 4094397
0.12446569 -0.030077033 1.1584244 5080014
0.12898125 -0.033135228 1.1560085 4883149
-0.094268277 -0.028930373 1.163965 4028348
-0.089780979 -0.026269376 1.1653349 4028864
0.11970818 -0.020552509 1.1582484 4949202
-0.08646287 -0.016588613 1.1656375 4029123
-0.082229584 -0.014265694 1.1676952 3963586
0.11340065 -0.010863468 1.1594633 5146069
0.11686071 -0.015146792 1.1566272 5080276
-0.085926421 -0.0087300912 1.1638818 5342665
-0.078725725 -0.0064335167 1.1676534 4882633
-0.015426723 -0.00097186118 1.1654674 6070261
-0.0087532308 -0.00079343468 1.1652328 6528744
-0.0020797364 -0.00061501563 1.1649982 8827627
0.013491745 -0.00019869953 1.1644506 10340848
0.02224759 -0.00060098618 1.1641361 8895736
0.029765744 -0.0010999814 1.1638644 6266608
0.10402982 0.0016765296 1.1602608 5475287
0.10854109 -0.0017027333 1.1583977 5475028
-0.075484298 -0.0003311336 1.1656014 5999306
-0.068859041 0.00095584989 1.16538 5540557
-0.060410216 0.0045252666 1.164451 5803727
-0.047656193 0.00658077 1.166689 4950220
-0.038672432 0.0056960732 1.1663613 5016280
-0.028954098 0.005349189 1.1656131 5411294
-0.018980427 0.0056233555 1.1634212 5806569
-0.0089433454 0.0058857277 1.1647093 7120874
0.0006379243 0.0068820268 1.1649806 12379901
0.011146984 0.0066675022 1.1620779 13891069
0.020935889 0.0066982061 1.1610571 12969723
0.030906754 0.0071917698 1.1615938 9946095
0.040989585 0.0072250813 1.1616398 10013177
0.050658979 0.0093674958 1.1610787 7449069
0.057337433 0.011367686 1.1630182 5411552
0.10096622 0.0055019855 1.1589086 6526426
-0.045809112 0.011579745 1.1666762 6264275
-0.038331203 0.012612119 1.1639203 5803990
-0.028832546 0.013513505 1.1620922 5345755
-0.018868042 0.015042089 1.1617551 5412839
-0.0092845 0.015885867 1.1619246 5676266
-0.00014754198 0.015181541 1.1639521 7253489
0.0096148094 0.015282266 1.1617488 8436213
0.01960841 0.013328813 1.1603734 12051453
0.033901341 0.018150344 1.1599175 10082302
0.041753814 0.017620392 1.1596336 10607102
0.050253019 0.017002031 1.159326 7515119
0.057348453 0.016562574 1.1604041 6068200
-0.0072278678 0.021490112 1.1614103 6001365
-0.0027940962 0.021608651 1.1612544 6396124
0.10945016 0.030380815 1.1573685 6447199
0.0002306588 -0.2106832 1.1667101 3039391
0.0078049498 -0.20992558 1.1679506 3039135
0.01920359 -0.21017595 1.166043 3104930
-0.029080821 -0.2002922 1.1678582 2776478
-0.02261571 -0.20103824 1.1696225 2842271
-0.012601577 -0.20243546 1.1714363 2907807
-0.0033158511 -0.20405301 1.1716044 2908063
0.0067550875 -0.20464644 1.1723464 2973600
0.017024167 -0.20338377 1.1715287 3105187
0.026901519 -0.20275788 1.170265 3236773
0.036538348 -0.20115262 1.1692594 3237029
0.047480397 -0.20094649 1.1689404 3171237
0.057066731 -0.20161386 1.1662921 3171236
0.066517025 -0.19979452 1.165399 3105444
0.075284995 -0.19806063 1.1641828 3171493
-0.041383766 -0.19178471 1.1715859 2841758
-0.03320238 -0.19388326 1.1720744 2907551
-0.024171112 -0.19478112 1.1745703 2842271
-0.013422063 -0.19569631 1.1753571 2908064
-0.0066504534 -0.19664037 1.1751071 2973857
0.014699208 -0.19606957 1.1743565 3105444
0.027532626 -0.19472636 1.1739157 3237030
0.037556216 -0.19486512 1.1727585 3302823
0.04718411 -0.19382465 1.172305 3171495
0.056483813 -0.19216083 1.1715244 3105703
0.066184275 -0.1921578 1.1709718 3105703
0.075901896 -0.19137782 1.1687342 3105702
0.084063724 -0.18862252 1.1656864 3105958
-0.052910253 -0.18437457 1.1705183 2973598
-0.044722758 -0.18592703 1.1745677 2907551
-0.034720257 -0.18754628 1.1761976 2908065
0.077583216 -0.18296431 1.1722655 3237288
0.086290106 -0.18198958 1.1695211 3302823
0.094786689 -0.17968476 1.166258 3237287
-0.062559955 -0.17337444 1.1721869 3105183
-0.054899462 -0.17658232 1.1751444 2974112
-0.046482086 -0.17857876 1.1767087 2842786
0.087689593 -0.17521659 1.1719888 3171750
0.096169196 -0.17136335 1.1703945 3172008
0.10402847 -0.16934752 1.1658009 3303081
-0.071009979 -0.16388956 1.1703942 3104930
-0.064515457 -0.16610661 1.1761448 3170978
0.098483175 -0.16296992 1.171735 3303337
0.10613443 -0.16121927 1.1692307 3368873
0.11292196 -0.15969412 1.1657995 3237543
-0.081100464 -0.15139027 1.1728846 3040164
-0.074244983 -0.15497793 1.1737274 3105701
-0.067605689 -0.15926692 1.1776605 3302822
0.10754821 -0.15218386 1.1715273 3303597
0.1147262 -0.14951371 1.1669343 3238059
0.1216547 -0.14625046 1.1650856 3303852
-0.083667286 -0.14513496 1.1741532 3106213
-0.075705841 -0.14701374 1.1780764 3172007
0.1155342 -0.14046735 1.1711673 3369387
0.12332442 -0.13997605 1.1670936 3435181
-0.091170125 -0.13506669 1.1720788 3237030
-0.084431842 -0.13561016 1.1761706 3237800
-0.077886909 -0.13891515 1.1782389 3303594
0.11719933 -0.13437441 1.1713724 3500972
0.12537318 -0.12983885 1.1678782 3500976
0.12980789 -0.12676109 1.1630001 3500977
-0.092489205 -0.12586203 1.1740013 3237545
-0.087644547 -0.12744422 1.1778158 3303852
0.12702408 -0.12031064 1.1711721 3566772
0.1302104 -0.1205105 1.1670543 3566515
-0.095249824 -0.11622475 1.1743395 3369389
0.12762927 -0.11075798 1.1712511 3763639
0.13079196 -0.10968142 1.1662581 3763639
-0.1024603 -0.10255388 1.1728209 3435181
-0.096881174 -0.1061305 1.1758258 3435438
0.12797952 -0.099658445 1.1713554 3895737
0.13277303 -0.099350892 1.1660087 3764149
-0.10209317 -0.096077695 1.1739434 3435438
-0.09656623 -0.09660811 1.1778063 3501231
0.12783149 -0.094036952 1.1714197 3961530
0.13291727 -0.089859903 1.1661034 3961528
0.13990983 -0.086262137 1.1630679 3895735
-0.10203429 -0.086828575 1.1746389 3501489
-0.097674184 -0.086522862 1.177372 3501490
0.12735778 -0.076048173 1.1716257 4159679
0.13301912 -0.080520473 1.1666476 3962041
0.13985102 -0.08402878 1.1630936 3895735
-0.10273156 -0.079492196 1.1737401 3501747
-0.097917028 -0.076202936 1.1762725 3567541
0.1264409 -0.069697171 1.171725 4225473
0.13000248 -0.070058502 1.1675922 4159424
-0.096449621 -0.065996572 1.1752604 3764919
0.12595764 -0.060834382 1.1718353 4422597
0.12973693 -0.059974082 1.1677077 4357059
-0.096220776 -0.056213047 1.1751837 3896505
-0.09131445 -0.056017477 1.1795864 3962298
0.12555316 -0.05021935 1.1719613 4685767
0.12947138 -0.049889669 1.1678231 4422851
-0.095065936 -0.047032505 1.1734095 4027836
-0.089915074 -0.045190655 1.1785591 4028094
0.12332612 -0.03965776 1.1700321 4948684
0.12909642 -0.04134427 1.1649243 4751818
-0.093641043 -0.038867809 1.1718438 4093632
-0.087958507 -0.035332017 1.1775297 4094399
0.11638574 -0.02946277 1.1725044 5080784
0.1205525 -0.030363858 1.167544 5211343
-0.084987871 -0.0267905 1.1760306 4094402
-0.078453027 -0.023581207 1.178471 4226244
-0.071976647 -0.021747768 1.1792614 4620744
-0.018070275 -0.019181445 1.1773779 5412064
0.0044030566 -0.018580593 1.1765877 6463211
0.012568025 -0.02220086 1.1762602 6397929
0.022229301 -0.02130162 1.1759273 6397929
0.031404886 -0.019144505 1.1756248 6003432
0.11305176 -0.020241469 1.1702179 5081042
0.1181447 -0.023148328 1.164503 5081041
-0.077481821 -0.015682139 1.1733828 4160963
-0.069250584 -0.014585987 1.1783824 4752075
-0.054264441 -0.011148408 1.1787452 4949201
-0.047507644 -0.011530302 1.1785016 5016022
-0.037929684 -0.012386605 1.1774861 5213659
-0.028104709 -0.013021871 1.1765667 5411552
-0.018232336 -0.013545051 1.1766423 5740773
-0.0081053097 -0.013289571 1.1770867 6003172
0.001992302 -0.013011985 1.1763314 6331366
0.011987993 -0.012689412 1.1733787 6989552
0.022094525 -0.012427978 1.1734235 6792432
0.032147955 -0.012144208 1.1724198 5937640
0.040683396 -0.011026613 1.1743807 5806054
0.051389799 -0.0094487444 1.1750184 5674725
0.05810219 -0.0081441924 1.1747943 5674983
0.10395821 -0.0094496533 1.1731553 5146841
0.10982244 -0.011290066 1.16721 5080789
-0.074375421 -0.0070635974 1.1714954 4554184
-0.07084737 -0.0061769709 1.1743817 4751049
-0.055509932 -0.005533345 1.176847 4818129
-0.048102722 -0.0053238571 1.175786 5015507
-0.038692221 -0.0050195754 1.1720535 5147609
-0.028640224 -0.0047314838 1.1703993 5346018
-0.018906226 -0.0048835352 1.1726656 5937898
-0.0084395763 -0.0053529069 1.1725121 6462952
0.0019555818 -0.0043168515 1.171265 8303605
0.011287333 -0.0041587725 1.1699195 8501495
0.021132248 -0.0048645288 1.1687493 7252467
0.032445811 -0.0040287599 1.1691968 6069484
0.041587278 -0.0027062744 1.1697487 6135528
0.051809549 -0.0028522834 1.172483 5741031
0.06124118 -0.0024223998 1.1737425 5543655
0.070712507 -0.00088340044 1.1744237 5477092
0.080732964 0.00071153045 1.1740854 5739747
0.092101045 0.00076542795 1.173683 5280481
0.10125095 -0.0015736818 1.1696392 5015513
0.10670485 -0.0033740923 1.1671177 4949463
-0.067855529 -0.00018446147 1.1713367 4818122
-0.058457196 0.0010600984 1.1710167 5147606
-0.049796373 0.0020366311 1.17072 4818639
-0.041070215 0.00053165853 1.1703949 5344472
0.003557275 0.0022835433 1.1688316 12971007
0.0080361981 0.0018445551 1.1686683 12905215
0.032589398 0.0025010034 1.167805 5807584
0.045982055 0.0028590634 1.1673341 6004710
0.052015439 0.0039782077 1.167132 5807083
0.060809277 0.0066655725 1.1689833 5477863
0.069406301 0.0064308569 1.1712112 5542628
0.081403114 0.0037296787 1.1740934 5673698
0.09185718 0.0059857443 1.1722455 5804766
0.097320564 0.0042316392 1.165529 5147865
0.063544877 0.014503308 1.166834 5412324
0.00028723851 -0.19942153 1.1788347 3039650
0.0067469105 -0.19989391 1.1786008 3039650
-0.020215204 -0.19206738 1.1796386 2842271
-0.013450375 -0.19188654 1.1794008 2973857
-0.0030616466 -0.19271503 1.180288 2973857
0.0067719072 -0.19421996 1.1811875 3039395
0.017344056 -0.19199356 1.1800872 3171237
0.02657895 -0.19031987 1.1790659 3237030
0.0369169 -0.18949826 1.1791803 3302569
0.045244373 -0.1894145 1.1786808 3237546
-0.040141292 -0.18211749 1.1804495 2908065
-0.032545656 -0.18288204 1.1801722 2973857
-0.023790134 -0.18442377 1.1808465 2973857
-0.013963481 -0.18607557 1.1815991 2973858
-0.0055903532 -0.18670264 1.1831794 3105444
0.026085427 -0.18585575 1.1820657 3237030
0.037735555 -0.18403399 1.181672 3302825
0.046635747 -0.18333724 1.1810559 3171754
0.056437284 -0.18357427 1.1790127 3171752
0.066738985 -0.18286851 1.1780663 3171753
0.075071953 -0.17952232 1.1773942 3237546
0.083185449 -0.17688498 1.1761336 3303592
-0.0515576 -0.17296144 1.1809504 2908579
-0.043243818 -0.17493272 1.1826364 2908579
-0.033347741 -0.17614895 1.1831825 3105444
-0.024619943 -0.17769665 1.1839485 3105443
0.069966808 -0.17562087 1.180618 3303339
0.077885412 -0.17311972 1.1790295 3303082
0.086144365 -0.17076576 1.1766649 3237545
0.091967575 -0.16761898 1.1759198 3303850
-0.060874447 -0.16192153 1.1813967 3302822
-0.054075353 -0.16607235 1.1833636 3040165
-0.04679326 -0.16968083 1.1848187 3040167
0.081041127 -0.16626309 1.180324 3303598
0.086959466 -0.16209772 1.1792163 3238061
0.095392622 -0.15978687 1.1769927 3303596
0.10297494 -0.15716457 1.1756396 3369131
-0.070923127 -0.15165377 1.1818608 3171751
-0.064358093 -0.15512864 1.1830043 3368615
-0.057272844 -0.1586339 1.1853063 3171751
0.10466797 -0.15055934 1.17715 3369134
-0.073081873 -0.14465585 1.1820109 3369130
-0.066811018 -0.14648321 1.1847714 3434922
0.10559318 -0.14088397 1.1787677 3435183
-0.074984625 -0.13612087 1.1835023 3434923
0.10816141 -0.13371995 1.1789044 3501232
0.1148113 -0.13040175 1.1780915 3435694
0.12139929 -0.12844947 1.1752886 3501232
-0.083504453 -0.12519775 1.1835855 3369646
-0.077633597 -0.1288151 1.1850072 3435182
0.1183421 -0.12109007 1.179477 3567282
0.12235222 -0.12042308 1.1771586 3567027
-0.092257366 -0.11271264 1.1830264 3501231
-0.087475963 -0.11654816 1.1855685 3435439
0.11813346 -0.11316667 1.1795677 3829686
0.12309603 -0.1102 1.177644 3829431
-0.092346482 -0.10932831 1.1830652 3501231
-0.087990351 -0.10598968 1.1846136 3567024
0.12517013 -0.1007667 1.1781144 3830201
-0.092717819 -0.095226988 1.1832266 3632818
-0.08940164 -0.095881924 1.1851035 3698612
0.12698281 -0.090096712 1.1774954 3896507
-0.092970327 -0.085638084 1.1833364 3633333
-0.089024805 -0.085760534 1.1859971 3764919
0.12653208 -0.079891488 1.1771183 4093886
-0.093653031 -0.076850906 1.183453 3633334
-0.089530297 -0.075843543 1.1865196 3830201
0.12330345 -0.070358396 1.1780556 4291523
-0.089432813 -0.065518178 1.1850903 3896506
0.12251626 -0.059884604 1.1775711 4619975
-0.086405516 -0.055883911 1.185132 4028348
0.11643445 -0.048647553 1.1803063 5146320
0.12088177 -0.050738797 1.179126 4883148
-0.084987804 -0.046411652 1.1837518 3962814
-0.079956658 -0.044947159 1.1861621 3963072
0.1151578 -0.039834548 1.1789433 5146577
0.11888934 -0.041334733 1.1767939 5080527
-0.083863087 -0.037303418 1.1835219 4028607
-0.077660732 -0.035414718 1.1854566 4291526
-0.027774354 -0.03211429 1.1855912 5147865
-0.020313883 -0.031688288 1.1853312 5344731
-0.0040473305 -0.030347213 1.1847688 5345501
0.0027403384 -0.030165739 1.1845301 5739743
0.012921944 -0.032110654 1.1828147 5936862
0.021980384 -0.031880543 1.1828296 5871068
0.032183371 -0.03051126 1.183483 5739228
0.05025401 -0.028895423 1.1828595 5213656
0.11304586 -0.031005315 1.1790109 4949970
-0.076156519 -0.027896836 1.1833476 4422856
-0.067793198 -0.022930183 1.1849228 4686797
-0.057456434 -0.021527357 1.1847532 4884690
-0.046979152 -0.022703171 1.1858704 4950486
-0.036543302 -0.023173906 1.1846617 5213659
-0.028017202 -0.024096459 1.182482 5279707
-0.017822048 -0.024966136 1.1825118 5345244
-0.007712787 -0.02306205 1.1820846 5411808
0.002159277 -0.023909941 1.1815236 5806052
0.011536622 -0.026775271 1.1802514 6068964
0.023572894 -0.026829764 1.1798242 6068963
0.033570211 -0.024191625 1.1804214 6003173
0.04200463 -0.022257172 1.1810203 5608417
0.052216686 -0.022000305 1.1812614 5411038
0.059125394 -0.021861978 1.1826191 5279709
0.10369523 -0.018902503 1.1801469 5212630
0.1093686 -0.02232264 1.1781651 5015248
-0.064310983 -0.017137811 1.1830409 4949712
-0.057546146 -0.016956948 1.182803 4949713
-0.047398895 -0.01668565 1.1824462 5016279
-0.037993394 -0.016810484 1.1821116 5213659
-0.029329637 -0.017331444 1.1817991 5345501
0.043377459 -0.014823124 1.1792486 5871590
0.051818654 -0.01403299 1.1789577 5871847
0.062077992 -0.011548303 1.1806216 5543139
0.069336884 -0.01022806 1.1806641 5280225
0.093896933 -0.0096052215 1.1815157 5411294
0.099700004 -0.010834828 1.1787499 5279196
0.071326606 -0.0050446764 1.1783608 5411556
0.080865569 -0.0030962974 1.1780432 5412066
0.092140287 -0.0027948543 1.1776469 5477344
0.098964535 -0.0048702061 1.1773832 5213404
0.0078383274 -0.18966626 1.1866751 3105189
-0.012700282 -0.18175873 1.1884868 3039906
-0.0029373113 -0.18363777 1.18855 3039908
0.0066860588 -0.1845637 1.1901052 3105447
0.017173095 -0.18347672 1.1871599 3105702
0.026188616 -0.18197766 1.1861056 3171750
0.035155222 -0.18132466 1.1857947 3237289
0.04656031 -0.17915997 1.1854132 3237548
0.056776062 -0.17888686 1.1850541 3171752
0.065856732 -0.17864406 1.1847347 3171752
-0.040662251 -0.17103595 1.1885899 3039909
-0.032769516 -0.17156658 1.1891941 3105701
-0.024492567 -0.17401487 1.1905327 3105443
-0.014709027 -0.1791653 1.1915873 3040163
0.016016984 -0.17743155 1.1905166 3105960
0.02737654 -0.17601284 1.1901289 3105958
0.036397465 -0.17425063 1.1890272 3237545
0.04671897 -0.17290081 1.1875801 3237547
0.056726247 -0.17231447 1.186726 3237544
0.066777721 -0.1718194 1.1864592 3237545
0.075333558 -0.1695902 1.1851612 3303339
-0.052147813 -0.16190988 1.189093 3172009
-0.043564975 -0.16487312 1.1911592 3105961
-0.034123018 -0.1668556 1.1924049 3171752
0.049907602 -0.1660344 1.1894352 3303337
0.05674094 -0.16585171 1.189195 3303593
0.066802524 -0.16460527 1.1888516 3303594
0.075888075 -0.16173252 1.1873089 3303596
0.082566626 -0.16001296 1.1843385 3238062
-0.05975017 -0.15358922 1.1894499 3434409
-0.053867728 -0.15522778 1.1920496 3237547
-0.04543253 -0.15738741 1.1929052 3237805
0.076701127 -0.15442154 1.1886078 3238318
0.085872345 -0.15122968 1.1871955 3238572
0.095921703 -0.15072723 1.1851636 3434926
0.10235775 -0.14993706 1.183743 3369134
-0.062282987 -0.14463624 1.1908654 3435179
-0.056209818 -0.14651157 1.1929568 3369388
0.090367496 -0.14442667 1.1882285 3500977
0.09585534 -0.14072841 1.1870723 3435186
0.10120244 -0.14057268 1.1838824 3500720
-0.071081355 -0.13412309 1.1910568 3566511
-0.065249585 -0.13686618 1.1924891 3566767
-0.057928205 -0.13926882 1.1935387 3500977
0.097134747 -0.13306461 1.1876079 3501234
0.10485457 -0.13038422 1.1846106 3501490
-0.08104898 -0.12119953 1.1905453 3566770
-0.074082352 -0.12562782 1.1928537 3632306
-0.067279391 -0.13039616 1.1939633 3632563
0.10649166 -0.12169471 1.1864834 3699127
0.11381943 -0.120187 1.1841205 3633076
-0.082368061 -0.11565605 1.1916511 3566770
-0.076238818 -0.11642541 1.1944277 3763892
0.10719506 -0.11261763 1.1879666 3633335
0.11372153 -0.11022006 1.1853144 3764407
-0.08270134 -0.10560225 1.1935698 3698868
-0.078302778 -0.10611039 1.1946094 3699126
0.10744944 -0.10063734 1.1880836 3962811
0.1139439 -0.10053878 1.186687 3830969
0.12156724 -0.10052056 1.1835818 3830714
-0.084202349 -0.095661879 1.1918494 3699126
-0.078819267 -0.096114613 1.1947328 3830712
0.11440066 -0.090589747 1.1873425 4028606
0.12243745 -0.090430953 1.1836571 3962300
-0.08384835 -0.086171791 1.192614 3830970
-0.078875259 -0.085744515 1.1948439 3962813
0.11445494 -0.081533939 1.1880362 4291522
0.12218957 -0.08087267 1.1841302 4094399
-0.084410571 -0.076116122 1.192854 3962044
-0.079449289 -0.076311387 1.1949633 4093630
0.11574515 -0.070748597 1.187837 4554438
0.12047389 -0.07132493 1.1839275 4357059
-0.084065229 -0.066055834 1.1925664 4093886
-0.079415396 -0.065232962 1.1950786 4291009
0.11361472 -0.060250696 1.1874002 4686026
0.11953047 -0.060147297 1.1840785 4685769
-0.082693882 -0.058734797 1.1912605 4159935
-0.077660635 -0.056163661 1.1939682 4225985
0.10612911 -0.050498005 1.1886576 5015248
0.11214968 -0.051581256 1.1857644 5014991
-0.074932061 -0.046261061 1.1932356 4292037
-0.069439933 -0.048349991 1.1949027 4619977
-0.046842188 -0.040903825 1.19418 5279449
-0.038869962 -0.040690683 1.1938998 5016538
-0.026312167 -0.041495271 1.1934462 4950743
-0.016754949 -0.042916719 1.1930926 4950488
-0.0076702964 -0.042517316 1.1927748 5147351
0.0027445201 -0.041288588 1.1924186 5278422
0.013332715 -0.043310549 1.1911325 5212886
0.02262757 -0.042389337 1.1899512 5278423
0.032586616 -0.041291181 1.1901101 5147094
0.043532643 -0.041419867 1.1909716 4885460
0.052945249 -0.03965538 1.1899288 4950741
0.062059663 -0.038904518 1.1903415 5016279
0.10433171 -0.040673632 1.1874237 5212370
0.11165896 -0.041605137 1.1845524 5212369
-0.073039703 -0.039239693 1.1931247 4423370
-0.071066663 -0.035986379 1.1926887 4554187
-0.046517633 -0.035868023 1.1939547 5147610
-0.036749244 -0.034857497 1.1918845 5081818
-0.027592042 -0.036888093 1.1915387 5016538
-0.016484959 -0.035155602 1.1912967 5278938
-0.0074035041 -0.034306161 1.1909838 5344730
0.0030418653 -0.034893394 1.18954 5673948
0.013279816 -0.03684799 1.1880891 5805277
0.022360485 -0.036605213 1.1877699 5541848
0.03254633 -0.035196342 1.1874237 5475544
0.042702265 -0.032651789 1.1870905 5213397
0.053388253 -0.032997392 1.1874145 5082070
0.063109383 -0.031974979 1.188776 5016536
0.072038777 -0.029580206 1.1900858 5213915
0.08275117 -0.028316393 1.1897194 5279453
0.093696497 -0.028479882 1.1893297 5213659
0.10314484 -0.031129599 1.187366 5212628
0.10967221 -0.030861303 1.1847359 5146833
-0.070955642 -0.030007914 1.1911466 4554443
-0.045804642 -0.027517051 1.1902814 5016281
-0.038516171 -0.028231397 1.1900156 5147611
-0.007390948 -0.028308466 1.1889116 5411294
0.063242972 -0.021873929 1.1864759 5148123
0.071964271 -0.021647625 1.1863693 5213915
0.082051173 -0.021625437 1.1875522 5213917
0.092815936 -0.021278374 1.1877514 5213659
0.10078923 -0.022775725 1.1854693 5212887
0.093332425 -0.014250323 1.1854897 5279708
0.097872764 -0.014128931 1.18533 5411037
-0.0088845436 -0.17980993 1.1963775 3106213
-0.0031663068 -0.17965704 1.1961765 3105959
0.0081240004 -0.18000953 1.1957726 3105706
0.018562984 -0.17907609 1.1954125 3105960
-0.019929988 -0.17323466 1.1968381 3105700
-0.012448216 -0.17429405 1.1973124 3105957
-0.0032942835 -0.17404932 1.1969905 3106216
0.0070396299 -0.17390376 1.1974764 3106217
0.017651474 -0.17310256 1.1969372 3171752
0.025516775 -0.17239413 1.1963279 3303337
0.036620267 -0.16943252 1.1948739 3369130
0.043482147 -0.16924907 1.1946326 3369132
-0.032803595 -0.16236639 1.1977422 3171753
-0.022990087 -0.16454779 1.1997598 3171752
-0.012626117 -0.16457799 1.2014736 3172010
-0.0033823829 -0.16562219 1.2020857 3172012
0.0066632666 -0.16494758 1.2025328 3237802
0.017283361 -0.16395479 1.2016209 3303338
0.026486412 -0.16373923 1.2014972 3369133
0.036724448 -0.16321048 1.1994188 3369388
0.046816655 -0.16259632 1.1983765 3303853
0.055990294 -0.16115054 1.1960257 3369643
0.066013545 -0.16005842 1.1941662 3303851
-0.050839275 -0.15115914 1.1981658 3303598
-0.042602599 -0.15378876 1.1995617 3303341
