# .PCD v0.7 - Point Cloud Data file format
VERSION 0.7
FIELDS x y z rgba
SIZE 4 4 4 4
TYPE F F F U
COUNT 1 1 1 1
WIDTH 1131
HEIGHT 1
VIEWPOINT 0 0 0 1 0 0 0
POINTS 1131
DATA ascii
0.045081079 0.041028224 1.0302581 5859705
0.050459776 0.03945116 1.0287544 5728122
-0.033422194 0.043215327 1.034044 6713719
-0.027002217 0.044439994 1.0351664 6450807
-0.018891675 0.045081414 1.0331556 6122104
-0.0071321819 0.046652742 1.0326396 6122617
0.0051625296 0.047775082 1.0325134 6057083
0.011526654 0.047927149 1.0331634 6057334
-0.086560681 0.011362217 1.0427052 7832202
0.077676505 0.033724956 1.0355012 5792617
0.080647044 0.033872701 1.035369 5724767
-0.044799887 0.041543029 1.0410489 7764863
-0.025191842 0.046492569 1.0402052 6384242
-0.016280239 0.046935819 1.0398088 6121843
0.16408525 -0.071885236 1.0498897 13950701
0.16710997 -0.071734786 1.0497551 13160147
0.1659524 -0.068757325 1.0498283 13423577
0.16595328 -0.081550524 1.0567439 12898285
0.16995974 -0.082325809 1.056058 12832198
0.16413215 -0.075657651 1.0550086 10136266
0.17091171 -0.075800449 1.0548109 13159885
0.16423313 -0.069374882 1.0564077 12175571
0.16935612 -0.068021938 1.0526839 13093836
-0.13688779 -0.11707189 1.0818805 1720740
-0.13800636 -0.11022134 1.0817677 3628972
-0.13927701 -0.10412966 1.0832815 4745397
0.16578287 -0.08342845 1.0657473 6256041
0.17046018 -0.08588355 1.0657201 12767188
0.16367839 -0.074457258 1.0679079 7312841
-0.13312124 -0.14122367 1.0927501 2903988
-0.13001101 -0.14106899 1.0926117 1324707
-0.1352057 -0.12927406 1.0921783 2904505
-0.13438681 -0.12045012 1.0908535 2644141
0.16744469 -0.10338758 1.0795442 5801403
0.17188519 -0.10351347 1.0793442 11779799
-0.13470739 -0.1093397 1.0890455 3039906
0.16611046 -0.094336249 1.0786678 3630254
0.17233194 -0.094842456 1.0777963 11516624
0.17947613 -0.094466858 1.0790687 13685195
-0.13753816 -0.10052519 1.0916016 2708908
0.16543631 -0.085882738 1.0778826 3762605
0.17031683 -0.089423947 1.0765123 10465738
0.16507421 -0.079042003 1.0738187 6721740
-0.13598749 -0.083110198 1.093295 1588628
-0.13287726 -0.082955495 1.0931566 3826867
-0.12555589 -0.15628678 1.098309 3694011
-0.13093135 -0.14999712 1.096593 7178192
-0.12566522 -0.14949405 1.0975156 2114980
-0.13170455 -0.13855046 1.0967097 1063065
-0.12705468 -0.141151 1.0973836 2447769
-0.13160872 -0.13097596 1.0967597 2578847
-0.1289997 -0.13042882 1.0996498 2907546
0.16801544 -0.11442727 1.0849451 6851775
0.17350031 -0.11367472 1.083203 13029078
-0.13138452 -0.12086768 1.0975729 3104917
-0.12961784 -0.11789604 1.0997673 3170462
0.16609453 -0.10371803 1.0851079 3040417
0.17589051 -0.10654543 1.0831469 13422807
0.17864992 -0.10327589 1.0830466 13619661
-0.1340839 -0.10846415 1.0977829 3104162
0.16442651 -0.095571972 1.0845976 2973607
-0.13381857 -0.10011815 1.098081 3169952
0.16443917 -0.085471652 1.0868145 2843043
-0.1361275 -0.090535849 1.0974102 3301299
-0.1194081 -0.16799477 1.1079597 4750553
-0.11557283 -0.17005131 1.1097752 1196192
-0.12191996 -0.16081578 1.1049205 3036848
-0.11768475 -0.16293046 1.1099209 1789334
0.16552083 -0.14477679 1.0948498 12898004
-0.12134497 -0.14989328 1.1063967 2776475
0.16552046 -0.13565648 1.093814 9087435
0.17093664 -0.1307088 1.090203 13488846
-0.12412636 -0.13927846 1.106375 3038106
0.16480485 -0.12501962 1.0929213 4354994
0.1724287 -0.12264869 1.0901939 13752800
-0.1264098 -0.12968469 1.1079922 2973083
0.16433637 -0.11526793 1.0939208 2121388
-0.13210307 -0.11635993 1.1038938 3301280
-0.12832178 -0.12116376 1.10733 3039132
0.16457018 -0.10716496 1.0918251 2646946
0.18058898 -0.10113265 1.0929853 13817039
-0.13241325 -0.11007071 1.1039528 3366820
-0.12962624 -0.11044624 1.1088303 3105183
0.16250043 -0.095038258 1.0955418 3631271
0.18153533 -0.098978311 1.0929583 13817037
-0.13296472 -0.098889872 1.1040577 3499424
-0.13005829 -0.099801496 1.1077248 3302563
0.16162765 -0.084810592 1.0948946 3369127
-0.13050331 -0.090307489 1.1075124 3434147
0.16310996 -0.075149871 1.0958663 2908578
0.16863699 -0.07222534 1.0937283 8233160
-0.13579468 -0.079378888 1.1051824 3365295
-0.13029179 -0.080346346 1.1079208 3499689
0.16341652 -0.065542594 1.0956591 4024485
0.16822228 -0.063816875 1.0938072 11192030
-0.13460563 -0.070450097 1.1073381 2181536
-0.12934276 -0.070057511 1.1083062 3433908
0.16248359 -0.060169425 1.0980948 2708114
-0.13321787 -0.062187865 1.1113393 8233201
-0.12942109 -0.063103169 1.1094464 3564980
0.0041287802 0.11677261 1.102459 9935247
0.009784597 0.11795702 1.1022139 9934992
-0.10913756 -0.17873654 1.1181256 929696
-0.10484189 -0.17889835 1.1202419 1984411
0.1567657 -0.16161457 1.1086355 13424882
-0.11072159 -0.16921937 1.1159701 2512540
-0.10586926 -0.17090961 1.1190104 2906513
0.15768528 -0.15561564 1.1061903 8955594
0.16310254 -0.15396774 1.1024001 14080986
-0.11852635 -0.15551284 1.1170189 2381461
-0.11507756 -0.16054709 1.1187677 2776212
0.15737607 -0.14600679 1.1050363 3697834
-0.11922671 -0.14962718 1.1179267 2841752
-0.11674592 -0.15385993 1.1209551 2906774
0.15875916 -0.13601376 1.1055263 2646183
-0.12158599 -0.13917983 1.1191323 2907034
-0.11727135 -0.14320667 1.121055 2775704
0.15895396 -0.12726925 1.1066813 3696546
0.16075513 -0.12263256 1.1060666 3761571
-0.12313145 -0.12978032 1.1178547 2973083
0.16209978 -0.11645183 1.1053833 3368880
-0.12475052 -0.11963516 1.117455 3039134
0.16180602 -0.10484047 1.1050853 3500454
-0.12545547 -0.10920504 1.1172611 3171232
0.16036654 -0.096472785 1.1062238 3631529
-0.12647487 -0.10046958 1.1166687 3302564
0.15815982 -0.086136453 1.1021067 3697839
0.1587228 -0.086388335 1.1050828 3763633
-0.12705173 -0.089938343 1.1175708 3368355
0.1587203 -0.07511685 1.1048776 3436468
0.1728368 -0.070788592 1.1045617 10992842
-0.12523085 -0.079417825 1.1175646 3697068
0.15613632 -0.062327582 1.1093752 3765679
0.15923762 -0.064631 1.1043966 3830452
0.17227389 -0.06656009 1.1046172 11387079
-0.12461656 -0.071581542 1.1153909 3631022
-0.12262571 -0.068264477 1.1148249 3500456
0.15503144 -0.055430561 1.1065824 3830449
0.16164646 -0.055572215 1.1038027 5207985
0.16838396 -0.056287363 1.1075346 10334913
-0.12535322 -0.059599478 1.1175834 3434161
0.1537219 -0.046551388 1.1064504 3893939
0.1607888 -0.046676811 1.1053303 8428221
-0.12594256 -0.049620293 1.1212564 6194370
-0.12146814 -0.047300961 1.1219304 4421311
0.15109599 -0.034861274 1.108706 5734064
0.15761483 -0.038225431 1.1094817 10203587
-0.12046616 -0.04057651 1.1219336 6852289
0.14922795 -0.029005677 1.1067204 8955077
0.01293108 0.093944125 1.1169162 9737616
-0.076351695 -0.21399401 1.1270549 7635861
-0.072830714 -0.2143372 1.1295639 8100012
-0.086957157 -0.20461503 1.130267 10535920
-0.079918616 -0.20692275 1.1275796 5996227
-0.073007584 -0.21075124 1.1295975 6394567
-0.097846411 -0.19403316 1.1228229 8431615
-0.090617947 -0.1961465 1.1252557 1526185
-0.084147386 -0.19825894 1.1290426 1262491
0.13901526 -0.18438855 1.1202797 11717846
-0.10680509 -0.18591237 1.1232828 7571711
-0.09965501 -0.18784313 1.1245055 1917611
-0.092398837 -0.19004175 1.127946 2379673
-0.085391313 -0.19267446 1.1302824 2644619
0.14026321 -0.17744508 1.1202735 5010097
0.14726497 -0.17409889 1.1168374 10599906
0.15425445 -0.17253128 1.1156772 14081762
-0.10003628 -0.1790458 1.1272434 2709143
0.14078167 -0.16680619 1.1203264 2909858
0.14722322 -0.16597429 1.1162214 4026283
0.15464884 -0.16576295 1.1122044 12307424
-0.10780609 -0.16561697 1.123473 2775446
-0.10309492 -0.16962874 1.1261452 2775442
0.14806743 -0.1569816 1.1170671 3105445
0.15273669 -0.15587029 1.1118605 2578854
-0.11009243 -0.15854284 1.1257824 2775449
-0.10556433 -0.16076869 1.1300808 2906778
0.1499725 -0.14708763 1.118454 3564451
0.15309122 -0.1459159 1.1143185 3433893
-0.11431353 -0.15007493 1.1271738 2840984
0.15113448 -0.13885128 1.1200626 3565217
0.15456499 -0.13651124 1.1145866 3499430
-0.11984739 -0.13837512 1.1242082 2841497
-0.11651425 -0.14004587 1.130053 2907290
0.15641753 -0.12580565 1.1169161 3237547
-0.12042099 -0.12895083 1.1259031 2973083
-0.11747305 -0.12932836 1.1301727 3038877
0.15907921 -0.1159866 1.1180501 3827369
0.1614062 -0.11474871 1.1117665 3564710
-0.12191139 -0.11905573 1.1272993 3039391
-0.11901195 -0.12086384 1.1309698 3170977
0.15884234 -0.10589608 1.117951 3565735
0.16098474 -0.10620328 1.1118466 3500198
-0.1223449 -0.11089548 1.1295222 3170977
0.15863524 -0.096870638 1.1173576 3631790
0.1599188 -0.09851256 1.1199577 3434923
-0.12306422 -0.10035573 1.128629 3302823
0.1577431 -0.085450225 1.1176463 3566513
-0.12358572 -0.090355426 1.1273893 3368614
0.1563859 -0.076250494 1.1178116 3632560
-0.12340294 -0.082643367 1.1287711 3565995
0.15463224 -0.066145077 1.1166896 3895728
-0.12114355 -0.067479022 1.1303802 3697842
0.15174255 -0.056305453 1.1154214 4158132
-0.11994959 -0.059093885 1.1291491 3502262
0.15014222 -0.045715015 1.1167703 4027837
-0.11780465 -0.049455654 1.1285355 3698611
0.14491294 -0.034553304 1.1210889 4619197
0.15061074 -0.037321396 1.1152694 4946612
-0.12453631 -0.04330723 1.1250997 7180220
-0.11679032 -0.039987687 1.1319835 4815032
0.14447889 -0.028079003 1.1204873 5209534
0.14877851 -0.026041567 1.1129683 8425655
0.014379425 0.089956559 1.1198257 9474444
-0.048548751 -0.22307193 1.1354198 8300241
-0.067291155 -0.21576519 1.1326724 7642055
-0.059686475 -0.21606518 1.1344678 4815810
-0.052704945 -0.21918628 1.1356339 5210825
-0.077013426 -0.20431738 1.1328264 932767
-0.06981378 -0.20742321 1.1341673 2382238
-0.060960881 -0.21004802 1.1360697 2251168
0.12199681 -0.19769262 1.1279546 6518691
0.12770697 -0.19636784 1.126278 11319227
-0.07898581 -0.19768338 1.134831 2447513
-0.073336817 -0.20089766 1.1366901 2513045
0.12915896 -0.18806684 1.1266487 4617903
0.13605654 -0.18771237 1.1233916 10929103
-0.088983849 -0.18713658 1.1349423 2971544
-0.082874708 -0.19060755 1.1351895 2774929
0.130743 -0.17870337 1.1260301 2909086
0.13548717 -0.17749576 1.1234903 3105187
-0.097216964 -0.17432536 1.1339473 2709911
-0.092250943 -0.1791662 1.1360452 2644371
0.13654649 -0.16762152 1.1241297 3368356
-0.099787302 -0.16784734 1.135929 2775444
-0.094587363 -0.17172518 1.1365173 2709910
0.14051472 -0.15755531 1.1250094 3368613
0.1444945 -0.15437348 1.1232522 3499683
-0.10343025 -0.15944514 1.135834 2841497
0.14205015 -0.15003581 1.1273969 3237027
0.14651626 -0.14707589 1.1245484 3302821
-0.10996079 -0.14815661 1.1352782 2645144
-0.10628451 -0.14972596 1.1376444 2775964
0.14917782 -0.13700534 1.1253507 3237542
0.15304282 -0.13322118 1.1243551 3106215
-0.11216167 -0.13986534 1.1363204 2907291
0.15009944 -0.12740028 1.1258636 3499683
0.15302877 -0.12525724 1.1242222 3303338
-0.11359158 -0.13000761 1.1374015 3039134
0.15423378 -0.11669834 1.1244986 3499947
-0.11953986 -0.11596486 1.1353663 3236770
-0.11702463 -0.12016631 1.1385602 3236770
0.15546218 -0.106121 1.1249262 3500458
-0.11985905 -0.10949301 1.135427 3237027
-0.11794016 -0.10979743 1.1393429 3302821
0.157325 -0.095471293 1.125387 3632048
-0.12033786 -0.099785231 1.1355181 3302824
-0.11839394 -0.10059664 1.1394292 3302569
0.1551585 -0.086678423 1.1254431 3632047
-0.12121581 -0.090746082 1.1356223 3434408
-0.11838235 -0.088272408 1.1395169 3434665
0.15121268 -0.07581117 1.1253339 4026292
-0.12129547 -0.080369681 1.1357001 3631531
-0.11943501 -0.079488948 1.1396271 3631531
0.15086482 -0.067827739 1.1240315 4157366
-0.12161466 -0.073897839 1.1357608 4025255
-0.11862114 -0.068641566 1.1379523 3632304
0.14972864 -0.056076393 1.1237218 4289211
-0.11563668 -0.059484925 1.1373121 3568048
0.14607887 -0.045483086 1.1246288 4094399
0.14868096 -0.049758714 1.1258161 4224702
-0.11470529 -0.053370137 1.1355981 3764911
-0.11137302 -0.048907943 1.1379832 3895729
0.14314827 -0.03720485 1.1256081 4487616
-0.11667439 -0.035368934 1.1388185 6458567
-0.11159056 -0.038887698 1.1379647 3895996
0.14248717 -0.026177242 1.1246612 5735616
0.14915702 -0.0225849 1.1239874 9477559
-0.11632368 -0.032674819 1.1398231 6852289
-0.11307947 -0.032513455 1.1396787 5933254
0.048089866 0.077273034 1.1292347 9474701
-0.010813637 -0.23177132 1.1456779 7248329
0.022004046 -0.23172501 1.1434059 5801654
0.029929832 -0.23019502 1.1425276 5210039
0.042787902 -0.23020178 1.1432858 6328255
0.050437555 -0.22982129 1.1429454 7379645
0.061966762 -0.22912601 1.1424335 8430007
0.069634102 -0.22693142 1.1381012 8625323
-0.049394816 -0.22547978 1.1394447 9678537
-0.03830073 -0.22499102 1.1454837 4422071
-0.028883995 -0.22521359 1.1465352 2778029
-0.019052992 -0.22654173 1.1460848 2513574
-0.011321774 -0.22887245 1.1457214 2315684
0.018584272 -0.22811598 1.1443859 2120102
0.03060516 -0.22751805 1.1438512 2185635
0.043664902 -0.22577196 1.1432781 2186146
0.049182892 -0.22659403 1.1430248 2316696
0.064374305 -0.22364533 1.1423649 4486314
0.07180912 -0.22286138 1.1400349 5997746
0.082826562 -0.21935827 1.1404241 6063288
0.091457121 -0.21747348 1.1411947 6589614
0.099554673 -0.21729003 1.1408329 8757678
-0.055410177 -0.21380091 1.139798 1855898
-0.048434742 -0.2159961 1.142711 2249885
-0.040473618 -0.21795087 1.1463789 2381985
-0.032224394 -0.2196777 1.1467246 3039902
0.085171521 -0.21219376 1.1415143 2841504
0.091154985 -0.21134788 1.1412522 3302564
0.10052959 -0.20861085 1.1395166 4420011
0.11007396 -0.20726085 1.1347128 6984117
0.11925438 -0.20402437 1.1320363 6254993
-0.067014851 -0.20385307 1.1411905 2710418
-0.05898428 -0.20675518 1.1443943 2775447
-0.052039362 -0.20866817 1.1468911 2906776
0.10262534 -0.20061293 1.1404142 3171492
0.11092462 -0.19879848 1.1372522 3237285
0.1189942 -0.19714168 1.1326693 3629215
-0.070059195 -0.19708481 1.1453797 2775191
-0.061654896 -0.20018652 1.1475165 2906012
0.11249322 -0.18951856 1.1387833 3040421
0.1191875 -0.1874688 1.1351084 3105703
0.12496196 -0.18740675 1.1318996 2777257
-0.086264424 -0.18375701 1.1413969 2710677
-0.079163142 -0.18732636 1.1445858 2709909
-0.072670601 -0.19063944 1.1467441 2709910
0.12008437 -0.17906843 1.138711 3368100
0.12736335 -0.17682794 1.1340032 3302561
-0.087673075 -0.17730412 1.1446205 2710421
-0.082574725 -0.17994446 1.1484661 2644886
0.12182158 -0.17122421 1.1401646 3040936
0.12960097 -0.16771503 1.1377517 3237031
0.13571857 -0.1644789 1.1345845 3368615
-0.098080844 -0.16474426 1.1420629 2776209
-0.092227243 -0.16898446 1.1465249 2841240
0.13130474 -0.15915354 1.1398258 3237287
0.13740723 -0.15657255 1.1344225 3302822
-0.0992039 -0.15818229 1.1466982 2710683
-0.094230838 -0.16125757 1.1492561 2841499
0.13936493 -0.14807183 1.1369529 3237541
0.14402182 -0.14508618 1.1329498 3237798
-0.10172222 -0.14974734 1.1474818 2907293
0.14073029 -0.13925153 1.1395458 3237797
0.14510456 -0.13644065 1.1343646 3303334
-0.10877191 -0.13834909 1.1438754 2907805
-0.10622588 -0.13991749 1.1498134 2907805
0.14659441 -0.12701614 1.1369236 3434407
-0.10966012 -0.12908913 1.145507 3039392
-0.10674994 -0.13017829 1.1507076 3039391
0.14805663 -0.11735806 1.1368001 3500202
0.15181175 -0.11420284 1.1312202 3631274
-0.11317092 -0.12010269 1.1475974 3170979
0.14959392 -0.10702186 1.1389344 3631791
0.15269212 -0.10624396 1.1330173 3566510
-0.11403111 -0.10979418 1.148892 3105957
0.14817116 -0.095953725 1.137854 3632305
0.15318389 -0.096746214 1.1316174 3501227
-0.11500801 -0.09978351 1.1467195 3237546
0.14722842 -0.086910293 1.1370814 3698099
0.15162794 -0.087024115 1.1318235 3698094
-0.11485575 -0.090018243 1.1470209 3434923
0.14802971 -0.077590518 1.1376582 3895479
0.15009733 -0.079442807 1.1315461 3895477
-0.11496501 -0.079559609 1.1477205 3566256
0.14779098 -0.066298738 1.1390846 4027579
0.15010175 -0.065575942 1.1356493 4157882
-0.11444516 -0.070606053 1.1470042 3567024
0.14526303 -0.056870427 1.1387552 4159422
0.1493921 -0.056770481 1.1341426 4289724
-0.11271848 -0.060650773 1.1447998 3567791
-0.10947822 -0.058603387 1.1500081 3764403
0.14299583 -0.046919629 1.1374364 4356797
-0.1084538 -0.049548972 1.1439254 3830196
0.13982515 -0.03747429 1.136712 4619718
-0.10741632 -0.038604736 1.1462975 3896507
0.13517934 -0.025802918 1.1374933 4817095
0.1395811 -0.026131675 1.134068 4948420
-0.11541091 -0.029827937 1.1478108 6916535
-0.10792589 -0.029983677 1.147166 5210049
0.13411438 -0.019476756 1.1396997 5013440
0.13844037 -0.018822044 1.1371746 5998788
0.030177027 0.049556665 1.1407076 5859448
0.038269661 0.050054111 1.1384892 6122362
0.043945361 0.050436966 1.1412406 6319482
0.055149868 0.052224897 1.1447551 5330522
0.030470358 0.054038115 1.1392012 5792108
0.038213246 0.055274434 1.138329 5527648
0.043730307 0.05479718 1.1412815 5067354
-0.0049491469 -0.23148024 1.14842 4354997
0.0025343169 -0.2321555 1.1500818 4684224
0.01232987 -0.23135981 1.14818 4289976
0.023147659 -0.22851214 1.1471815 2054307
0.033583462 -0.22854277 1.1467134 2777510
0.039115846 -0.22936702 1.1464593 4026798
0.055550724 -0.22854957 1.1457283 5604271
0.059304386 -0.22671375 1.1455731 4881326
-0.024398396 -0.22208181 1.1493595 3039902
-0.016398666 -0.22260755 1.1494975 2710943
-0.0077287983 -0.22411397 1.1519052 2645152
0.002419062 -0.22650239 1.1547989 2514339
0.012309533 -0.22590169 1.1538259 2514851
0.0220137 -0.22289598 1.1518774 2842787
0.031758174 -0.22196645 1.1492448 2908579
0.041410875 -0.2210955 1.1493076 3039651
0.051667221 -0.22129969 1.1499585 2908578
0.060942784 -0.21996304 1.149302 2778020
0.070767008 -0.21778914 1.1465532 2646433
0.08039026 -0.21998473 1.1446759 5012145
0.091957778 -0.22069199 1.1441522 8955830
-0.037803121 -0.21432188 1.1503022 2841242
-0.02778784 -0.21591821 1.1518914 2775960
-0.018649494 -0.21675862 1.1534109 2841500
-0.0089880787 -0.21848789 1.1567025 2907551
0.022602417 -0.2161786 1.1553025 3105184
0.031778101 -0.21535322 1.1548971 3170722
0.041707449 -0.21485932 1.1544554 3302053
0.051793441 -0.21380416 1.1540107 3170723
0.06222903 -0.21236256 1.1535531 3105188
0.07142482 -0.21109463 1.1514338 3170467
0.080826268 -0.21038064 1.1471276 3236258
0.090692468 -0.20642522 1.1447561 3171236
-0.054954834 -0.20381236 1.1508604 2906776
-0.048277095 -0.20572993 1.1516913 2907033
-0.039631777 -0.20632085 1.1549938 2841497
-0.030054333 -0.20994142 1.1577083 2775704
0.072217479 -0.20559256 1.1531538 3105443
0.081043564 -0.20515355 1.1527611 3105443
0.091575012 -0.20089559 1.151055 3105956
0.099623442 -0.1975877 1.1471773 3105956
-0.066452332 -0.19339016 1.1514508 2644884
-0.059088349 -0.19662471 1.1541004 2775705
-0.050474539 -0.19909728 1.1563659 2841497
0.094841279 -0.19339696 1.1522267 3172006
0.10232024 -0.19063051 1.1509101 3040421
0.10794283 -0.18797466 1.1481745 2974628
-0.075650334 -0.18505244 1.1519228 2645144
-0.068797953 -0.18651074 1.1546671 2710425
-0.063304529 -0.18897644 1.1559174 2776216
0.11098848 -0.17917535 1.1483513 3171493
0.11570566 -0.17667785 1.1450044 3237026
-0.078961492 -0.17721429 1.1547184 2710424
-0.07231991 -0.17913318 1.1583682 2710937
0.11371956 -0.1725314 1.1515298 3302823
0.11969435 -0.16811438 1.1481323 3172005
0.12528516 -0.16468394 1.1470633 3172006
-0.088292979 -0.16625845 1.1526244 2841498
-0.083563 -0.16859299 1.1573238 2907290
0.12200098 -0.16104916 1.1512407 3303592
0.12800926 -0.15735154 1.1496631 3237544
0.13363427 -0.1526548 1.142771 3303337
-0.090394117 -0.15791139 1.1544945 2973342
-0.085377842 -0.16084711 1.1605407 3038879
0.13128047 -0.14942202 1.1502405 3237544
0.13527952 -0.14614755 1.1455467 3303336
-0.099003471 -0.14676593 1.1542454 2973342
-0.092593879 -0.14965779 1.1584419 2973600
0.13828565 -0.13687278 1.1466796 3368872
-0.10090508 -0.13900082 1.1557406 3039392
-0.095195025 -0.13959014 1.1611333 3236259
0.13919711 -0.12739238 1.1484585 3500460
0.14323857 -0.12469198 1.1425407 3434923
-0.10245381 -0.12942837 1.1564152 3170978
0.13983788 -0.1184293 1.1494116 3500719
0.14424974 -0.11567511 1.1458968 3500718
-0.10968249 -0.1185821 1.1539252 3237029
-0.10554187 -0.11980458 1.1597369 3237286
0.14427471 -0.10683231 1.1487337 3697329
-0.11011522 -0.10980838 1.1540074 3237543
-0.10724734 -0.10930037 1.1613902 3172263
0.14501885 -0.097668231 1.1482602 3697843
-0.11075772 -0.10021987 1.1571081 3303340
-0.10851596 -0.099081635 1.1620208 3303852
0.14429696 -0.087249629 1.1487677 3764149
-0.11143607 -0.090451263 1.1542053 3500716
-0.10843347 -0.089008808 1.1620893 3501229
0.14665379 -0.076669745 1.1473078 3764661
-0.11146751 -0.082390532 1.1542645 3566512
-0.10827641 -0.078846604 1.158515 3632306
0.14317134 -0.066621296 1.1474351 3896764
-0.10814992 -0.069208071 1.1585784 3698357
0.13680345 -0.056906145 1.1499885 4291265
0.14043893 -0.057843663 1.1442893 4225217
-0.10700244 -0.060128987 1.1582279 3764408
0.13708134 -0.047271449 1.1493777 4554434
0.13939805 -0.046825286 1.1432709 4488640
-0.10454509 -0.049289167 1.1589962 3895997
-0.10044737 -0.045911759 1.16204 4027323
0.13611385 -0.036499448 1.1484972 4817354
-0.10363028 -0.039665762 1.1555539 3962044
-0.099459238 -0.03830668 1.1612494 4093118
0.12633413 -0.024668626 1.1520237 5014224
0.13167149 -0.027101107 1.1477628 4751563
-0.10310732 -0.029203296 1.1542708 4290235
-0.098039642 -0.028865442 1.158584 4158908
-0.091829881 -0.026294574 1.1617942 4028609
0.12424758 -0.017708898 1.1503875 4817874
0.13066895 -0.017055243 1.1448766 5145287
-0.096083827 -0.022092201 1.1564093 4487616
-0.090655416 -0.019195907 1.1604577 4356800
0.11478661 -0.0056475699 1.1506757 5276623
0.12109613 -0.0083144307 1.1466556 5604813
0.13047677 -0.0090535283 1.1448313 6720449
-0.088842265 -0.012123555 1.1617618 5671109
0.11272126 -0.00019162148 1.1522374 5802961
0.11892913 -0.00061427057 1.1478566 6787017
0.036057994 0.011801355 1.1563329 12972031
-0.019650647 0.018974386 1.1568801 5869264
0.012948626 0.016925111 1.1574057 7515376
0.020444438 0.016928911 1.1570697 8764660
0.030052338 0.016964011 1.1566391 10146554
0.036722735 0.016262546 1.156335 10870005
-0.077929005 0.024453983 1.1535263 8028800
-0.07283397 0.025073871 1.1533023 7305855
-0.01523667 0.020320341 1.1586939 5671370
-0.011926888 0.020484969 1.1585467 5869265
0.011241586 0.021637343 1.157516 6988787
0.015654629 0.021856837 1.1573198 7185904
0.10127323 0.034971662 1.1535747 6314850
-0.071862981 0.030130558 1.1532949 8028802
0.098009802 0.038351871 1.1537453 6117979
0.073226996 0.047730438 1.1469154 5593178
0.075418316 0.047839426 1.1468179 5658970
-0.0031997282 -0.22120678 1.1604277 2973083
0.0023902375 -0.22203958 1.160171 2973595
0.011807027 -0.22114664 1.1604226 2973598
-0.023673395 -0.21111667 1.161418 2842012
-0.017239464 -0.2121852 1.1611218 2776219
-0.0077284221 -0.2142099 1.1622062 2907806
0.001986526 -0.21512297 1.1633998 2907807
0.012555999 -0.21514013 1.1631014 2973599
0.021182248 -0.21234392 1.1600653 3039136
0.031883303 -0.21082658 1.1602637 3170723
0.04180415 -0.21020736 1.1591558 3236770
0.051528998 -0.20925608 1.1580594 3170979
0.060545295 -0.20859401 1.1576598 3170980
0.067105681 -0.20660141 1.1573799 3171236
-0.035181247 -0.20280227 1.1619935 2842012
-0.028310204 -0.20474249 1.1631275 2842011
-0.018560814 -0.20652863 1.1636857 2842012
-0.010150742 -0.20757601 1.1648411 2907805
0.036296338 -0.20665911 1.162765 3302309
0.042187072 -0.20519727 1.1613673 3302308
0.050754819 -0.20463713 1.1596286 3171236
0.061461069 -0.20466048 1.1576469 3171236
0.072070673 -0.20277329 1.1588531 3105443
0.08174704 -0.20036063 1.1577691 3171492
0.088144518 -0.19814932 1.1564971 3040420
-0.056761965 -0.1927672 1.1630331 2841497
-0.047845826 -0.19508123 1.1631507 2907291
-0.039235003 -0.19731954 1.1640989 2907549
-0.032421574 -0.19818732 1.1659069 2907551
0.08462587 -0.19310862 1.1606951 3040420
0.09145157 -0.19090766 1.1585081 3106213
0.099033028 -0.18790635 1.1560823 3106214
-0.058492161 -0.18637751 1.1651585 2907290
-0.051710606 -0.18893713 1.1663376 2973340
0.095295765 -0.18366063 1.1602844 3302823
0.10110309 -0.18096149 1.1576408 3237030
0.10706972 -0.17725551 1.1575779 3237031
-0.07656581 -0.17375699 1.1640573 2841497
-0.067991816 -0.17681944 1.1641848 2842012
-0.061664701 -0.17876673 1.1663563 2907547
0.11182686 -0.16931713 1.1565658 3368361
0.11669848 -0.16581051 1.1554486 3237285
-0.078333378 -0.16792038 1.1641784 2973085
-0.071433857 -0.16782799 1.1666093 3039135
0.11373953 -0.16206974 1.1556079 3368615
0.12011825 -0.15842491 1.1560761 3237799
0.12448222 -0.15487033 1.1551778 3303337
-0.086351439 -0.15535933 1.1646279 2973857
-0.080690831 -0.15862663 1.1659079 3039137
-0.074617818 -0.15922946 1.1680782 3104930
0.12179052 -0.15084466 1.1573294 3172264
0.12779762 -0.14763933 1.1557484 3238059
-0.087899469 -0.14723355 1.1657566 3039650
-0.08361569 -0.15064825 1.1685431 3105700
0.13061592 -0.13775779 1.1571815 3369132
0.13473302 -0.13769777 1.1548413 3434410
-0.091039509 -0.13882302 1.1666726 3171236
0.13215025 -0.12955932 1.1582187 3500719
0.13534784 -0.12708212 1.1568918 3435183
-0.098843083 -0.12709862 1.1653905 3302823
-0.093985148 -0.12886401 1.1678294 3171495
0.13560258 -0.11695816 1.1567709 3566514
-0.10094626 -0.11857118 1.167002 3368873
-0.097138882 -0.11957614 1.1685712 3368875
0.13781382 -0.10763444 1.1557194 3697588
-0.10224067 -0.1095698 1.1683378 3303850
0.13902289 -0.097987719 1.1583656 3763892
0.14205383 -0.097120985 1.1548038 3698099
-0.10413192 -0.09943594 1.1674275 3435181
-0.098157689 -0.099651292 1.1695606 3435438
0.13956697 -0.087827146 1.158986 3829942
0.14225245 -0.087117262 1.1560106 3764149
-0.10355671 -0.08972609 1.1678717 3501229
0.13890886 -0.074483953 1.1591111 3896505
0.1433394 -0.07712914 1.1567094 3830455
-0.10346621 -0.079844326 1.1674764 3632563
-0.099309385 -0.076300703 1.1697795 3567542
0.13608697 -0.067433 1.1567141 4027837
0.14141728 -0.070714496 1.1550215 3896505
-0.10321354 -0.069759116 1.1673321 3829940
-0.09963844 -0.069629103 1.169842 3699127
0.13417056 -0.057914734 1.1581076 4291009
-0.10331932 -0.059606034 1.1668757 3895737
-0.099544235 -0.058637053 1.1699166 4027576
0.13394171 -0.047868848 1.1575224 4422849
-0.10250495 -0.052854039 1.1660867 4158911
-0.098119751 -0.048951048 1.1679201 4093372
0.13338323 -0.038135793 1.1571168 4817355
-0.094863206 -0.039374307 1.1673807 4093630
-0.090175077 -0.035718583 1.1696607 4094397
0.12544978 -0.027776383 1.1582696 5080014
0.13001236 -0.030735858 1.1558194 4883149
-0.0931926 -0.031655043 1.1658211 4028348
-0.088755511 -0.028887913 1.1671435 4028864
0.12047249 -0.018364482 1.1581154 4949202
-0.085658886 -0.019132555 1.1673931 4029123
-0.081461638 -0.01670751 1.1694063 3963586
0.11395459 -0.0088202655 1.1593659 5146069
0.11748641 -0.013029911 1.156508 5080276
-0.085319877 -0.011268213 1.1656141 5342665
-0.078139856 -0.008796826 1.169314 4882633
-0.01500628 -0.0018839389 1.1665326 6070261
-0.0083411019 -0.0015524253 1.1662362 6528744
-0.0016759243 -0.0012209043 1.1659397 8827627
0.013876155 -0.00044736266 1.1652479 10340848
0.022635702 -0.00064861774 1.1648537 8895736
0.030160565 -0.00097497553 1.1645139 6266608
0.10430479 0.0035024956 1.1602205 5475287
0.10887555 0.00022335351 1.1583236 5475028
-0.075058922 -0.0026266128 1.167218 5999306
-0.068467408 -0.0011879057 1.1669328 5540557
-0.060111985 0.0025728494 1.1659178 5803727
-0.047388814 0.0049272776 1.1680335 4950220
-0.03839042 0.0042489544 1.1676252 5016280
-0.028673919 0.0041241422 1.1667882 5411294
-0.018729696 0.0046224669 1.1645039 5806569
-0.0086899679 0.0051192418 1.165699 7120874
0.00086786225 0.0063366964 1.1658798 12379901
0.011352073 0.0063569695 1.162881 13891069
0.021127919 0.0066105872 1.1617701 12969723
0.031089243 0.0073350891 1.1622137 9946095
0.041168623 0.0076007918 1.1621668 10013177
0.050780497 0.0099639669 1.1615118 7449069
0.057428524 0.012122378 1.1633852 5411552
0.10114153 0.0072529316 1.1588877 6526426
-0.045657694 0.009967424 1.167992 6264275
-0.038231105 0.011164814 1.1651651 5803990
-0.028772885 0.012280159 1.1632473 5345755
-0.018849781 0.014037035 1.1628151 5412839
-0.0092870947 0.015101783 1.1628944 5676266
-0.00011815503 0.014613278 1.1648393 7253489
0.009618707 0.014933288 1.162546 8436213
0.019641692 0.013207115 1.1610832 12051453
0.033814874 0.018355459 1.1604846 10082302
0.041674547 0.018005833 1.1601297 10607102
0.050182581 0.017582655 1.1597451 7515119
0.057295829 0.017309509 1.1607589 6068200
-0.0073650312 0.020750605 1.1623482 6001365
-0.002936786 0.020970859 1.1621512 6396124
0.10903508 0.032316603 1.1572118 6447199
0.0054935068 -0.21117511 1.168118 3039391
0.013059344 -0.21024007 1.169287 3039135
0.024442796 -0.21023259 1.1672751 3104930
-0.02403806 -0.20145923 1.1695118 2776478
-0.017541589 -0.20205167 1.1712183 2842271
-0.007481724 -0.20321323 1.172943 2907807
0.0018399786 -0.20461601 1.1730293 2908063
0.011928293 -0.2049754 1.1736798 2973600
0.022157613 -0.20347854 1.1727648 3105187
0.032005928 -0.20262849 1.1714088 3236773
0.041593574 -0.2008042 1.1703107 3237029
0.052524582 -0.20034686 1.1698906 3171237
0.062099122 -0.20079993 1.1671557 3171236
0.07149639 -0.19876561 1.1661714 3105444
0.080210544 -0.19683328 1.1648705 3171493
-0.036499292 -0.19322804 1.1733328 2841758
-0.028267561 -0.19513628 1.1737509 2907551
-0.019195529 -0.19581953 1.1761656 2842271
-0.0084214807 -0.19648486 1.1768554 2908064
-0.00163248 -0.19727328 1.1765454 2973857
0.019690581 -0.19621271 1.175597 3105444
0.032485045 -0.19457534 1.175035 3237030
0.042498164 -0.19448608 1.1737858 3302823
0.052094944 -0.19322523 1.1732413 3171495
0.061346278 -0.1913496 1.1723711 3105703
0.071038626 -0.1911245 1.1717293 3105703
0.080714799 -0.19012654 1.1694006 3105702
0.088782698 -0.18719165 1.1662713 3105958
-0.048202872 -0.18608811 1.1723542 2973598
-0.039945051 -0.18744129 1.1763316 2907551
-0.029893367 -0.18882555 1.1778731 2908065
0.082233898 -0.1816676 1.1728967 3237288
0.090890534 -0.18049949 1.1700699 3302823
0.09930148 -0.17800781 1.1667235 3237287
-0.05808799 -0.17530903 1.174086 3105183
-0.050328821 -0.17833208 1.1769803 2974112
-0.041853689 -0.18013009 1.1784717 2842786
0.092155971 -0.17368984 1.1725091 3171750
0.10052953 -0.16964632 1.1708279 3172008
0.10829786 -0.16746162 1.1661574 3303081
-0.066770531 -0.16602591 1.1723491 3104930
-0.060174271 -0.16807818 1.1780448 3170978
0.10266151 -0.16119844 1.1721275 3303337
0.11024711 -0.15927833 1.1695487 3368873
0.11696599 -0.15760592 1.1660516 3237543
-0.077123359 -0.15375611 1.1749033 3040164
-0.070179537 -0.15718275 1.1756914 3105701
-0.063407406 -0.16130766 1.1795731 3302822
0.11147311 -0.15020697 1.1718111 3303597
0.11854532 -0.14738381 1.1671461 3238059
0.12537952 -0.14396651 1.1652261 3303852
-0.079822019 -0.14755841 1.176181 3106213
-0.071783811 -0.14924332 1.1800351 3172007
0.11918318 -0.13831055 1.1713505 3369387
0.12692241 -0.13765024 1.1672043 3435181
-0.0875737 -0.13767092 1.1741524 3237030
-0.080787525 -0.13804866 1.1781832 3237800
-0.074149475 -0.14119674 1.1801988 3303594
0.12070919 -0.13218036 1.1715262 3500972
0.12874396 -0.12746656 1.1679463 3500976
0.13306169 -0.12429983 1.1630205 3500977
-0.089087039 -0.12849428 1.1760657 3237545
-0.084172487 -0.12995476 1.1798389 3303852
0.13020477 -0.11789455 1.1712028 3566772
0.13335705 -0.11803138 1.1670562 3566515
-0.092065953 -0.11892232 1.1764069 3369389
0.1305902 -0.10833031 1.171254 3763639
0.13368142 -0.10719382 1.1662296 3763639
-0.099603347 -0.10542507 1.1749228 3435181
-0.093915962 -0.1088646 1.1778847 3435438
0.13068536 -0.097225413 1.1713294 3895737
0.1354214 -0.096821062 1.165938 3764149
-0.099375397 -0.098939322 1.1760268 3435438
-0.093802579 -0.099332489 1.17984 3501231
0.13040833 -0.091608681 1.171382 3961530
0.13534757 -0.087329052 1.1660093 3961528
0.14222726 -0.083578862 1.1629013 3895735
-0.099523455 -0.089689575 1.1767004 3501489
-0.095146723 -0.089276567 1.1793925 3501490
0.12952185 -0.073635124 1.1715505 4159679
0.13523903 -0.077988416 1.1665308 3962041
0.1421172 -0.081347391 1.1629223 3895735
-0.10039789 -0.0823735 1.175791 3501747
-0.09563753 -0.078967795 1.1782714 3567541
0.12845971 -0.067306705 1.1716435 4225473
0.13199072 -0.067596346 1.1674789 4159424
-0.094415195 -0.06873294 1.1772221 3764919
0.12777323 -0.058457147 1.1717377 4422597
0.13149375 -0.057520468 1.1675735 4357059
-0.094412722 -0.058946956 1.1771206 3896505
-0.089472137 -0.058627259 1.1814775 3962298
0.12712525 -0.047853962 1.1718427 4685767
0.13099679 -0.047444586 1.1676679 4422851
-0.093486175 -0.049746767 1.1753144 4027836
-0.088332251 -0.047773711 1.1804121 4028094
0.12463769 -0.037351403 1.1699097 4948684
0.13039838 -0.038917463 1.1647527 4751818
-0.09226431 -0.041555405 1.1737168 4093632
-0.086613037 -0.037875246 1.1793419 4094399
0.11748698 -0.027312763 1.1724221 5080784
0.12162784 -0.028130196 1.1674256 5211343
-0.083853997 -0.029271394 1.1777958 4094402
-0.077372842 -0.025906242 1.1801684 4226244
-0.070933498 -0.023922071 1.180895 4620744
-0.017120125 -0.020119354 1.1785092 5412064
0.0053251982 -0.019002944 1.1775109 6463211
0.013568139 -0.022434972 1.1771166 6397929
0.023202658 -0.021314248 1.1766927 6397929
0.032322906 -0.018947095 1.1763006 6003432
0.11392048 -0.018176548 1.1701449 5081042
0.11902659 -0.02097977 1.1643902 5081041
-0.076630637 -0.017999806 1.1750531 4160963
-0.068381466 -0.016701654 1.1799742 4752075
-0.053475894 -0.012918822 1.180191 4949201
-0.046714589 -0.013145581 1.1798862 5016022
-0.037129126 -0.013783574 1.1787845 5213659
-0.027300937 -0.014194667 1.1777761 5411552
-0.017418848 -0.01449009 1.1777622 5740773
-0.0072967634 -0.014000244 1.1781126 6003172
0.002784431 -0.013492018 1.1772639 6331366
0.012742589 -0.012946732 1.1742185 6989552
0.022840392 -0.012452438 1.1741697 6792432
0.032874998 -0.01193969 1.1730727 5937640
0.041399982 -0.010620803 1.1749523 5806054
0.05207254 -0.0087950826 1.1754879 5674725
0.058750734 -0.0073368028 1.1751989 5674983
0.10460774 -0.007589668 1.1731409 5146841
0.1104582 -0.0093095601 1.1671461 5080789
-0.073741205 -0.0093167797 1.1731172 4554184
-0.070208274 -0.0083418116 1.1759689 4751049
-0.054867841 -0.0073387772 1.1782913 4818129
-0.047477446 -0.0069613829 1.1771618 5015507
-0.038111016 -0.0064498708 1.173342 5147609
-0.028083889 -0.005934462 1.1715947 5346018
-0.01832865 -0.0058564842 1.1737716 5937898
-0.0078558009 -0.0060850084 1.1735228 6462952
0.0025008582 -0.0048129112 1.1721778 8303605
0.011813779 -0.0044433028 1.170746 8501495
0.021661231 -0.0049250275 1.169487 7252467
0.032956131 -0.0038277209 1.1698284 6069484
0.042069342 -0.0022935942 1.1702929 6135528
0.052316844 -0.0021971539 1.1729332 5741031
0.061747186 -0.0015469119 1.1741049 5543655
0.071186341 0.00021159649 1.1746954 5477092
0.081163846 0.0020360872 1.1742611 5739747
0.092523493 0.0023508444 1.173754 5280481
0.10168752 0.00021291524 1.1696316 5015513
0.1071582 -0.0014677644 1.1670642 4949463
-0.067383401 -0.0022896975 1.1728826 4818122
-0.058019593 -0.00082977116 1.1724731 5147606
-0.049386665 0.00034526736 1.1720945 4818639
-0.040631466 -0.00095909089 1.1716925 5344472
0.0039275903 0.001816459 1.1697145 12971007
0.0084137619 0.0014803559 1.1695108 12905215
0.032936364 0.0027000755 1.1684201 5807584
0.04631234 0.0033653826 1.167825 6004710
0.052316196 0.0046227127 1.1675649 5807083
0.061062306 0.0075166225 1.1693289 5477863
0.069682486 0.0074856579 1.1714782 5542628
0.081764266 0.0050688908 1.1742558 5673698
0.092146181 0.007560499 1.1723067 5804766
0.097586878 0.0059157163 1.1655443 5147865
0.063596658 0.015409835 1.1671363 5412324
0.005401318 -0.19988444 1.1802154 3039650
0.011867755 -0.20020849 1.1799231 3039650
-0.01525704 -0.19300257 1.181191 2842271
-0.0085006393 -0.19266652 1.1808904 2973857
0.0019121114 -0.19325322 1.1816838 2973857
0.011785574 -0.19452894 1.1824964 3039395
0.022293061 -0.19206235 1.1812936 3171237
0.031477172 -0.19017896 1.1801834 3237030
0.041794039 -0.18911913 1.1802007 3302569
0.050112449 -0.1888448 1.1796243 3237546
-0.035399012 -0.18351233 1.1821622 2908065
-0.027790619 -0.18410239 1.1818167 2973857
-0.01899608 -0.1854403 1.1824138 2973857
-0.0091274697 -0.18686336 1.18308 2973858
-0.00072800182 -0.18729335 1.1845845 3105444
0.030908309 -0.18571982 1.1831772 3237030
0.042509239 -0.18363115 1.182672 3302825
0.051384985 -0.18273111 1.1819725 3171754
0.06117028 -0.18274745 1.1798396 3171752
0.071443871 -0.18180695 1.1787969 3171753
0.079690956 -0.1782714 1.1780401 3237546
0.087729618 -0.17545104 1.1766989 3303592
-0.047018357 -0.17462046 1.1827469 2908579
-0.038646251 -0.17639542 1.1843607 2908579
-0.028720176 -0.17738196 1.1848186 3105444
-0.01995237 -0.17872623 1.1855079 3105443
0.074526921 -0.17448042 1.181302 3303339
0.082370877 -0.17180157 1.1796348 3303082
0.090551376 -0.16926396 1.1771888 3237545
0.096293412 -0.16598576 1.1763828 3303850
-0.056582831 -0.16379702 1.1832533 3302822
-0.049672112 -0.16778514 1.1851671 3040165
-0.042295747 -0.1712212 1.1865635 3040167
0.085379355 -0.16487078 1.1808842 3303598
0.09118969 -0.16057301 1.1797123 3238061
0.099546619 -0.15807411 1.1774058 3303596
0.10705375 -0.15528129 1.175977 3369131
-0.066860937 -0.15376236 1.183786 3171751
-0.060207345 -0.15708216 1.184877 3368615
-0.05302237 -0.16041741 1.1871219 3171751
0.10860777 -0.148635 1.1774565 3369134
-0.069179013 -0.14681566 1.1839397 3369130
-0.062842697 -0.14849108 1.1866467 3434922
0.10932439 -0.13893682 1.1790431 3435183
-0.071264349 -0.13832302 1.1854287 3434923
0.11172788 -0.13171521 1.1791395 3501232
0.11829177 -0.12824675 1.1782577 3435694
0.12480707 -0.12615034 1.1753898 3501232
-0.080032676 -0.1275989 1.1855651 3369646
-0.074067205 -0.13107643 1.186941 3435182
0.12161943 -0.11885274 1.179589 3567282
0.12559173 -0.11809942 1.1772323 3567027
-0.089075908 -0.11532021 1.1850575 3501231
-0.084184267 -0.11903811 1.1875644 3435439
0.12122898 -0.11093605 1.1796632 3829686
0.12610401 -0.10786072 1.177687 3829431
-0.089242689 -0.11193874 1.1850892 3501231
-0.084950715 -0.10849673 1.1865898 3567024
0.12796423 -0.098380975 1.1781166 3830201
-0.089937605 -0.097849354 1.1852214 3632818
-0.086590163 -0.098422959 1.1870692 3698612
0.12952466 -0.087673664 1.1774559 3896507
-0.090410143 -0.088268556 1.1853112 3633333
-0.086438663 -0.088293344 1.1879358 3764919
0.12883529 -0.077482514 1.1770593 4093886
-0.091294199 -0.079499178 1.1854137 3633334
-0.087167896 -0.078389332 1.1884398 3830201
0.12539642 -0.068023995 1.1780043 4291523
-0.087321632 -0.068068117 1.1869859 3896506
0.12436349 -0.057572369 1.1775026 4619975
-0.084517047 -0.058366593 1.1869773 4028348
0.11804947 -0.046471525 1.1802677 5146320
0.12253283 -0.048462737 1.1790514 4883148
-0.083330818 -0.048867717 1.1855621 3962814
-0.078312941 -0.047281604 1.1879226 3963072
0.11655751 -0.037693746 1.178896 5146577
0.12030282 -0.039113011 1.1767159 5080527
-0.082418591 -0.039736595 1.1853007 4028607
-0.076243997 -0.037700623 1.1871738 4291526
-0.026447849 -0.033251487 1.1868415 5147865
-0.019001873 -0.03265439 1.186512 5344731
-0.0027763955 -0.030940361 1.1857967 5345501
0.0040028132 -0.03060317 1.1854951 5739743
0.014210436 -0.032317348 1.1836904 5936862
0.023260919 -0.031878591 1.1836215 5871068
0.033435166 -0.030272968 1.1841778 5739228
0.051457286 -0.028242841 1.1833843 5213656
0.11424324 -0.028915368 1.1789626 4949970
-0.074932896 -0.030155443 1.1850337 4422856
-0.066672273 -0.024993464 1.1865203 4686797
-0.056372583 -0.023353323 1.1862522 4884690
-0.045861192 -0.024284624 1.1872758 4950486
-0.035428755 -0.024517871 1.1859721 5213659
-0.026903955 -0.025249287 1.1837161 5279707
-0.016691608 -0.025883779 1.1836541 5345244
-0.0066332817 -0.023748405 1.1831293 5411808
0.0032501668 -0.024370059 1.1824795 5806052
0.012679056 -0.02702181 1.1811277 6068964
0.024708971 -0.026800089 1.1805899 6068963
0.034647841 -0.023930833 1.1810888 6003173
0.043040536 -0.021801077 1.1816056 5608417
0.053245723 -0.021308415 1.1817521 5411038
0.060161546 -0.021007515 1.1830459 5279709
0.1046268 -0.017028339 1.1801566 5212630
0.11035915 -0.020321876 1.1781305 5015248
-0.063341908 -0.019127198 1.184593 4949712
-0.056585506 -0.018791139 1.1842924 4949713
-0.046450898 -0.018287055 1.1838416 5016279
-0.037048474 -0.018196024 1.1834207 5213659
-0.028378231 -0.018518046 1.1830297 5345501
0.044225305 -0.014341883 1.1798041 5871590
0.052643016 -0.013358243 1.1794337 5871847
0.062857129 -0.010633655 1.1809973 5543139
0.07008373 -0.0091464296 1.1809698 5280225
0.094629653 -0.0079558119 1.1815938 5411294
0.10043398 -0.0090584084 1.1787776 5279196
0.071932241 -0.0039244443 1.1786363 5411556
0.081420437 -0.0017576292 1.1782265 5412066
0.09268111 -0.0011975393 1.1777256 5477344
0.09954869 -0.0031157881 1.1774039 5213404
0.01279687 -0.18993799 1.1879632 3105189
-0.0079011824 -0.18250114 1.1899457 3039906
0.0019026902 -0.1841546 1.1899233 3039908
0.01155868 -0.18485464 1.1913919 3105447
0.021990474 -0.18353385 1.1883477 3105702
0.030959005 -0.18183017 1.187207 3171750
0.039904948 -0.18097156 1.186812 3237289
0.051253114 -0.17854568 1.1863205 3237548
0.061456136 -0.17803818 1.1858667 3171752
0.070525497 -0.17758709 1.1854633 3171752
-0.036100864 -0.17242515 1.1902813 3039909
-0.028192794 -0.17277227 1.190814 3105701
-0.019849686 -0.17502584 1.192082 3105443
-0.0099407434 -0.17994682 1.1930585 3040163
0.020726033 -0.17750841 1.1917009 3105960
0.03204583 -0.17582938 1.1912054 3105958
0.041013259 -0.17386261 1.1900165 3237545
0.051287219 -0.17227904 1.1884713 3237547
0.061270081 -0.17146449 1.1875238 3237544
0.071304612 -0.17073867 1.1871634 3237545
0.079794526 -0.16831625 1.1857815 3303339
-0.047788724 -0.16356486 1.1908689 3172009
-0.039121293 -0.16632433 1.1928629 3105961
-0.029625135 -0.16808562 1.1940261 3171752
0.054333508 -0.16533631 1.1902812 3303337
0.061158329 -0.16499686 1.1899776 3303593
0.071184933 -0.16351983 1.1895386 3303594
0.080187328 -0.16044246 1.1879058 3303596
0.086796992 -0.15857702 1.1848699 3238062
-0.055577345 -0.15542066 1.1912764 3434409
-0.04963515 -0.15691668 1.1938257 3237547
-0.041144922 -0.15887924 1.1946086 3237805
0.080843426 -0.15311143 1.1891801 3238318
0.089925304 -0.14971273 1.1876761 3238572
0.099941395 -0.14898404 1.1855506 3434926
0.10634423 -0.1480494 1.1840689 3369134
-0.058302887 -0.14652485 1.1926944 3435179
-0.052169211 -0.14825445 1.1947341 3369388
0.09427163 -0.14280537 1.1886519 3500977
0.099661939 -0.13898461 1.1874366 3435186
0.10497461 -0.13871381 1.1841972 3500720
-0.067339227 -0.13621673 1.1929425 3566511
-0.061432891 -0.13882111 1.1943274 3566767
-0.054048762 -0.14105177 1.1953149 3500977
0.10076912 -0.13129203 1.1879425 3501234
0.10839734 -0.12844211 1.1848681 3501490
-0.077606469 -0.12352756 1.1924927 3566770
-0.070518747 -0.12778832 1.1947471 3632306
-0.063597783 -0.13239585 1.1958051 3632563
0.10985069 -0.11971247 1.1867056 3699127
0.11711981 -0.11804233 1.1842718 3633076
-0.079042859 -0.11801316 1.1935977 3566770
-0.072872363 -0.11863407 1.1963196 3763892
0.11035813 -0.11061786 1.1881613 3633335
0.11680304 -0.1080773 1.1854435 3764407
-0.079590313 -0.10796488 1.1954961 3698868
-0.075171888 -0.10836891 1.1964962 3699126
0.11033724 -0.09863463 1.188248 3962811
0.11681465 -0.098390028 1.1867914 3830969
0.12440681 -0.098204054 1.1836162 3830714
-0.081335828 -0.098066114 1.1937665 3699126
-0.075917579 -0.098387405 1.1966013 3830712
0.11704785 -0.088431485 1.1874197 4028606
0.12504479 -0.088096924 1.18366 3962300
-0.081193775 -0.088568479 1.1945057 3830970
-0.076211676 -0.0880211 1.1966887 3962813
0.11689962 -0.079375103 1.1880918 4291522
0.1245809 -0.078545712 1.1841133 4094399
-0.081985503 -0.078527853 1.1947275 3962044
-0.077001959 -0.078603432 1.1967916 4093630
0.11793891 -0.068563439 1.1878557 4554438
0.12264373 -0.069040582 1.1839042 4357059
-0.081874892 -0.068463042 1.1944134 4093886
-0.077222489 -0.067526907 1.1968808 4291009
0.11556308 -0.058118541 1.1874142 4686026
0.12144423 -0.057887301 1.1840379 4685769
-0.080684729 -0.06111569 1.193078 4159935
-0.075687557 -0.058422431 1.1957333 4225985
0.10786637 -0.048537731 1.1887177 5015248
0.1138836 -0.049489323 1.1857718 5014991
-0.073194869 -0.048461486 1.1949526 4292037
-0.067641012 -0.050419107 1.1965739 4619977
-0.045228533 -0.042456184 1.1956259 5279449
-0.037266247 -0.042060148 1.1952717 5016538
-0.024697913 -0.042576373 1.1947045 4950743
-0.015114097 -0.043778162 1.1942662 4950488
-0.0060443562 -0.043170381 1.1938639 5147351
0.0043356605 -0.04170296 1.193409 5278422
0.014955455 -0.043483712 1.1920302 5212886
0.024215396 -0.042351615 1.1907611 5278423
0.034147508 -0.041023921 1.1908258 5147094
0.045101017 -0.040898219 1.1915869 4885460
0.054460496 -0.038920011 1.1904533 4950741
0.063558556 -0.037958331 1.1907803 5016279
0.10583171 -0.038760528 1.1874776 5212370
0.1131519 -0.039530259 1.1845412 5212369
-0.071466021 -0.041398689 1.1948079 4423370
-0.06957259 -0.038101897 1.1943463 4554187
-0.045022264 -0.037414834 1.1953859 5147610
-0.03529913 -0.036184777 1.1932236 5081818
-0.026101092 -0.038004749 1.1927981 5016538
-0.015039591 -0.036017459 1.1924499 5278938
-0.0059833825 -0.034959823 1.1920514 5344730
0.0044591054 -0.035309918 1.1905129 5673948
0.014725701 -0.037031814 1.1889725 5805277
0.023795055 -0.036580715 1.1885691 5541848
0.033942111 -0.034938462 1.1881258 5475544
0.044033196 -0.032161467 1.1876932 5213397
0.054726832 -0.032259971 1.1879196 5082070
0.064433835 -0.031010427 1.1891892 5016536
0.073317252 -0.028407276 1.1904112 5213915
0.083993845 -0.026897937 1.1899433 5279453
0.094936006 -0.026810221 1.1894532 5213659
0.10442458 -0.029246546 1.1874087 5212628
0.1109197 -0.028834619 1.184718 5146833
-0.069613576 -0.032126397 1.1927893 4554443
-0.044535667 -0.029058985 1.1916867 5016281
-0.037235409 -0.029605903 1.1913556 5147611
-0.0061280932 -0.028968707 1.1899652 5411294
0.064313419 -0.02091486 1.1868645 5148123
0.073025845 -0.020487957 1.1866771 5213915
0.083119951 -0.020230398 1.187767 5213917
0.093875214 -0.01963494 1.1878663 5213659
0.1018597 -0.020953991 1.1855143 5212887
0.094208792 -0.01260262 1.1855836 5279708
0.098743469 -0.012377068 1.1853819 5411037
-0.0040593557 -0.18044496 1.1977963 3106213
0.0016517546 -0.18016091 1.1975423 3105959
0.012943018 -0.18025422 1.1970353 3105706
0.023353968 -0.17908147 1.196577 3105960
-0.015248807 -0.17412475 1.1983434 3105700
-0.007740574 -0.17501032 1.1987511 3105957
0.0014019515 -0.17455557 1.1983445 3106216
0.011733774 -0.17417076 1.1987349 3106217
0.022318944 -0.17312667 1.198096 3171752
0.030159913 -0.17223877 1.1974128 3303337
0.04117839 -0.16902587 1.1958498 3369130
0.048031718 -0.16868499 1.195545 3369132
-0.028360801 -0.16355368 1.1993407 3171753
-0.018481554 -0.16550332 1.201273 3171752
-0.0081043895 -0.16529042 1.2028913 3172010
0.0011661779 -0.16611984 1.2034206 3172012
0.011197268 -0.16521285 1.2037736 3237802
0.021782856 -0.16397798 1.2027619 3303338
0.030976972 -0.16355078 1.2025528 3369133
0.041180648 -0.16279158 1.200379 3369388
0.051246047 -0.16194771 1.1992425 3303853
0.060362011 -0.16029695 1.1968039 3369643
0.070339985 -0.15897892 1.1948497 3303851
-0.046645492 -0.15276387 1.1999042 3303598
-0.038337938 -0.1551995 1.2012303 3303341
-0.029552771 -0.15654212 1.2042589 3303340
-0.020029342 -0.15754132 1.2066848 3369132
-0.011783151 -0.15901911 1.2063044 3303600
0.021561738 -0.15736058 1.2048212 3303598
0.034209803 -0.15673149 1.2042586 3435186
0.041683655 -0.15635975 1.2039261 3369391
0.051457159 -0.15587363 1.2034913 3369392
0.061077349 -0.15246953 1.2024684 3369390
0.070411533 -0.15089583 1.1984729 3435184
0.079527035 -0.14878044 1.1942754 3369392
-0.047904946 -0.14582184 1.2008113 3369646
-0.040459655 -0.14782736 1.205268 3303853
-0.032934114 -0.1508411 1.2073114 3173034
0.062640414 -0.14424133 1.2030733 3566773
0.070713863 -0.14252147 1.2020563 3566516
0.08027941 -0.14012867 1.1987082 3500977
0.090085 -0.14026517 1.1955489 3500975
-0.058675833 -0.13436928 1.2005755 3632562
-0.049530819 -0.13702577 1.2031494 3501236
-0.041820049 -0.13687022 1.207365 3501494
0.082215264 -0.13098021 1.2022907 3698612
0.089676008 -0.1309227 1.1995904 3567283
0.098277055 -0.12802036 1.1965197 3567283
0.10539719 -0.12457116 1.1932888 3501747
-0.066330805 -0.12508981 1.2009852 3895478
-0.060523592 -0.12736985 1.2032111 3698613
-0.051420279 -0.12791982 1.2069699 3633080
0.083326139 -0.12429088 1.2022887 3699128
0.089714095 -0.12077813 1.2020274 3830713
0.099101186 -0.11991014 1.2004116 3699126
0.1055383 -0.11814582 1.1933285 3633333
-0.068030946 -0.11715148 1.2011182 3961271
-0.061051928 -0.11731584 1.2058094 3896247
-0.05407057 -0.11958727 1.2084831 3764921
0.089265615 -0.11384241 1.2020973 3962300
0.099960074 -0.11079035 1.2011685 3896506
0.10714404 -0.1084777 1.1953279 3764920
