# .PCD v0.7 - Point Cloud Data file format
VERSION 0.7
FIELDS x y z rgba
SIZE 4 4 4 4
TYPE F F F U
COUNT 1 1 1 1
WIDTH 174
HEIGHT 1
VIEWPOINT 0 0 0 1 0 0 0
POINTS 174
DATA ascii
-0.037530169 0.0068665519 1.0674479 5134174
-0.031045618 0.0063433871 1.0650563 5134176
-0.0375048 0.0092346221 1.0715128 4871515
-0.046714999 -0.0085088983 1.0571446 4936281
-0.036681466 -0.0093488395 1.0533918 5199967
-0.031862799 -0.0091352537 1.0526501 5397348
-0.054135054 -0.0051781759 1.0639772 4673880
-0.046776995 -0.0034617186 1.0613959 4870232
-0.037246868 -0.0036207139 1.0603657 5068382
-0.02745416 -0.0034683943 1.059466 5068384
-0.01944178 -0.0031557754 1.0600706 4476504
-0.053659081 0.00080789626 1.0714219 4607822
-0.046823956 0.0022727028 1.0696976 4673623
-0.036050998 0.0023710057 1.0673875 5134174
-0.025650511 0.0032847077 1.0665647 4739419
-0.017832486 0.002398856 1.0658168 4081746
-0.052740071 0.0036467686 1.0794271 4410445
-0.044719424 0.0071370676 1.0775752 4213839
-0.034477361 0.0078502372 1.0764443 4345429
-0.02457062 0.0080803856 1.07456 4016211
-0.016432965 0.0072692558 1.073603 3621193
-0.043521166 0.0099431798 1.0821233 3884109
-0.034140415 0.010855682 1.0815332 3752784
-0.023850692 0.011277512 1.0798904 3621192
-0.016767869 0.011039935 1.077852 3686459
-0.05513544 -0.024051964 1.0532415 4673626
-0.047536727 -0.02172333 1.0498093 4870741
-0.03859568 -0.022076845 1.0475135 5265754
-0.028538771 -0.021501333 1.0467236 5397604
-0.019465359 -0.022271015 1.0492384 4608350
-0.055582792 -0.0161172 1.0591195 4673629
-0.047732409 -0.014676996 1.0554509 4870744
-0.039595924 -0.014821887 1.052662 5134174
-0.027111171 -0.013821736 1.052814 5397606
-0.018360622 -0.016635157 1.0543044 4476760
-0.011483287 -0.016169183 1.0578908 4015442
-0.061019354 -0.016061179 1.069476 3883351
-0.058176279 -0.011436917 1.0663604 4475995
-0.025557797 -0.0098896474 1.0579102 5068641
-0.015919087 -0.009622775 1.0602603 4082513
-0.0093952511 -0.012596734 1.0625504 3752531
-0.058412611 -0.0053545311 1.0744681 4079443
-0.013020393 -0.0044092014 1.0674491 3621705
-0.008457493 -0.0080840513 1.0662882 3751503
-0.013943484 0.00068137795 1.0734094 3490378
-0.044441987 -0.042824503 1.041676 5002588
-0.041284569 -0.042695064 1.0411719 5528419
-0.053862061 -0.03835078 1.0515343 4739163
-0.047374249 -0.036997188 1.0464734 5002333
-0.038043361 -0.036721576 1.0446887 5397092
-0.028564051 -0.036477517 1.0456438 5332066
-0.022288136 -0.037056405 1.0464934 4740695
-0.055415295 -0.03186696 1.0525271 4082256
-0.048888408 -0.030672371 1.0495752 5068120
-0.025988815 -0.031191684 1.0474167 5200736
-0.017250894 -0.030975796 1.050054 4345175
-0.0097630974 -0.031670168 1.0517262 4278096
-0.013887083 -0.023203827 1.0560752 4147028
-0.0087179299 -0.026755936 1.0569557 3819087
-0.0084703378 -0.019705676 1.0615284 3687502
-0.037456896 -0.058072723 1.0358785 5528423
-0.033143725 -0.05762326 1.0356586 5397348
-0.047342598 -0.049890637 1.0415413 4804702
-0.038073994 -0.049113933 1.0395831 5462626
-0.028422106 -0.050621148 1.0399356 5003105
-0.019922037 -0.049279995 1.0421536 4804440
-0.055075176 -0.046262726 1.0522267 3817824
-0.050077125 -0.044499122 1.0461001 4673622
-0.034247834 -0.043850198 1.0435729 5660265
-0.026777813 -0.042756423 1.0437342 5069150
-0.017308123 -0.042670477 1.0457067 4475986
-0.011443328 -0.040258534 1.0485033 4014924
-0.014022181 -0.037606694 1.0496513 4606547
-0.0080254134 -0.036560819 1.0510702 3620428
-0.043899268 -0.067837022 1.03459 4079956
-0.037759252 -0.066110864 1.0315683 5266270
-0.031663753 -0.067609757 1.0321649 5002845
-0.046258569 -0.063083529 1.0393003 4079963
-0.039275028 -0.062385261 1.0348896 5330781
-0.028443445 -0.062238347 1.035947 5002331
-0.024690688 -0.057632156 1.0397041 5001816
-0.020104654 -0.057036676 1.0420748 4540755
-0.015047373 -0.052316181 1.0466233 4213074
-0.037808847 -0.083341919 1.0305592 5265766
-0.038899548 -0.078653134 1.0331503 5068639
-0.030173182 -0.077045716 1.0329521 4214103
-0.046837322 -0.071360849 1.0372167 1580089
-0.02564301 -0.070140898 1.0357711 4145996
-0.02235233 -0.066502914 1.039933 4212054
-0.043924287 -0.086715393 1.0321733 3618132
-0.03863325 -0.087054387 1.0303729 5199718
-0.032006051 -0.086226806 1.0302705 4214875
-0.038588621 -0.13062996 0.98748708 528927
-0.033612337 -0.13076413 0.98611128 1517876
-0.034242667 -0.14616251 0.98381025 4419983
-0.048611648 -0.14156982 0.9910078 1651559
-0.043509405 -0.13825822 0.98923439 1782104
-0.032094046 -0.13724294 0.98413426 4154236
-0.026174197 -0.13857511 0.98813242 3028033
-0.039219033 -0.13896433 0.99732935 2369321
-0.031928826 -0.13560873 0.99421281 2040105
-0.037385397 -0.12572113 1.0116646 4146252
-0.047732897 -0.15266101 0.99175942 5077683
-0.041457087 -0.15255934 0.98782068 4617364
-0.032199666 -0.1523709 0.98601419 4549258
-0.026658677 -0.14711228 0.98844022 6582660
-0.047890801 -0.14341208 0.99968702 7695014
-0.039789602 -0.14176267 1.0019927 2040625
-0.031729806 -0.14023572 1.0014282 2172202
-0.025619876 -0.14249907 0.99613142 2760198
-0.0427122 -0.16531068 0.9848749 4683677
-0.037088085 -0.16508013 0.98397702 3831442
-0.049577575 -0.16111687 0.9913761 3299734
-0.043037385 -0.16075552 0.98768425 4683420
-0.034528073 -0.16147685 0.98637885 3960460
-0.056402158 -0.21396631 0.93041092 3829135
-0.048325419 -0.21339124 0.92954075 4223637
-0.04223413 -0.21336883 0.9281776 3960467
-0.056127757 -0.20920725 0.93852872 3498881
-0.047807239 -0.20828906 0.93739158 3895695
-0.039860267 -0.20763469 0.93748844 3631246
-0.055074267 -0.20091063 0.9465425 3499128
-0.048016369 -0.20102733 0.94471765 4025235
-0.039006595 -0.20177805 0.94507182 3499655
-0.053625397 -0.19437596 0.95343834 3826560
-0.046923805 -0.19455583 0.95258796 4156303
-0.038838968 -0.19666108 0.95211339 3630985
-0.051948018 -0.19208032 0.96300465 3893387
-0.045580931 -0.19031718 0.96145606 4157333
-0.038032569 -0.19152713 0.96175426 3762828
-0.049067177 -0.18939698 0.97095835 3762325
-0.043570671 -0.18470618 0.97041655 4420507
-0.03718802 -0.18654388 0.97045994 3828877
-0.048613124 -0.18237779 0.98292005 4222878
-0.042169727 -0.17982072 0.97835892 4552347
-0.035770625 -0.18230155 0.97849417 3631755
-0.050072748 -0.17359665 0.98713982 3627913
-0.041977052 -0.17234823 0.98328531 4683676
-0.034424946 -0.17392462 0.98472232 3892613
-0.032955654 -0.16704446 0.98965931 3563127
-0.058497205 -0.22372106 0.9249925 3033484
-0.050115649 -0.22594723 0.9240315 2897991
-0.040140182 -0.22470865 0.92288375 3891064
-0.032414533 -0.22544914 0.92316961 2638186
-0.061589986 -0.21801175 0.93265867 666715
-0.051092356 -0.21871859 0.92902786 4813457
-0.037348785 -0.21666262 0.92939937 3499654
-0.029833643 -0.2194764 0.93020874 3561592
-0.060930587 -0.21221524 0.94247127 6722
-0.036380943 -0.21179414 0.93754572 3694979
-0.029640311 -0.21311697 0.93772453 3233144
-0.033628061 -0.20641351 0.94616169 3104639
-0.028640999 -0.20895079 0.94702238 2640231
-0.033195101 -0.20147915 0.95454437 2907007
-0.028386528 -0.20526969 0.95602173 3099492
-0.053916454 -0.19612435 0.9685179 4089741
-0.032444581 -0.19690442 0.96295077 3496061
-0.027527148 -0.20014474 0.96554393 4278874
-0.05070366 -0.19189547 0.97504812 2972810
-0.031790294 -0.19250703 0.97237444 3757171
-0.027737625 -0.19603932 0.97264969 3748927
-0.048897713 -0.1888949 0.97979063 3630740
-0.030511959 -0.18755585 0.97786146 3953004
-0.050868835 -0.23360789 0.92139918 984897
-0.040078826 -0.23120007 0.92305523 4350584
-0.027078718 -0.21909073 0.94221461 4674411
-0.025891561 -0.21674384 0.95064718 6974583
-0.026344867 -0.21114728 0.96037221 3815753
-0.056809917 -0.20436902 0.97302884 5799072
-0.024764843 -0.20364499 0.96689916 5064001
-0.026237685 -0.23273095 0.94326448 7039097
-0.02572779 -0.23064491 0.94873512 7565430
-0.025452819 -0.22595748 0.95606232 8223350
-0.025316287 -0.21773797 0.96081793 9076613
