# .PCD v0.7 - Point Cloud Data file format
VERSION 0.7
FIELDS x y z rgba
SIZE 4 4 4 4
TYPE F F F U
COUNT 1 1 1 1
WIDTH 174
HEIGHT 1
VIEWPOINT 0 0 0 1 0 0 0
POINTS 174
DATA ascii
0.026748363 -0.0063492507 1.0652788 5134174
0.033245027 -0.007375434 1.0630918 5134176
0.026833728 -0.0041524619 1.069438 4871515
0.016605018 -0.020402417 1.0540296 4936281
0.026656523 -0.022018492 1.0505921 5199967
0.031499423 -0.022221737 1.0500261 5397348
0.0092630796 -0.016668074 1.0607368 4673880
0.01683951 -0.015539087 1.0584843 4870232
0.026348164 -0.016536415 1.0577767 5068382
0.03614141 -0.017253242 1.0572214 5068384
0.04412023 -0.017704517 1.0581138 4476504
0.0099965259 -0.011043571 1.0684379 4607822
0.016997077 -0.010149851 1.0670128 4673623
0.027814627 -0.010956347 1.0650806 5134174
0.03827887 -0.010974638 1.0646551 4739419
0.046007015 -0.012548178 1.06414 4081746
0.010863851 -0.0086130127 1.0765822 4410445
0.019232869 -0.0058083758 1.0751554 4213839
0.029533003 -0.0059996694 1.0744082 4345429
0.039484281 -0.0066115409 1.0728772 4016211
0.047545247 -0.0081321374 1.0721673 3621193
0.020506784 -0.0033025742 1.0798557 3884109
0.029947277 -0.003237009 1.0796273 3752784
0.04028789 -0.0037028044 1.0783584 3621192
0.047392383 -0.0045136511 1.0765567 3686459
0.0069633927 -0.034940168 1.0491904 4673626
0.014867269 -0.033191383 1.0461223 4870741
0.023820253 -0.034279019 1.0441225 5265754
0.033910643 -0.034603387 1.0437037 5397604
0.042774357 -0.036303207 1.0464946 4608350
0.0070145279 -0.027231038 1.0553772 4673629
0.015097224 -0.026380315 1.0520445 4870744
0.023287263 -0.027167127 1.0495335 5134174
0.035796382 -0.027329288 1.0501565 5397606
0.044192322 -0.030993238 1.0518275 4476760
0.050941963 -0.031302452 1.0556648 4015442
0.0012150183 -0.027074084 1.065534 3883351
0.0045826603 -0.022614822 1.0627148 4475995
0.037505005 -0.0237571 1.0554637 5068641
0.047031626 -0.024471328 1.0581529 4082513
0.053166635 -0.028120548 1.0605392 3752531
0.0045907386 -0.016854413 1.0710577 4079443
0.050115652 -0.019828998 1.0656496 3621705
0.054367073 -0.023861408 1.0644931 3751503
0.049432084 -0.014909118 1.0717831 3490378
0.016341545 -0.054157939 1.0372219 5002588
0.019514579 -0.054300871 1.0368326 5528419
0.0069978088 -0.049218781 1.0469294 4739163
0.013769718 -0.04827477 1.0421559 5002333
0.02314828 -0.048792139 1.0407063 5397092
0.032567333 -0.049460463 1.0419961 5332066
0.038727872 -0.050648086 1.043036 4740695
0.0060027912 -0.04266258 1.0481395 4082256
0.012718835 -0.041961864 1.0454664 5068120
0.035542302 -0.044507135 1.0440768 5200736
0.044156939 -0.045200109 1.0470197 4345175
0.051481668 -0.0466462 1.0489179 4278096
0.047980502 -0.038009994 1.0534739 4147028
0.052768625 -0.042055063 1.0543817 3819087
0.053480759 -0.035239667 1.0592523 3687502
0.022129547 -0.069749929 1.0310333 5528423
0.026470944 -0.069692008 1.0309808 5397348
0.012818805 -0.06091594 1.0366912 4804702
0.022187483 -0.060922273 1.0350871 5462626
0.031642273 -0.063325725 1.0357077 5003105
0.040138319 -0.062860928 1.038271 4804440
0.0050461031 -0.057005949 1.0472471 3817824
0.010413285 -0.055475406 1.0413754 4673622
0.026320856 -0.056191973 1.0394235 5660265
0.033847738 -0.055798844 1.0398872 5069150
0.043204118 -0.056662917 1.0421861 4475986
0.049152836 -0.05491202 1.0452815 4014924
0.046783477 -0.052079991 1.0464504 4606547
0.052792013 -0.051647246 1.0481174 3620428
0.014881303 -0.078821331 1.0291152 4079956
0.021263253 -0.077553347 1.0263816 5266270
0.027170384 -0.07962995 1.027124 5002845
0.012785501 -0.074056089 1.033937 4079963
0.019966491 -0.073834956 1.0298023 5330781
0.030718543 -0.074728601 1.0312366 5002331
0.034728054 -0.070636787 1.0353106 5001816
0.039255574 -0.070558853 1.0378605 4540755
0.044543512 -0.066504195 1.0427743 4213074
0.019688394 -0.094654471 1.0246491 5265766
0.018929875 -0.089988716 1.0273957 5068639
0.02776731 -0.089186497 1.0275652 4214103
0.011537644 -0.082158029 1.0314891 1580089
0.032794818 -0.082843028 1.0308257 4145996
0.036241204 -0.079687588 1.0352473 4212054
0.013234994 -0.097509392 1.0259089 3618132
0.018538136 -0.098265097 1.024279 5199718
0.025212172 -0.098048918 1.0244393 4214875
0.016260833 -0.13996923 0.97962916 528927
0.021253174 -0.14050852 0.97842085 1517876
0.019315941 -0.15568267 0.9754554 4419983
0.00515946 -0.15006593 0.98234093 1651559
0.010605038 -0.14717293 0.98088455 1782104
0.022251353 -0.14701849 0.9762271 4154236
0.027869273 -0.14904444 0.980367 3028033
0.01450219 -0.14858399 0.9890855 2369321
0.022180254 -0.14579715 0.98636508 2040105
0.016982947 -0.13613021 1.0040185 4146252
0.0049986541 -0.16121159 0.98265624 5077683
0.011403223 -0.16153702 0.97894335 4617364
0.020701593 -0.16213353 0.97746581 4549258
0.026600568 -0.15750603 0.98029947 6582660
0.0053790491 -0.15230078 0.99095488 7695014
0.013502799 -0.1514959 0.99360502 2040625
0.021683548 -0.15069811 0.99338257 2172202
0.027760111 -0.15330896 0.98820865 2760198
0.009109051 -0.1739949 0.97542363 4683677
0.014760979 -0.17424949 0.97473013 3831442
0.0024100561 -0.16944014 0.98185521 3299734
0.0090918904 -0.16954112 0.97840887 4683420
0.017544128 -0.17099319 0.9773677 3960460
-0.0068562645 -0.21903953 0.91852725 3829135
0.0012665819 -0.21917862 0.91796029 4223637
0.0073822448 -0.21966541 0.91680944 3960467
-0.0064604226 -0.2146433 0.92684227 3498881
0.0019463357 -0.21445316 0.92603141 3895695
0.0099104242 -0.21453872 0.92642891 3631246
-0.0049642306 -0.20679507 0.93522859 3499128
0.0021183006 -0.20749162 0.93364429 4025235
0.0110027 -0.2090832 0.93427622 3499655
-0.0031919256 -0.20069326 0.94243836 3826560
0.0034931879 -0.20145744 0.94181216 4156303
0.011365759 -0.20427945 0.94152796 3630985
-0.0016786642 -0.19893345 0.95214456 3893387
0.0048765056 -0.19770655 0.95089126 4157333
0.012267038 -0.19961813 0.95139778 3762828
0.0011288133 -0.19683661 0.9602983 3762325
0.0070450129 -0.19265532 0.96014309 4420507
0.013228225 -0.19507413 0.96032882 3828877
0.0017621759 -0.1903567 0.97255254 4222878
0.008580083 -0.18823044 0.96832699 4552347
0.014717793 -0.19129424 0.96857798 3631755
0.0009459313 -0.18164802 0.9770844 3627913
0.0092624249 -0.18100354 0.97356635 4683676
0.016580053 -0.18332407 0.97519475 3892613
0.018478645 -0.17680466 0.98046374 3563127
-0.0096201431 -0.22834279 0.91263539 3033484
-0.0014447421 -0.23129368 0.9118706 2897991
0.0086384127 -0.23093696 0.91111952 3891064
0.01624845 -0.23239729 0.91163957 2638186
-0.012471685 -0.22267309 0.92042351 666715
-0.0019509047 -0.22420423 0.9171294 4813457
0.011898382 -0.22344047 0.91805923 3499654
0.01909082 -0.22696453 0.91900778 3561592
-0.0116631 -0.21734561 0.93048763 6722
0.012993149 -0.21900043 0.92643118 3694979
0.019574173 -0.22094521 0.92678601 3233144
0.015892882 -0.21423358 0.93535489 3104639
0.020592656 -0.21725135 0.93627936 2640231
0.016452339 -0.20968781 0.9439472 2907007
0.020837255 -0.21395992 0.94542867 3099492
-0.0042145662 -0.20298873 0.95741236 4089741
0.017294269 -0.20553006 0.95255899 3496061
0.021794962 -0.20930786 0.95518148 4278874
-0.00088224746 -0.19932969 0.96422088 2972810
0.017985595 -0.2015792 0.96217585 3757171
0.021687502 -0.20547819 0.9624418 3748927
0.0010066461 -0.19669396 0.9691444 3630740
0.01949813 -0.19698276 0.96790653 3953004
-0.0027893223 -0.23874475 0.90889478 984897
0.0081037609 -0.23740812 0.91102046 4350584
0.021410128 -0.22729877 0.93110687 4674411
0.022483373 -0.22539899 0.93966633 6974583
0.022169849 -0.22016445 0.94959629 3815753
-0.0080140829 -0.21109954 0.96147114 5799072
0.024174549 -0.21309769 0.95648277 5064001
0.020969069 -0.24098876 0.93161172 7039097
0.021457477 -0.23917161 0.93717933 7565430
0.021877494 -0.23481616 0.94470191 8223350
0.022578271 -0.22683421 0.94980013 9076613
