# .PCD v0.7 - Point Cloud Data file format
VERSION 0.7
FIELDS x y z rgba
SIZE 4 4 4 4
TYPE F F F U
COUNT 1 1 1 1
WIDTH 174
HEIGHT 1
VIEWPOINT 0 0 0 1 0 0 0
POINTS 174
DATA ascii
0.075058937 -0.031359881 1.0666428 5134174
0.081491359 -0.033662431 1.0654744 5134176
0.074949175 -0.029059261 1.0707449 4871515
0.06419152 -0.043697819 1.0541289 4936281
0.074146122 -0.047290221 1.0522684 5199967
0.078891762 -0.04841426 1.0524439 5397348
0.056790173 -0.038405269 1.0596101 4673880
0.064690001 -0.038795844 1.058519 4870232
0.073834755 -0.041574657 1.0592685 5068382
0.083286732 -0.044125274 1.0602088 5068384
0.090815462 -0.04602132 1.0623028 4476504
0.05744141 -0.032724217 1.0672772 4607822
0.064616129 -0.033206612 1.066919 4673623
0.075247407 -0.036089137 1.0666542 5134174
0.085464492 -0.038074091 1.0678173 4739419
0.092743054 -0.041079275 1.0684934 4081746
0.057550531 -0.030186661 1.0754342 4410445
0.066417143 -0.029048219 1.0752624 4213839
0.076489225 -0.031184793 1.0760845 4345429
0.086257726 -0.033699349 1.0760832 4016211
0.093897998 -0.036722079 1.0766166 3621193
0.06744051 -0.02664499 1.0800761 3884109
0.076650813 -0.028349191 1.0812783 3752784
0.086786538 -0.030782849 1.0815938 3621192
0.093793422 -0.0329725 1.080896 3686459
0.052778665 -0.056358576 1.0480316 4673626
0.061233822 -0.056233078 1.0461777 4870741
0.070011571 -0.059046634 1.0455667 5265754
0.079806581 -0.061262123 1.046683 5397604
0.087678477 -0.064475842 1.0507998 4608350
0.053385943 -0.048562035 1.0540777 4673629
0.061882824 -0.049361691 1.0519983 4870744
0.070052117 -0.051757351 1.0507635 5134174
0.082073092 -0.054224432 1.0532739 5397606
0.089281864 -0.059322238 1.0562327 4476760
0.09521234 -0.060736477 1.0610501 4015442
0.04629587 -0.046936378 1.0632378 3883351
0.05082617 -0.043294787 1.0609163 4475995
0.083632112 -0.050832003 1.0587426 5068641
0.092349775 -0.053205639 1.0628495 4082513
0.097261623 -0.057840019 1.0661731 3752531
0.050704941 -0.037320435 1.0691066 4079443
0.095126152 -0.048934847 1.07068 3621705
0.098656423 -0.053730503 1.0702205 3751503
0.094497904 -0.043741673 1.0765899 3490378
0.059985582 -0.077433355 1.0378124 5002588
0.063095748 -0.078180127 1.0379092 5528419
0.050429817 -0.070469514 1.0459443 4739163
0.057883359 -0.070988625 1.0422415 5002333
0.067101911 -0.073300526 1.042233 5397092
0.075929165 -0.075662844 1.04494 5332066
0.081531204 -0.077937163 1.0469121 4740695
0.050532527 -0.063801154 1.0469245 4082256
0.057577446 -0.064467952 1.0452917 5068120
0.079453349 -0.071274638 1.0473975 5200736
0.087252527 -0.073447645 1.0516169 4345175
0.093809664 -0.076159723 1.054616 4278096
0.091384023 -0.066853583 1.0585033 4147028
0.095130026 -0.071682356 1.0601656 3819087
0.09640222 -0.06493704 1.0650196 3687502
0.06354858 -0.094057187 1.0327268 5528423
0.067781679 -0.094811618 1.0333314 5397348
0.055359248 -0.083431549 1.0368221 4804702
0.06468799 -0.085245848 1.0366544 5462626
0.073318332 -0.089343965 1.0387226 5003105
0.081278138 -0.090372875 1.0425373 4804440
0.047008481 -0.077738293 1.0460407 3817824
0.053370975 -0.077461965 1.0410339 4673622
0.068963364 -0.0812058 1.041519 5660265
0.076276757 -0.082205117 1.0431125 5069150
0.084857941 -0.084709123 1.0468094 4475986
0.090511329 -0.083980136 1.0507517 4014924
0.088578083 -0.080713257 1.0515202 4606547
0.094248563 -0.081344388 1.0540729 3620428
0.055069536 -0.10168536 1.0298245 4079956
0.061906837 -0.1017353 1.0280757 5266270
0.067137547 -0.10484655 1.0297241 5002845
0.053233396 -0.096431166 1.0342258 4079963
0.060852945 -0.097711653 1.0312234 5330781
0.070910186 -0.1005381 1.0342772 5002331
0.074982464 -0.097111866 1.0388701 5001816
0.07901828 -0.097781301 1.0420748 4540755
0.084201321 -0.094597563 1.0476916 4213074
0.057381768 -0.11829685 1.0262955 5265766
0.057129331 -0.11346941 1.028849 5068639
0.065835863 -0.11432271 1.0303459 4214103
0.050841209 -0.1042465 1.0316982 1580089
0.071443684 -0.10890703 1.0342662 4145996
0.074740343 -0.10628171 1.0391268 4212054
0.050389692 -0.11984818 1.0265926 3618132
0.055633191 -0.12164129 1.0257915 5199718
0.062129561 -0.122667 1.0269579 4214875
0.05204612 -0.16387516 0.98172957 528927
0.05696718 -0.16538166 0.98129612 1517876
0.052637499 -0.18003131 0.97822309 4419983
0.038952567 -0.17161362 0.98283064 1651559
0.045002379 -0.16984461 0.98218638 1782104
0.057020642 -0.17204303 0.97934371 4154236
0.061481796 -0.17492002 0.9843061 3028033
0.047314201 -0.17164105 0.99089628 2369321
0.055696461 -0.170441 0.9893415 2040105
0.049898736 -0.15930326 1.0059078 4146252
0.036631733 -0.18251345 0.98322916 5077683
0.043331794 -0.18416956 0.98053169 4617364
0.05246155 -0.18654527 0.98048431 4549258
0.058651805 -0.18299304 0.98413175 6582660
0.037477236 -0.17351739 0.99140048 7695014
0.045127541 -0.17413968 0.99524128 2040625
0.053253252 -0.17488998 0.99625146 2172202
0.059414852 -0.17878476 0.99208301 2760198
0.039253205 -0.19610734 0.97682977 4683677
0.044793151 -0.19743752 0.97700214 3831442
0.032672364 -0.19013983 0.98212773 3299734
0.039645139 -0.19161701 0.97973341 4683420
0.047726877 -0.19465816 0.97999787 3960460
0.023540244 -0.23953989 0.9186247 3829135
0.031482216 -0.24121243 0.91929495 4223637
0.037495282 -0.24287459 0.91908777 3960467
0.023540244 -0.23497815 0.92685962 3498881
0.031856179 -0.23638976 0.92732847 3895695
0.039512716 -0.23794307 0.92892742 3631246
0.025254067 -0.22722988 0.93529713 3499128
0.03222945 -0.22929485 0.93480986 4025235
0.040458739 -0.23248917 0.93679482 3499655
0.027076602 -0.22129279 0.94263077 3826560
0.033512779 -0.22331324 0.94303107 4156303
0.040660359 -0.22756213 0.94396973 3630985
0.027456123 -0.21947408 0.95243621 3893387
0.034236606 -0.21953973 0.95217711 4157333
0.040973298 -0.22277455 0.95381528 3762828
0.029383831 -0.21762542 0.96089953 3762325
0.03594448 -0.21462937 0.96159971 4420507
0.041459821 -0.21814944 0.96274316 3828877
0.029432546 -0.2109109 0.97304326 4222878
0.037075065 -0.21025689 0.96987712 4552347
0.042414065 -0.21439916 0.97108459 3631755
0.029630601 -0.20203502 0.97731233 3627913
0.038342424 -0.20308787 0.97508705 4683676
0.044766039 -0.20666745 0.97782713 3892613
0.047075249 -0.20041856 0.98325747 3563127
0.019953299 -0.2483844 0.91247553 3033484
0.027440861 -0.25283474 0.91298628 2897991
0.037407052 -0.25439298 0.91376621 3891064
0.044440612 -0.25722522 0.9154464 2638186
0.017120257 -0.24198736 0.91968548 666715
0.027525522 -0.24557835 0.91803688 4813457
0.040978432 -0.24737443 0.92104417 3499654
0.047151491 -0.25213835 0.92310536 3561592
0.017441332 -0.23652108 0.92970246 6722
0.041656889 -0.24289778 0.92944068 3694979
0.047623694 -0.24602012 0.9308067 3233144
0.044068675 -0.23841551 0.93865246 3104639
0.047921758 -0.24221866 0.9403075 2640231
0.044215251 -0.23372678 0.94718468 2907007
0.047442548 -0.23868123 0.94935524 3099492
0.023450803 -0.22277996 0.95729971 4089741
0.044559427 -0.22947089 0.95578277 3496061
0.047825675 -0.23391779 0.95909369 4278874
0.026382267 -0.21954723 0.96449727 2972810
0.044570632 -0.22535139 0.96535361 3757171
0.047384139 -0.22985896 0.96621561 3748927
0.027994573 -0.2171225 0.96962345 3630740
0.046071846 -0.22090061 0.97120106 3953004
0.025155954 -0.26001334 0.90991569 984897
0.035672583 -0.26065004 0.91365194 4350584
0.047564417 -0.25243366 0.93541884 4674411
0.047711641 -0.25043958 0.94402272 6974583
0.046945445 -0.24486053 0.95373815 3815753
0.017625347 -0.22987819 0.96081746 5799072
0.049224406 -0.23803188 0.96077788 5064001
0.044460122 -0.26577175 0.93598759 7039097
0.044462834 -0.26386482 0.94154656 7565430
0.044594802 -0.25937808 0.94900233 8223350
0.046044283 -0.25147665 0.95406795 9076613
