# .PCD v0.7 - Point Cloud Data file format
VERSION 0.7
FIELDS x y z rgba
SIZE 4 4 4 4
TYPE F F F U
COUNT 1 1 1 1
WIDTH 174
HEIGHT 1
VIEWPOINT 0 0 0 1 0 0 0
POINTS 174
DATA ascii
0.080021232 -0.035440013 1.0698062 5134174
0.086451262 -0.037746176 1.0686318 5134176
0.079903863 -0.033188485 1.0739353 4871515
0.0691626 -0.047596797 1.0571088 4936281
0.07911361 -0.051194154 1.0552386 5199967
0.08385554 -0.052333355 1.0554165 5397348
0.061757214 -0.042349935 1.0626283 4673880
0.069659598 -0.042749248 1.0615591 4870232
0.078794152 -0.045562148 1.0623057 5068382
0.0882359 -0.048150018 1.0632471 5068384
0.095752306 -0.050091878 1.0653433 4476504
0.062398005 -0.036763117 1.0703652 4607822
0.069572553 -0.037261024 1.0700252 4673623
0.080196761 -0.040169567 1.0697615 5134174
0.090404406 -0.042196617 1.0709349 4739419
0.097672418 -0.045229822 1.0715992 4081746
0.062486455 -0.034323916 1.0785524 4410445
0.071356669 -0.033208035 1.078424 4213839
0.081420049 -0.035382181 1.079254 4345429
0.091181599 -0.037923574 1.0792552 4016211
0.098811753 -0.040973619 1.079778 3621193
0.072370298 -0.030865572 1.0832696 3884109
0.081571802 -0.032609567 1.0844822 3752784
0.091699727 -0.035074875 1.0848022 3621192
0.09870293 -0.037275374 1.0841018 3686459
0.057735953 -0.060151845 1.0508217 4673626
0.066197641 -0.060027517 1.0489978 4870741
0.074969709 -0.062857829 1.0483824 5265754
0.084754802 -0.065113649 1.0495048 5397604
0.092603937 -0.068398312 1.0536091 4608350
0.058344033 -0.052430138 1.056963 4673629
0.066845693 -0.053228289 1.0549026 4870744
0.075012542 -0.055631571 1.0536665 5134174
0.087018192 -0.05816184 1.0561874 5397606
0.09420298 -0.063314721 1.0591089 4476760
0.10011326 -0.064803064 1.0639287 4015442
0.05122748 -0.050894886 1.066118 3883351
0.055775519 -0.047238253 1.0638556 4475995
0.08856795 -0.054839596 1.0617015 5068641
0.097265162 -0.057286456 1.0658089 4082513
0.10215308 -0.061973959 1.069093 3752531
0.05564288 -0.041362286 1.0721166 4079443
0.10002667 -0.053117625 1.0736994 3621705
0.10354539 -0.057917178 1.073194 3751503
0.099392608 -0.047994018 1.079669 3490378
0.064919896 -0.081122369 1.0403743 5002588
0.068027668 -0.081878856 1.0404725 5528419
0.055355705 -0.074230179 1.0485573 4739163
0.062820286 -0.074725457 1.0448734 5002333
0.072032474 -0.077062592 1.0448681 5397092
0.080844045 -0.079481632 1.0475761 5332066
0.086433157 -0.081794947 1.0495394 4740695
0.05547329 -0.067574367 1.0496178 4082256
0.062521845 -0.068241023 1.0480007 5068120
0.08437185 -0.075132996 1.0500978 5200736
0.092150755 -0.077378049 1.054317 4345175
0.098690294 -0.080144055 1.0573052 4278096
0.096276902 -0.07087855 1.0612959 4147028
0.10000408 -0.075737268 1.0629126 3819087
0.10127824 -0.069054231 1.0678514 3687502
0.068454735 -0.097693786 1.0351014 5528423
0.072683692 -0.098467126 1.0357111 5397348
0.060280599 -0.087095425 1.0392966 4804702
0.069604874 -0.088933393 1.0391383 5462626
0.078216963 -0.093079895 1.0411861 5003105
0.086160988 -0.094176523 1.0450149 4804440
0.051914256 -0.081490099 1.0485549 3817824
0.058294382 -0.081171326 1.0435731 4673622
0.073874772 -0.084963851 1.0440655 5660265
0.081179976 -0.086002447 1.0456713 5069150
0.089741744 -0.088574365 1.0493666 4475986
0.095383734 -0.08790838 1.0533363 4014924
0.09345682 -0.084645629 1.0541376 4606547
0.099116884 -0.085323028 1.0567014 3620428
0.059964783 -0.10526309 1.0320795 4079956
0.066807799 -0.10531097 1.0303531 5266270
0.072024405 -0.10845624 1.0319816 5002845
0.0581281 -0.10005703 1.0365373 4079963
0.065754242 -0.10132247 1.0335453 5330781
0.075793348 -0.10421318 1.0365987 5002331
0.079859391 -0.10085358 1.0412459 5001816
0.083882503 -0.10157258 1.0444559 4540755
0.089055181 -0.098470829 1.0501277 4213074
0.062243633 -0.12183738 1.0283589 5265766
0.061995726 -0.11704023 1.0309694 5068639
0.070694782 -0.11793554 1.0324851 4214103
0.055723175 -0.10783482 1.0339081 1580089
0.076304056 -0.11258282 1.0364889 4145996
0.079591401 -0.11002515 1.0413916 4212054
0.055246387 -0.1233728 1.028614 3618132
0.060487658 -0.12517068 1.027809 5199718
0.066977225 -0.12622829 1.0289847 4214875
0.056934491 -0.16686276 0.98323131 528927
0.061852861 -0.16837755 0.98279631 1517876
0.057493664 -0.18297724 0.97953314 4419983
0.043816231 -0.17457759 0.98419559 1651559
0.049872991 -0.17281774 0.98359281 1782104
0.06189476 -0.17501515 0.98076421 4154236
0.066331238 -0.17796381 0.98570663 3028033
0.052150432 -0.17472495 0.99228823 2369321
0.060541146 -0.17352954 0.990776 2040105
0.054717809 -0.16257535 1.0074553 4146252
0.041464351 -0.18547496 0.98445535 5077683
0.048168957 -0.18711711 0.98176062 4617364
0.057292309 -0.18951735 0.98171532 4549258
0.063479856 -0.18602628 0.98542589 6582660
0.042306736 -0.17657997 0.99273694 7695014
0.049942281 -0.17726946 0.99659556 2040625
0.058062449 -0.17805433 0.99762392 2172202
0.064227477 -0.18191583 0.99342966 2760198
0.044070374 -0.1989983 0.97790205 4683677
0.049606059 -0.20034577 0.97807693 3831442
0.037487946 -0.19307658 0.98324919 3299734
0.044464726 -0.19454424 0.98086065 4683420
0.052537199 -0.19761069 0.98111564 3960460
0.028436005 -0.24168572 0.91912735 3829135
0.036371075 -0.24338815 0.91980404 4223637
0.042380247 -0.24506433 0.91959709 3960467
0.028420586 -0.23722312 0.92741638 3498881
0.036731005 -0.23866326 0.92789608 3895695
0.04437783 -0.24025682 0.92950189 3631246
0.030126985 -0.22958142 0.93595195 3499128
0.037098318 -0.23165968 0.93546337 4025235
0.045312103 -0.23490036 0.93743736 3499655
0.031940881 -0.22373781 0.94336247 3826560
0.038370132 -0.22578073 0.9437601 4156303
0.045502886 -0.23006032 0.94467157 3630985
0.032292195 -0.22203794 0.95319027 3893387
0.039073311 -0.22211924 0.9529531 4157333
0.045795579 -0.2253921 0.95457488 3762828
0.034196299 -0.22029629 0.9616816 3762325
0.040762685 -0.21732703 0.96243966 4420507
0.046264507 -0.2208758 0.96355921 3828877
0.034222245 -0.21372813 0.97390515 4222878
0.041877184 -0.21305732 0.97077274 4552347
0.047200754 -0.21722856 0.97194827 3631755
0.034430064 -0.20490469 0.97828114 3627913
0.043146461 -0.20595486 0.97607261 4683676
0.04955098 -0.20958483 0.978791 3892613
0.051858846 -0.20340794 0.98430371 3563127
0.024845771 -0.25044584 0.91286039 3033484
0.0323194 -0.25492269 0.91334271 2897991
0.04227861 -0.25651777 0.9141373 3891064
0.049298692 -0.2593894 0.91580695 2638186
0.022005815 -0.24412796 0.92013717 666715
0.032406762 -0.24772768 0.9184804 4813457
0.045844477 -0.24959695 0.92151093 3499654
0.051997516 -0.25440231 0.92353541 3561592
0.022307906 -0.23878317 0.93022001 6722
0.046506733 -0.24522324 0.92996281 3694979
0.05246035 -0.24837826 0.93131125 3233144
0.048899561 -0.24085853 0.93923581 3104639
0.052736636 -0.24469191 0.94085801 2640231
0.049030062 -0.23627293 0.94782412 2907007
0.052236475 -0.24126197 0.94994581 3099492
0.028261445 -0.22539084 0.9580003 4089741
0.049356751 -0.23212147 0.95647383 3496061
0.052599646 -0.23661679 0.95974207 4278874
0.031177353 -0.22225282 0.96524596 2972810
0.04934682 -0.22811715 0.96609342 3757171
0.052145094 -0.2326425 0.96691066 3748927
0.032778915 -0.21989425 0.97040617 3630740
0.050840378 -0.22374102 0.97199887 3953004
0.030025322 -0.2620576 0.91017854 984897
0.040527478 -0.26276815 0.9139421 4350584
0.052367982 -0.25484645 0.93584579 4674411
0.052491538 -0.25295621 0.94447345 6974583
0.051707704 -0.247492 0.95425254 3815753
0.02240479 -0.23251462 0.96141303 5799072
0.053981446 -0.24075466 0.96138138 5064001
0.04922542 -0.2681818 0.93624401 7039097
0.049214527 -0.26634172 0.94182545 7565430
0.049333505 -0.26194513 0.94933486 8223350
0.050787389 -0.25410908 0.9544999 9076613
