# .PCD v0.7 - Point Cloud Data file format
VERSION 0.7
FIELDS x y z rgba
SIZE 4 4 4 4
TYPE F F F U
COUNT 1 1 1 1
WIDTH 1131
HEIGHT 1
VIEWPOINT 0 0 0 1 0 0 0
POINTS 1131
DATA ascii
0.0052691018 0.024584085 0.98898685 5802194
0.01469887 0.024129137 0.98785764 6132189
0.022260901 0.02449967 0.98877788 5737423
-0.012102006 0.026209004 0.99074906 4350608
-0.0032733046 0.026025467 0.99063617 4285852
0.0058381297 0.027965628 0.98925161 4022164
0.014852641 0.029220097 0.98901433 4153228
0.022976318 0.030185647 0.99044651 4284293
-0.079955436 -0.0017565638 0.99971008 6128822
-0.075827815 -0.00040421635 0.99970192 5801146
-0.072594538 0.0048413053 0.99869978 5272735
-0.064892903 0.0075009316 0.99613065 5536936
-0.055727191 0.010541894 0.99454463 5801142
-0.046154074 0.012463354 0.99373758 6263759
0.076501094 0.015681349 0.99835134 5864111
-0.062573805 0.014399201 0.99849957 5270664
-0.053794563 0.017042346 0.99615556 5008273
-0.044580948 0.018210135 0.99509752 5206430
-0.035204437 0.020802908 0.99419695 5074073
-0.026304401 0.021151602 0.99633908 5274031
-0.016375449 0.023442276 0.99371672 5405876
-0.0078667812 0.023872264 0.99362671 5998788
0.00064188614 0.024302259 0.99353677 5802444
0.027206108 0.024685703 0.99422663 5538507
0.035148334 0.024823673 0.99449831 4944316
0.044348329 0.024590693 0.9950161 5008558
0.054916706 0.024785995 0.99672812 4612496
0.061852571 0.022566028 0.99874288 4546960
-0.050712965 0.023549251 1.0001403 5401735
-0.044957586 0.02385588 0.99827898 5270150
-0.034672216 0.024919555 0.99827284 5203846
-0.022283722 0.027136318 0.999156 4875914
-0.014963847 0.029463477 0.99560171 4875142
-0.0054863207 0.030031599 0.99621892 4743815
0.0031711003 0.031412832 0.995978 4678280
0.013699052 0.033675499 0.99607044 4809598
0.026700743 0.032174341 0.99485004 4612484
0.034461655 0.031168304 0.99593151 4677249
0.043814018 0.03080935 0.99709898 5005437
0.053886712 0.031526454 0.99911767 5268860
-0.014096789 0.034930907 1.0000489 5006720
-0.091881931 -0.013020694 1.00811 5932737
-0.087703496 -0.011055499 1.00752 5933251
-0.092525311 -0.007682316 1.0090476 6192539
-0.084678404 -0.0037815496 1.0046203 5930664
0.08940088 0.008791104 1.0056518 6983363
0.096652359 0.0080701709 1.0088766 6061227
0.1019446 0.0090047345 1.0088413 5400966
-0.082375482 0.0046294704 1.0063162 6189971
-0.075868726 0.0080578178 1.0039673 5861520
-0.068367884 0.011159025 1.0029719 5664907
0.068550363 0.017600335 1.0015092 5996731
0.076612949 0.016542085 1.0029247 5731750
0.086154282 0.015359014 1.0062286 5927827
0.094606988 0.0130665 1.0090564 5861518
-0.073547043 0.012710482 1.0084859 6058377
-0.062744007 0.016657472 1.0064094 5467271
-0.057465605 0.020283043 1.0058742 5466762
0.06595052 0.024048649 1.0031416 5268360
0.074504219 0.022638611 1.0064626 5663111
0.082901776 0.020596683 1.0079315 6517124
-0.055750653 0.023233376 1.0071956 5532297
-0.042093404 0.026496075 1.0051299 5204613
-0.035979494 0.029208072 1.0064347 5138821
-0.026332181 0.029185943 1.0038395 4876167
-0.018765021 0.032785349 1.0030407 5138310
-0.0073174145 0.033363871 1.0029197 5138050
0.035293132 0.035517238 1.0024691 5006203
0.044981979 0.035050474 1.0027121 5202812
0.053088211 0.034122176 1.0022097 5203582
0.063144073 0.03039553 1.005774 5597049
-0.033306822 0.03396862 1.0112585 5269636
-0.024862818 0.035163738 1.0086915 5204101
-0.015339673 0.036075048 1.0069783 5072257
-0.0055204649 0.036330603 1.0063918 5006718
0.004027294 0.036810778 1.00499 4875393
0.013679583 0.037303932 1.0078897 4875390
0.024147386 0.037746049 1.0079492 4874877
0.034304209 0.038239054 1.00679 5006460
0.04155571 0.037749939 1.0079653 5202811
-0.10250521 -0.01596687 1.0147513 6980776
-0.096387282 -0.015365563 1.0134951 6129600
-0.10173456 -0.009465754 1.0179454 7570324
-0.094639033 -0.005874306 1.0143688 6651024
-0.088710733 0.00024419278 1.0138863 6781327
0.094724491 0.0056484342 1.0118265 6854356
0.10630192 0.0062816516 1.0135399 7111067
-0.08473853 0.0062167048 1.015149 6583439
0.097082816 0.016961686 1.0129495 6845830
0.10547901 0.014707834 1.0149788 7436672
-0.072943315 0.017701268 1.0178815 6321290
-0.066822708 0.01895459 1.0168276 5795463
0.075699039 0.025897942 1.0166882 5860223
0.085588902 0.021778174 1.0142391 6649473
0.093121514 0.021407209 1.0183384 6977411
-0.073594272 0.022237495 1.0181375 7372164
-0.064192526 0.023047633 1.0167977 6123396
-0.05503767 0.027808629 1.0190022 5729669
-0.046537824 0.028816722 1.0189511 5336195
-0.040012248 0.031699143 1.0142711 5270149
0.065328367 0.03267356 1.0130222 5532277
0.073037617 0.030027382 1.0176492 5860472
-0.055773571 0.032840215 1.0205014 6714755
-0.04671897 0.0332978 1.0204055 5794947
-0.036027957 0.035585232 1.0182456 5466498
-0.02572659 0.038719513 1.0170671 5466240
-0.01527125 0.03973832 1.0181224 5334655
-0.0048434474 0.040451132 1.016517 5138044
0.0041685095 0.04154826 1.0170419 5072252
0.013839289 0.041872568 1.0162419 5072247
0.023506068 0.041826569 1.0157437 5137530
0.033804789 0.041531675 1.0192544 5137788
0.04295174 0.038799264 1.0164857 5268347
0.11361209 -0.0014992282 1.0203803 7374502
-0.1024908 -0.0064352378 1.0269965 9214113
-0.093896568 -0.0020281076 1.0251707 6978442
0.10962249 0.00024922937 1.020483 7112109
0.11389628 0.0046514943 1.0211996 8686741
-0.092310727 0.0038128644 1.0259473 7636109
-0.087180719 0.008203961 1.0251209 7437970
0.11354467 0.012797989 1.0208248 9277068
0.078444839 0.027264215 1.0227005 5992060
0.085134998 0.025455497 1.0251479 6451580
0.092058025 0.024683356 1.0237892 6516347
-0.063360646 0.025303863 1.0243617 6254982
-0.059934124 0.029692553 1.0304596 6648965
-0.04401923 0.029536389 1.0232576 5270660
0.059240174 0.036701404 1.0252278 5662844
0.065170534 0.035632305 1.0252227 5794679
0.073889196 0.033319019 1.0239444 5926261
0.08226949 0.030024476 1.026742 6253428
-0.054103576 0.034878351 1.0252968 7043204
-0.045050159 0.035995148 1.0256385 6188928
-0.034826186 0.039578445 1.0265594 5991293
-0.025177591 0.042215981 1.0266241 5794427
-0.015411664 0.042702757 1.0257202 5597052
-0.0072140582 0.042716943 1.0244204 5399930
0.0020983778 0.043567501 1.023133 5203324
0.012801264 0.044108383 1.0230199 5269365
0.025492601 0.044758148 1.0238864 5334394
0.034732684 0.044158511 1.0257568 5466234
0.041377749 0.042651333 1.0264632 5597049
0.05909327 0.039627694 1.0253203 5991033
0.063739546 0.039726727 1.027554 6055795
-0.02331825 0.044264026 1.0264649 6056827
-0.014332369 0.045735933 1.0299035 5859449
-0.0059883986 0.046341084 1.0287204 5728377
0.0032157535 0.046207167 1.0302054 5532027
0.01388002 0.046185099 1.0300752 5532021
-0.099700019 -0.0048142299 1.0328733 7306630
-0.097784311 -0.0037328452 1.0328835 7438985
-0.081116848 0.014739208 1.0392578 7044228
-0.077233903 0.014981732 1.0362165 6255491
0.087290287 0.027773 1.0316139 6187632
0.092669405 0.028537132 1.0315723 6119529
-0.063529916 0.028126173 1.0334563 6780808
0.054841347 0.036471181 1.0322778 5465215
0.078812465 0.032401092 1.0368633 6056820
0.084928155 0.032065041 1.0350776 5988198
-0.051564544 0.037001275 1.0335865 7108737
-0.045310721 0.040100716 1.0369085 7108222
-0.037024245 0.041674398 1.0335549 6582396
0.045941938 0.043095969 1.0348428 5859705
0.051367801 0.041554131 1.0334784 5728122
-0.032644361 0.045208178 1.0361128 6713719
-0.026265174 0.046404384 1.0374732 6450807
-0.018093646 0.047091983 1.0357444 6122104
-0.0063244775 0.048672743 1.0356506 6122617
0.0059671458 0.049795248 1.035953 6057083
0.012306548 0.049930431 1.0368141 6057334
-0.086019136 0.013168275 1.0422702 7832202
0.078352869 0.035662882 1.0409724 5792617
0.081326045 0.03581313 1.0409409 5724767
-0.044243868 0.043371432 1.0427003 7764863
-0.024621572 0.048335679 1.0426161 6384242
-0.015702032 0.048786439 1.0425217 6121843
0.1643061 -0.070278533 1.0556513 13950701
0.1673335 -0.070125543 1.0556192 13160147
0.16617246 -0.067150429 1.0557257 13423577
0.16595477 -0.080105104 1.0623301 12898285
0.16998193 -0.080864623 1.0617573 12832198
0.16418791 -0.074172109 1.0606775 10136266
0.17097038 -0.07431154 1.060698 13159885
0.16423951 -0.067924559 1.0622287 12175571
0.16948064 -0.066484146 1.0587077 13093836
-0.13752539 -0.11615425 1.0767032 1720740
-0.13864362 -0.10930274 1.0767175 3628972
-0.13996656 -0.10324868 1.078334 4745397
0.16549137 -0.082197443 1.0712758 6256041
0.17016849 -0.084652156 1.0713429 12767188
0.16331229 -0.073279962 1.0735801 7312841
-0.13410211 -0.14055946 1.0871104 2903988
-0.1309891 -0.14040215 1.0870775 1324707
-0.13617362 -0.12859918 1.0867563 2904505
-0.13531697 -0.11974628 1.0856699 2644141
0.16671303 -0.10248065 1.0846393 5801403
0.17115778 -0.10260265 1.0845815 11779799
-0.13558471 -0.1085958 1.0841181 3039906
0.16540295 -0.093410701 1.0839361 3630254
0.17164987 -0.093897238 1.0832566 11516624
0.17874846 -0.093553595 1.0847702 13685195
-0.13850252 -0.099844247 1.0867901 2708908
0.16474995 -0.084940717 1.0833315 3762605
0.16967466 -0.088449195 1.0820371 10465738
0.16451687 -0.078004822 1.0794222 6721740
-0.13701804 -0.082474977 1.0889485 1588628
-0.13390504 -0.08231765 1.0889156 3826867
-0.12671374 -0.15575255 1.0925524 3694011
-0.13203388 -0.14942262 1.0908123 7178192
-0.12680098 -0.14894281 1.0919182 2114980
-0.13281706 -0.13798185 1.091177 1063065
-0.12819019 -0.14059868 1.09194 2447769
-0.13272727 -0.13041073 1.0914109 2578847
-0.13021435 -0.12993328 1.0943968 2907546
0.16711338 -0.11364627 1.0897909 6851775
0.1726518 -0.11285346 1.0882474 13029078
-0.13253555 -0.12032478 1.092472 3104917
-0.13084319 -0.11740676 1.0947932 3170462
0.16518204 -0.10294358 1.0901465 3040417
0.17503846 -0.10572537 1.0884397 13422807
0.17779779 -0.10245492 1.0885077 13619661
-0.13524747 -0.10792925 1.0928895 3104162
0.16352688 -0.094787315 1.0897765 2973607
-0.13499682 -0.099592797 1.0933954 3169952
0.16346133 -0.084742814 1.0922331 2843043
-0.13728812 -0.08999674 1.0928785 3301299
-0.12087777 -0.16768891 1.1021167 4750553
-0.1171027 -0.16978899 1.1040068 1196192
-0.12329313 -0.1604389 1.0991693 3036848
-0.11922233 -0.16267322 1.1042534 1789334
0.16431397 -0.14422312 1.0988815 12898004
-0.12277295 -0.14955488 1.1009237 2776475
0.16434219 -0.13508067 1.0980643 9087435
0.1698706 -0.1300493 1.0947514 13488846
-0.12555826 -0.13894197 1.1010646 3038106
0.16364999 -0.1244254 1.0974028 4354994
0.17135751 -0.12199158 1.0949833 13752800
-0.12789883 -0.12938908 1.1028347 2973083
0.16314353 -0.11470024 1.098619 2121388
-0.13346282 -0.1159691 1.0988718 3301280
-0.12979305 -0.12085438 1.102314 3039132
0.16344102 -0.10654961 1.0967261 2646946
0.17940988 -0.10055 1.0985527 13817039
-0.13377839 -0.10968301 1.0990708 3366820
-0.13115199 -0.11017548 1.1040264 3105183
0.16124399 -0.094514668 1.1006616 3631271
0.18035538 -0.098395832 1.0986081 13817037
-0.13433941 -0.098507762 1.0994244 3499424
-0.1315538 -0.09950728 1.1031617 3302563
0.16038693 -0.084274292 1.1002306 3369127
-0.13199709 -0.090010814 1.1031616 3434147
0.16183114 -0.074639827 1.1014805 2908578
0.1674234 -0.071666218 1.0995947 8233160
-0.13721581 -0.079028606 1.1009215 3365295
-0.13180476 -0.080062315 1.1038144 3499689
0.1621388 -0.065030411 1.1015128 4024485
0.1670015 -0.063261956 1.0998607 11192030
-0.13610294 -0.070154078 1.1033274 2181536
-0.13087475 -0.069785804 1.1044761 3433908
0.16112371 -0.059716735 1.1040443 2708114
-0.1348514 -0.061990026 1.1075679 8233201
-0.13099426 -0.062860653 1.1057788 3564980
0.0026091849 0.11710323 1.1074545 9935247
0.0082693091 0.11829197 1.1074227 9934992
-0.11093867 -0.17867246 1.1123533 929696
-0.10671434 -0.17888564 1.1146044 1984411
0.15512279 -0.16138345 1.111968 13424882
-0.1124569 -0.16910622 1.110375 2512540
-0.10770553 -0.17086956 1.1135311 2906513
0.15611832 -0.15532805 1.1096981 8955594
0.16165556 -0.15359122 1.1061271 14080986
-0.12029965 -0.15542704 1.1114953 2381461
-0.11690694 -0.16050231 1.113235 2776212
0.15584145 -0.14569432 1.1087642 3697834
-0.12103267 -0.14956456 1.1125199 2841752
-0.11864972 -0.15386894 1.1155257 2906774
0.15720206 -0.13571613 1.1095376 2646183
-0.12343608 -0.1391485 1.1138966 2907034
-0.11918426 -0.14322099 1.1158626 2775704
0.15735401 -0.12700173 1.1109067 3696546
0.15917163 -0.12235205 1.1104621 3761571
-0.12494439 -0.12972087 1.112794 2973083
0.16053432 -0.11615704 1.1099707 3368880
-0.12655534 -0.11956871 1.112584 3039134
0.16024378 -0.10454182 1.1099405 3500454
-0.12725958 -0.10913679 1.1126161 3171232
0.15876305 -0.096203409 1.1112309 3631529
-0.12826411 -0.10038947 1.1121994 3302564
0.15668611 -0.085771263 1.1072918 3697839
0.15715168 -0.086094253 1.1102778 3763633
-0.12887616 -0.089882649 1.1133333 3368355
0.15714942 -0.074821077 1.1103418 3436468
0.1712662 -0.070489414 1.1105907 10992842
-0.12706211 -0.079365358 1.1136377 3697068
0.15441252 -0.06214232 1.1150565 3765679
0.15767615 -0.064326838 1.1101283 3830452
0.17069934 -0.066263326 1.1107287 11387079
-0.12638164 -0.071479537 1.111673 3631022
-0.12437525 -0.068150312 1.1112517 3500456
0.15339552 -0.055180352 1.1123946 3830449
0.1600979 -0.055256952 1.1098299 5207985
0.16671029 -0.056062393 1.1137619 10334913
-0.12719643 -0.059553087 1.1141256 3434161
0.15208589 -0.046300292 1.1124319 3893939
0.15918568 -0.046400383 1.1115406 8428221
-0.12791117 -0.049664322 1.1180146 6194370
-0.12346251 -0.047362674 1.1188896 4421311
0.14938095 -0.034666829 1.1148789 5734064
0.15587293 -0.038049884 1.1157866 10203587
-0.12246503 -0.040640421 1.1190861 6852289
0.14757544 -0.028765105 1.1129737 8955077
0.010947589 0.093934245 1.1216426 9737616
-0.078441769 -0.21413982 1.121505 7635861
-0.075004451 -0.21454355 1.1241188 8100012
-0.089151911 -0.20483804 1.1245918 10535920
-0.082027994 -0.20708239 1.1220814 5996227
-0.075184382 -0.21095937 1.1242322 6394567
-0.099798225 -0.19407919 1.1170505 8431615
-0.092651889 -0.19625151 1.1196672 1526185
-0.08630728 -0.1984551 1.1236119 1262491
0.13701451 -0.18442532 1.122479 11717846
-0.10877182 -0.18596986 1.1174111 7571711
-0.10166439 -0.18793073 1.1188204 1917611
-0.094523229 -0.19021238 1.1224428 2379673
-0.087594263 -0.19290155 1.1249434 2644619
0.13825801 -0.17748395 1.1226792 5010097
0.14536634 -0.17405811 1.1195546 10599906
0.15238911 -0.17246467 1.1186613 14081762
-0.10213994 -0.17920122 1.1217536 2709143
0.13876835 -0.16684946 1.1230031 2909858
0.14534007 -0.16592112 1.1191318 4026283
0.15289286 -0.16561544 1.1153657 12307424
-0.10979016 -0.16568458 1.1180531 2775446
-0.10516649 -0.16975999 1.1207812 2775442
0.14615105 -0.15695134 1.120219 3105445
0.15098727 -0.15571699 1.1151958 2578854
-0.11215478 -0.15866715 1.1204547 2775449
-0.10776827 -0.16099593 1.1248444 2906778
0.1480041 -0.14709371 1.1219032 3564451
0.15125559 -0.14582419 1.1179008 3433893
-0.11642395 -0.150234 1.1219091 2840984
0.14910817 -0.13889836 1.123745 3565217
0.15271442 -0.13642892 1.1184416 3499430
-0.12186472 -0.13846558 1.1190444 2841497
-0.11872333 -0.1402761 1.1249535 2907290
0.15448371 -0.12578239 1.1210852 3237547
-0.12249878 -0.12908433 1.1209443 2973083
-0.1196917 -0.12956432 1.1252977 3038877
0.15710127 -0.11599378 1.1225396 3827369
0.15963161 -0.11460668 1.1163666 3564710
-0.12403969 -0.11922508 1.1225268 3039391
-0.12126067 -0.12112091 1.1262459 3170977
0.15686198 -0.10590371 1.1226737 3565735
0.15920283 -0.10606551 1.1166369 3500198
-0.12455028 -0.11112016 1.1249286 3170977
0.15666917 -0.096866637 1.1222895 3631790
0.15786806 -0.098570429 1.1248902 3434923
-0.12524609 -0.10056192 1.1242641 3302823
0.15576151 -0.085456185 1.1228215 3566513
-0.12573254 -0.090534762 1.1232471 3368614
0.15439434 -0.076262742 1.1231618 3632560
-0.12559944 -0.082857937 1.1248178 3565995
0.15267248 -0.066133052 1.1222246 3895728
-0.12340255 -0.067736797 1.1268613 3697842
0.1498201 -0.056265365 1.121098 4158132
-0.12217383 -0.059324905 1.1258705 3502262
0.1481705 -0.045709826 1.1226463 4027837
-0.12001555 -0.049675208 1.1255575 3698611
0.14279649 -0.034653336 1.127057 4619197
0.14868297 -0.037282862 1.1213623 4946612
-0.12663488 -0.043445121 1.1220514 7180220
-0.11911982 -0.040292483 1.129262 4815032
0.1423786 -0.028166428 1.1265962 5209534
0.14692041 -0.025950916 1.1192725 8425655
0.012302397 0.08987803 1.1245019 9474444
-0.050921738 -0.22342062 1.1305547 8300241
-0.069568582 -0.21604651 1.1273717 7642055
-0.062026441 -0.21639085 1.1294069 4815810
-0.055084951 -0.21954033 1.1307257 5210825
-0.079297274 -0.20460361 1.1274811 932767
-0.072143488 -0.20774207 1.1289819 2382238
-0.063355953 -0.21041338 1.1311094 2251168
0.11976205 -0.19790536 1.1292739 6518691
0.12552318 -0.19654211 1.1278169 11319227
-0.081337906 -0.19801897 1.1295779 2447513
-0.075750813 -0.2012779 1.1315434 2513045
0.12695751 -0.18825263 1.1284329 4617903
0.13395761 -0.18782189 1.1254123 10929103
-0.091340289 -0.18747579 1.1296142 2971544
-0.085240506 -0.19095293 1.1299781 2774929
0.12855554 -0.17887737 1.1280901 2909086
0.13337943 -0.17761044 1.1257362 3105187
-0.099543877 -0.17464277 1.1286569 2709911
-0.09464626 -0.17953335 1.1307998 2644371
0.13441163 -0.1677545 1.1266453 3368356
-0.1021813 -0.16821337 1.1307075 2775444
-0.097001135 -0.17210525 1.1313728 2709910
0.13834321 -0.157713 1.1278944 3368613
0.14237645 -0.15449092 1.1263446 3499683
-0.10582403 -0.15981056 1.1306942 2841497
0.13979551 -0.15025295 1.1305095 3237027
0.1443506 -0.14722678 1.12788 3302821
-0.11233941 -0.14851063 1.1301949 2645144
-0.10874151 -0.1501368 1.1326418 2775964
0.14697875 -0.13717881 1.1290089 3237542
0.15087204 -0.13337275 1.1282308 3106215
-0.11457793 -0.14024615 1.1313622 2907291
0.14787762 -0.12758891 1.1297808 3499683
0.15085778 -0.12540789 1.1282876 3303338
-0.11604808 -0.13041677 1.1326311 3039134
0.15204817 -0.11685828 1.1288075 3499947
-0.12193473 -0.11632819 1.1307385 3236770
-0.1195228 -0.12060523 1.1339116 3236770
0.15325586 -0.10629443 1.1295273 3500458
-0.12225947 -0.10985958 1.1309432 3237027
-0.12046938 -0.11025781 1.1349113 3302821
0.1550965 -0.095659137 1.1303029 3632048
-0.12274656 -0.10015664 1.1312503 3302824
-0.12093103 -0.1010616 1.1352023 3302569
0.1529243 -0.086869672 1.1304981 3632047
-0.12363264 -0.091122381 1.1315414 3434408
-0.12092939 -0.088742986 1.1355846 3434665
0.14897791 -0.076002099 1.1305194 4026292
-0.12372077 -0.080750778 1.1318643 3631531
-0.12199014 -0.079964444 1.1358699 3631531
0.14866818 -0.067989767 1.1293974 4157366
-0.12404551 -0.074282162 1.132069 4025255
-0.12112822 -0.069080338 1.134482 3632304
0.14753598 -0.056234147 1.1293312 4289211
-0.11812969 -0.059911631 1.1341584 3568048
0.14385244 -0.045664765 1.1303711 4094399
0.14641681 -0.049968056 1.1315404 4224702
-0.11714633 -0.05375785 1.1326222 3764911
-0.1138963 -0.049354568 1.1352208 3895729
0.14088665 -0.037411671 1.1314515 4487616
-0.11922993 -0.035838269 1.1362053 6458567
-0.11411889 -0.039336693 1.1354344 3895996
0.1402505 -0.026364468 1.130747 5735616
0.14693674 -0.022758424 1.1303775 9477559
-0.11891375 -0.033168986 1.1372849 6852289
-0.11566667 -0.033004887 1.1372505 5933254
0.045694739 0.076966532 1.1347018 9474701
-0.013536911 -0.2323702 1.1418297 7248329
0.019337447 -0.23227641 1.140633 5801654
0.027286816 -0.23072752 1.1400509 5210039
0.040113259 -0.23075503 1.1412283 6328255
0.047769725 -0.23036808 1.1411474 7379645
0.059309099 -0.22966316 1.1410291 8430007
0.067112625 -0.22736734 1.1370033 8625323
-0.051897451 -0.22592369 1.1344912 9678537
-0.041006874 -0.22558156 1.1408994 4422071
-0.031629395 -0.22583109 1.1422523 2778029
-0.021788161 -0.22715014 1.142092 2513574
-0.014047869 -0.22947308 1.1419258 2315684
0.015885411 -0.2286911 1.1415867 2120102
0.027917005 -0.22808307 1.1414593 2185635
0.040987495 -0.22632647 1.1413552 2186146
0.046511285 -0.22714341 1.1412628 2316696
0.061714448 -0.2241829 1.14117 4486314
0.06922096 -0.22334507 1.1391038 5997746
0.080217794 -0.21985452 1.1399362 6063288
0.088817485 -0.21799044 1.1410331 6589614
0.096922435 -0.21780008 1.1409405 8757678
-0.057927862 -0.21425536 1.1349266 1855898
-0.051050059 -0.21652091 1.1380125 2249885
-0.043211903 -0.21856433 1.1418909 2381985
-0.034977384 -0.22030064 1.1424646 3039902
0.082521766 -0.21271858 1.1412731 2841504
0.088510118 -0.2118679 1.1412269 3302564
0.097934835 -0.20909213 1.1398644 4420011
0.10763028 -0.20762977 1.1354086 6984117
0.11689138 -0.20433222 1.1331116 6254993
-0.069577552 -0.2043412 1.1361761 2710418
-0.061654277 -0.20732065 1.1395704 2775447
-0.054793537 -0.20929414 1.1422465 2906776
0.099995553 -0.20111836 1.1410208 3171492
0.10839266 -0.19923064 1.1381757 3237285
0.1166067 -0.19746655 1.1338999 3629215
-0.072761022 -0.19767427 1.1404239 2775191
-0.064429231 -0.20082787 1.1427596 2906012
0.10990507 -0.18999022 1.1399784 3040421
0.11671465 -0.18785469 1.1365741 3105703
0.12259085 -0.18771723 1.133558 2777257
-0.088835135 -0.18425184 1.136233 2710677
-0.081839778 -0.1878978 1.1395663 2709909
-0.075419307 -0.19126281 1.1418558 2709910
0.11748853 -0.17954293 1.1404036 3368100
0.12491614 -0.17719215 1.135991 3302561
-0.090352058 -0.17787749 1.139562 2710421
-0.085380562 -0.18060994 1.1435081 2644886
0.11917281 -0.171736 1.1421 3040936
0.12702486 -0.16817181 1.1400272 3237031
0.13324082 -0.16486225 1.1371397 3368615
-0.10067793 -0.16525799 1.1369663 2776209
-0.094970793 -0.16960473 1.1415147 2841240
0.12865503 -0.15966263 1.1423595 3237287
0.1349293 -0.15695463 1.1372217 3302822
-0.1019556 -0.15880835 1.1417178 2710683
-0.097066984 -0.16194487 1.1443627 2841499
0.1367984 -0.14851713 1.1400168 3237541
0.14158188 -0.14543772 1.1362405 3237798
-0.10450302 -0.15039399 1.1426197 2907293
0.13807327 -0.13976154 1.1428628 3237797
0.14261286 -0.13682866 1.1378959 3303334
-0.11143768 -0.13891143 1.1390581 2907805
-0.10908608 -0.14062169 1.1450369 2907805
0.14401287 -0.12746824 1.1407263 3434407
-0.11238404 -0.1296929 1.1408803 3039392
-0.10964468 -0.13090651 1.1461457 3039391
0.14547281 -0.11781026 1.1408813 3500202
0.1494064 -0.11452349 1.135504 3631274
-0.11596641 -0.1207582 1.1430688 3170979
0.1469336 -0.1075283 1.1433109 3631791
0.15022302 -0.10660997 1.1375184 3566510
-0.11687437 -0.11048336 1.1445804 3105957
0.14554054 -0.096437223 1.1424491 3632305
0.15075479 -0.097081609 1.1363624 3501227
-0.11778553 -0.10042347 1.1426166 3237546
0.14461835 -0.087377727 1.1418622 3698099
0.14918737 -0.087366886 1.1367496 3698094
-0.1176488 -0.090668224 1.1431559 3434923
0.14539501 -0.078074552 1.1426872 3895479
0.14766227 -0.079780795 1.1366035 3895477
-0.11778685 -0.080229245 1.144101 3566256
0.14510332 -0.066819996 1.1443741 4027579
0.14752465 -0.066015862 1.1410345 4157882
-0.11724904 -0.071261257 1.1436161 3567024
0.14258207 -0.057385989 1.1441875 4159422
0.14685957 -0.057176787 1.139716 4289724
-0.115457 -0.061256532 1.1417075 3567791
-0.1123898 -0.059334755 1.1470662 3764403
0.14035346 -0.047406074 1.1430333 4356797
-0.11117239 -0.050137896 1.1412382 3830196
0.13720271 -0.037945479 1.1424313 4619718
-0.11021924 -0.03925363 1.1439034 3896507
0.13252714 -0.026295133 1.1433387 4817095
0.13703865 -0.026542917 1.1400522 4948420
-0.11826408 -0.030513823 1.1453638 6916535
-0.1107619 -0.03065566 1.1449605 5210049
0.13138703 -0.020023249 1.1456596 5013440
0.13579282 -0.01930932 1.1432935 5998788
0.027432572 0.048987798 1.1449184 5859448
0.03559307 0.0495364 1.1429782 6122362
0.041175634 0.049852289 1.1459218 6319482
0.052258309 0.05155351 1.1498424 5330522
0.027772386 0.053503878 1.1435299 5792108
0.035538919 0.054759093 1.1429409 5527648
0.040956855 0.054210328 1.1460598 5067354
-0.0077653006 -0.23214591 1.1447681 4354997
-0.0003397353 -0.23286217 1.1466569 4684224
0.0095122587 -0.23202333 1.1450958 4289976
0.020355258 -0.22915486 1.1445196 2054307
0.030800799 -0.22917646 1.144392 2777510
0.036339004 -0.22999555 1.1442994 4026798
0.052788515 -0.22916424 1.1441253 5604271
0.056544192 -0.22732604 1.1441368 4881326
-0.027240261 -0.22276857 1.1452957 3039902
-0.019249007 -0.2232991 1.1456825 2710943
-0.010661565 -0.22486436 1.1483356 2645152
-0.00061228685 -0.22732329 1.1515014 2514339
0.0093043465 -0.22670156 1.1508666 2514851
0.019065263 -0.22365218 1.1493086 2842787
0.028890006 -0.22266206 1.1470188 2908579
0.038534999 -0.22179484 1.1474177 3039651
0.048764721 -0.22201663 1.1483983 2908578
0.058056016 -0.2206666 1.1480772 2778020
0.067963541 -0.21842968 1.1457037 2646433
0.077644244 -0.2205818 1.1440899 5012145
0.089223109 -0.22127876 1.1439277 8955830
-0.040673081 -0.21503061 1.1459849 2841242
-0.030714154 -0.21666649 1.147862 2775960
-0.021629851 -0.21754482 1.1496588 2841500
-0.012080131 -0.21935418 1.153222 2907551
0.019537903 -0.21701862 1.1529106 3105184
0.028721463 -0.21618566 1.1528249 3170722
0.038659655 -0.21568342 1.1527197 3302053
0.048754178 -0.21462002 1.1526302 3170723
0.059198312 -0.21317005 1.1525484 3105188
0.068457708 -0.21185377 1.1507616 3170467
0.077994406 -0.21103911 1.1467831 3236258
0.087930553 -0.20703021 1.1448302 3171236
-0.057839915 -0.20453387 1.1462332 2906776
-0.051191792 -0.20647213 1.1472359 2907033
-0.042658631 -0.2071435 1.1508039 2841497
-0.033172909 -0.21082982 1.1537427 2775704
0.069190592 -0.20639449 1.1526374 3105443
0.078024536 -0.20594805 1.1525439 3105443
0.08860366 -0.20165274 1.1512849 3105956
0.096772574 -0.19825485 1.1477524 3105956
-0.069356553 -0.1941264 1.1466961 2644884
-0.062081203 -0.19742483 1.149507 2775705
-0.053544588 -0.19995254 1.151993 2841497
0.091825597 -0.19418488 1.1527414 3172006
0.099341989 -0.19138934 1.1517364 3040421
0.10504941 -0.18867007 1.14925 2974628
-0.078569859 -0.18580043 1.1470664 2645144
-0.07180994 -0.18732524 1.1499975 2710425
-0.066358879 -0.18982124 1.1513673 2776216
0.1080826 -0.17987812 1.1497362 3171493
0.11290517 -0.17730239 1.1466058 3237026
-0.081975088 -0.17803058 1.1499385 2710424
-0.075455181 -0.18003742 1.1537565 2710937
0.11070458 -0.17331252 1.15316 3302823
0.11678463 -0.16881686 1.150066 3172005
0.12240539 -0.16536303 1.1492623 3172006
-0.091239475 -0.16702595 1.1478028 2841498
-0.086664192 -0.16947299 1.1525972 2907290
0.11898442 -0.16182835 1.1534158 3303592
0.12503889 -0.15809536 1.152124 3237544
0.13088337 -0.15323654 1.1455334 3303337
-0.093405373 -0.15872549 1.149802 2973342
-0.088587627 -0.16180578 1.1559371 3038879
0.12828493 -0.15018256 1.1529973 3237544
0.13243333 -0.14679778 1.1485161 3303336
-0.1020084 -0.1475755 1.1495378 2973342
-0.095737673 -0.15056804 1.1538713 2973600
0.13539551 -0.1375533 1.1499677 3368872
-0.1039623 -0.1398479 1.1511551 3039392
-0.098431133 -0.14056699 1.1567158 3236259
0.13624291 -0.12811828 1.1520011 3500460
0.14047399 -0.12527817 1.1462847 3434923
-0.10553774 -0.13029397 1.152007 3170978
0.13684705 -0.11918063 1.1531883 3500719
0.14136979 -0.11634423 1.1498864 3500718
-0.11268742 -0.11938985 1.1495417 3237029
-0.10873823 -0.1207516 1.1554549 3237286
0.14129698 -0.10757169 1.1529329 3697329
-0.11312765 -0.11062051 1.1498191 3237543
-0.11050281 -0.11028952 1.1573018 3172263
0.14205092 -0.098399065 1.1527029 3697843
-0.11387666 -0.10110863 1.1531252 3303340
-0.11179726 -0.10008849 1.1581343 3303852
0.14130686 -0.08799541 1.153435 3764149
-0.1144654 -0.091273367 1.1504359 3500716
-0.11172281 -0.09002018 1.158446 3501229
0.14370406 -0.077384166 1.1523058 3764661
-0.11450338 -0.083216339 1.1506864 3566512
-0.11145489 -0.079775572 1.1551222 3632306
0.14021353 -0.067340896 1.152559 3896764
-0.11133608 -0.070141315 1.1554198 3698357
0.13376004 -0.05768818 1.1551343 4291265
0.13758031 -0.058490098 1.1495361 4225217
-0.110183 -0.061056696 1.1553239 3764408
0.13405219 -0.048041701 1.1547631 4554434
0.13656692 -0.04745033 1.1487476 4488640
-0.1077583 -0.050238814 1.1564306 3895997
-0.10376414 -0.046935894 1.1596864 4027323
0.13310781 -0.037251551 1.1541089 4817354
-0.10673705 -0.040536154 1.1532508 3962044
-0.10275506 -0.039314304 1.1591102 4093118
0.12321129 -0.025506295 1.1575953 5014224
0.1286864 -0.02783744 1.1534542 4751563
-0.10617846 -0.030046135 1.1522354 4290235
-0.10125458 -0.02981241 1.1567187 4158908
-0.095154494 -0.027320199 1.1601906 4028609
0.1211753 -0.01850906 1.1560584 4817874
0.12777293 -0.017725311 1.1507775 5145287
-0.099232666 -0.022989579 1.1547714 4487616
-0.09394107 -0.020191893 1.1590631 4356800
0.11170305 -0.0064560995 1.1563251 5276623
0.11814208 -0.0090275034 1.1524508 5604813
0.12757772 -0.0097247735 1.1509169 6720449
-0.092175551 -0.013153069 1.1605941 5671109
0.10958464 -0.0010385737 1.1579484 5802961
0.11593256 -0.001357764 1.1537638 6787017
0.032821622 0.010868967 1.1598217 12972031
-0.022879269 0.018038347 1.1587195 5869264
0.0096865976 0.015970394 1.160261 7515376
0.017189384 0.015980683 1.1601702 8764660
0.0268062 0.016024068 1.1600548 10146554
0.033483371 0.015328698 1.1599522 10870005
-0.081020094 0.023608439 1.1535951 8028800
-0.075920813 0.024232455 1.1535525 7305855
-0.018527683 0.019339703 1.1607082 5671370
-0.015214954 0.01950711 1.1606731 5869265
0.007974158 0.020679004 1.1604279 6988787
0.012391131 0.020902216 1.1603812 7185904
0.098078839 0.034085117 1.1597499 6314850
-0.07495302 0.029287674 1.1536977 8028802
0.094809636 0.037460946 1.1598943 6117979
0.070257798 0.047005005 1.1524842 5593178
0.07245107 0.04711584 1.1524611 5658970
-0.0064150095 -0.22216244 1.1570684 2973083
-0.00081916712 -0.22299004 1.1569747 2973595
0.0085838633 -0.22210529 1.157555 2973598
-0.026915897 -0.21209463 1.1576297 2842012
-0.020475116 -0.21315712 1.1575186 2776219
-0.011003414 -0.21520908 1.1588645 2907806
-0.001332121 -0.21615238 1.1603528 2907807
0.0092414683 -0.21616459 1.1603996 2973599
0.017960694 -0.21329845 1.1577145 3039136
0.028648682 -0.21178848 1.1582986 3170723
0.038600065 -0.21114504 1.1575307 3236770
0.048354995 -0.21016985 1.1567755 3170979
0.057379153 -0.20950028 1.1566867 3170980
0.063944034 -0.20750293 1.1566689 3171236
-0.038441189 -0.20379397 1.1580273 2842012
-0.03160974 -0.20576215 1.1593386 2842011
-0.021882772 -0.20756312 1.1601721 2842012
-0.013514329 -0.2086395 1.1615764 2907805
0.032975242 -0.20768283 1.1610416 3302309
0.038907655 -0.20618927 1.1598724 3302308
0.047527306 -0.20558952 1.1584284 3171236
0.058292594 -0.20556775 1.1567976 3171236
0.068856046 -0.20371208 1.1583945 3105443
0.078561276 -0.20127621 1.1576852 3171492
0.08499562 -0.19903648 1.1566761 3040420
-0.060050108 -0.19378217 1.1586004 2841497
-0.05114124 -0.19610018 1.1589539 2907291
-0.042564709 -0.19836226 1.1601293 2907549
-0.035813488 -0.19927436 1.1621379 2907551
0.081338808 -0.19409674 1.1608759 3040420
0.088231057 -0.19184558 1.1589663 3106213
0.095885985 -0.18878877 1.1568619 3106214
-0.061852485 -0.18744469 1.1608201 2907290
-0.055111602 -0.19003311 1.1621587 2973340
0.092010997 -0.18464383 1.1610397 3302823
0.097900026 -0.18188351 1.1586525 3237030
0.1038634 -0.17817833 1.158873 3237031
-0.079887755 -0.17479774 1.1594305 2841497
-0.071320757 -0.17786413 1.159765 2842012
-0.065066837 -0.17986402 1.162095 2907547
0.1086465 -0.17021903 1.1582068 3368361
0.11355001 -0.16668773 1.1573333 3237285
-0.081661694 -0.16896534 1.159633 2973085
-0.074845321 -0.16893244 1.1622896 3039135
0.11058528 -0.16295122 1.1574852 3368615
0.1169432 -0.15931994 1.1582484 3237799
0.12133215 -0.1557458 1.1575783 3303337
-0.089697376 -0.15641694 1.1601201 2973857
-0.084079735 -0.15971504 1.1615059 3039137
-0.07808052 -0.16037077 1.1638585 3104930
0.11856928 -0.15177211 1.1597363 3172264
0.12462299 -0.14853118 1.1584293 3238059
-0.09128613 -0.14832011 1.1613913 3039650
-0.087093711 -0.15180126 1.1642339 3105700
0.12738729 -0.13868725 1.1601893 3369132
0.13157859 -0.13857222 1.1579869 3434410
-0.094459258 -0.1399332 1.1624048 3171236
0.12888218 -0.1305162 1.1614714 3500719
0.13211998 -0.12800869 1.1603092 3435183
-0.10222351 -0.12817994 1.1611485 3302823
-0.097446837 -0.13000405 1.163702 3171495
0.13237274 -0.11788477 1.1604384 3566514
-0.10438312 -0.11969297 1.1628935 3368873
-0.10062847 -0.1207359 1.164562 3368875
0.13461179 -0.10853906 1.1596826 3697588
-0.10572565 -0.11072578 1.1644009 3303850
0.13572823 -0.098958522 1.1625963 3763892
0.1388734 -0.098007604 1.1591573 3698099
-0.10759197 -0.10057269 1.1636714 3435181
-0.10169049 -0.10084014 1.1659927 3435438
0.13624591 -0.088815764 1.1634766 3829942
0.13902673 -0.088035591 1.1606083 3764149
-0.10703716 -0.090876326 1.1643658 3501229
0.1355764 -0.075479224 1.1638986 3896505
0.14008453 -0.078067228 1.1615806 3830455
-0.10693946 -0.08098796 1.1642097 3632563
-0.10286214 -0.0775012 1.1667314 3567542
0.13283026 -0.068372473 1.1615797 4027837
0.13821492 -0.071613714 1.1599844 3896505
-0.10668803 -0.070902236 1.1643145 3829940
-0.1031969 -0.070832931 1.1669424 3699127
0.13086389 -0.058889803 1.1631366 4291009
-0.10678466 -0.060741134 1.1640973 3895737
-0.10311151 -0.059845809 1.1672822 4027576
0.13064849 -0.048832756 1.1627843 4422849
-0.10594883 -0.05397239 1.1634969 4158911
-0.10162812 -0.050115187 1.1655651 4093372
0.13009799 -0.039092679 1.162593 4817355
-0.098361187 -0.040528968 1.1653612 4093630
-0.093752161 -0.036929697 1.1678798 4094397
0.12212514 -0.028762124 1.1637331 5080014
0.12676704 -0.031663179 1.1613632 4883149
-0.096644953 -0.032775015 1.1640418 4028348
-0.092255026 -0.030041158 1.1655741 4028864
0.11715015 -0.019348182 1.163641 4949202
-0.089173824 -0.020295173 1.1661575 4029123
-0.085045978 -0.017919764 1.168364 3963586
0.11058939 -0.0098352209 1.1649053 5146069
0.11421511 -0.013976149 1.1620646 5080276
-0.088781402 -0.012390673 1.1645789 5342665
-0.081727505 -0.01000981 1.1685692 4882633
-0.018540747 -0.0030454695 1.1680181 6070261
-0.011869635 -0.0027083382 1.1679475 6528744
-0.0051985215 -0.0023712069 1.167877 8827627
0.010367412 -0.0015845671 1.1677125 10340848
0.019135276 -0.0017781556 1.1675999 8895736
0.026667407 -0.00209786 1.1674986 6266608
0.10090973 0.0024656206 1.1657381 5475287
0.1055419 -0.00076823682 1.1639138 5475028
-0.078583285 -0.0037919432 1.166723 5999306
-0.071986794 -0.002348192 1.1666877 5540557
-0.063604839 0.0014340058 1.1660362 5803727
-0.050958931 0.0037346333 1.1686221 4950220
-0.041951608 0.0030644014 1.168492 5016280
-0.032212887 0.0029576123 1.1679702 5411294
-0.022199634 0.0035082847 1.1660247 5806569
-0.012204599 0.003974326 1.1675587 7120874
-0.0026584789 0.0051851422 1.1680807 12379901
0.0079180961 0.0052748695 1.1654273 13891069
0.017724868 0.0055529252 1.1646428 12969723
0.027665962 0.0062645748 1.1654289 9946095
0.037741337 0.0065292418 1.1657177 10013177
0.047368124 0.0089054182 1.1654336 7449069
0.053950161 0.011017114 1.1675743 5411552
0.097789563 0.0062474534 1.1643925 6526426
-0.049230278 0.0087739751 1.1687576 6264275
-0.041715991 0.010036997 1.1662042 5803990
-0.032200813 0.011195861 1.1646239 5345755
-0.02226989 0.012960523 1.1645579 5412839
-0.012715515 0.014021106 1.1649752 5676266
-0.003614733 0.013484411 1.1672064 7253489
0.0061916709 0.013857096 1.1652408 8436213
0.016258083 0.012164272 1.1640654 12051453
0.030440297 0.01732254 1.1640533 10082302
0.03830757 0.016979866 1.1639471 10607102
0.046823859 0.016564243 1.1638308 7515119
0.05390035 0.016265489 1.1650696 6068200
-0.010779882 0.019680962 1.164627 6001365
-0.0063476916 0.019904949 1.1645801 6396124
0.10571924 0.03134238 1.1635742 6447199
0.002016576 -0.21231905 1.1652759 3039391
0.0095396452 -0.21141371 1.1667135 3039135
0.020982742 -0.21136056 1.1650753 3104930
-0.027550343 -0.20263314 1.1659355 2776478
-0.021112755 -0.20326748 1.1678388 2842271
-0.011113934 -0.20447196 1.169863 2907807
-0.0017992221 -0.20587832 1.1702204 2908063
0.0082626566 -0.2062552 1.1711915 2973600
0.01851555 -0.20473905 1.1706471 3105187
0.02840242 -0.20385888 1.1696343 3236773
0.038019769 -0.20201087 1.1688941 3237029
0.048958402 -0.20154586 1.1688423 3171237
0.058617439 -0.20193547 1.1664116 3171236
0.068040669 -0.19988017 1.1657838 3105444
0.07679157 -0.19791913 1.1648148 3171493
-0.040134475 -0.19449294 1.1695428 2841758
-0.031919699 -0.19641234 1.1701839 2907551
-0.022931013 -0.19715492 1.1728768 2842271
-0.012184875 -0.19783872 1.1739023 2908064
-0.0053889174 -0.19862095 1.1737955 2973857
0.015953135 -0.1975424 1.1735697 3105444
0.028758183 -0.19589472 1.1734654 3237030
0.038806714 -0.19577771 1.1725465 3302823
0.048415437 -0.1945062 1.1723461 3171495
0.057689179 -0.19261223 1.1718239 3105703
0.067397192 -0.19237386 1.1715045 3105703
0.077143706 -0.19132257 1.1695178 3105702
0.085307844 -0.18831545 1.1667247 3105958
-0.051803939 -0.18732932 1.168353 2973598
-0.043679692 -0.18877876 1.1725647 2907551
-0.03368295 -0.19020149 1.1744003 2908065
0.078542903 -0.18294983 1.1732626 3237288
0.087286599 -0.18171634 1.1707488 3302823
0.095800959 -0.17914721 1.1677394 3237287
-0.06174656 -0.17659262 1.1700177 3105183
-0.054084338 -0.17968549 1.1730909 2974112
-0.045661427 -0.18152034 1.1748152 2842786
0.088467777 -0.17496711 1.1733898 3171750
0.096889466 -0.17088634 1.17208 3172008
0.10480499 -0.16859233 1.1677194 3303081
-0.070373051 -0.16726886 1.1682202 3104930
-0.063965201 -0.16945791 1.1740777 3170978
0.098972976 -0.16247234 1.17365 3303337
0.10663769 -0.16049276 1.171367 3368873
0.11346627 -0.1587387 1.1681323 3237543
-0.080810845 -0.15506142 1.1707268 3040164
-0.073894516 -0.15850733 1.1716594 3105701
-0.067250438 -0.16272515 1.1756606 3302822
0.10778391 -0.15147825 1.1738843 3303597
0.11500312 -0.14854597 1.1695215 3238059
0.12189443 -0.14508522 1.167908 3303852
-0.083553366 -0.14889544 1.1720632 3106213
-0.075644396 -0.15067357 1.1761366 3172007
0.11549807 -0.13957582 1.1739599 3369387
0.12336825 -0.13881828 1.1700857 3435181
-0.091240324 -0.13896075 1.1700191 3237030
-0.084589235 -0.13943604 1.1742593 3237800
-0.078018762 -0.14263269 1.176415 3303594
0.11701399 -0.13345189 1.1743315 3500972
0.12515873 -0.12865561 1.1711297 3500976
0.12963325 -0.12537305 1.1664246 3500977
-0.092820629 -0.12983209 1.1721004 3237545
-0.088031135 -0.13138327 1.1759963 3303852
0.12650687 -0.11916437 1.1746597 3566772
0.12979299 -0.11920281 1.1706164 3566515
-0.095814601 -0.12027039 1.1725725 3369389
0.12688492 -0.10960416 1.1749518 3763639
0.13013798 -0.10834867 1.1700597 3763639
-0.10330725 -0.10674001 1.1711656 3435181
-0.097717687 -0.11025044 1.1742287 3435438
0.12697119 -0.098504253 1.1752952 3895737
0.13188058 -0.097972259 1.1700728 3764149
-0.10311921 -0.10028252 1.172431 3435438
-0.097673707 -0.10076776 1.1764137 3501231
0.12668934 -0.092890322 1.175473 3961530
0.13179903 -0.088484645 1.1703682 3961528
0.13877442 -0.084662728 1.167577 3895735
-0.10329451 -0.091051459 1.1733199 3501489
-0.099008307 -0.090703756 1.1761627 3501490
0.1257875 -0.074925728 1.1760414 4159679
0.13166812 -0.079159096 1.1711087 3962041
0.13866246 -0.082432374 1.1676476 3895735
-0.10414297 -0.08371558 1.1725574 3501747
-0.099468149 -0.080371052 1.1752726 3567541
0.12471926 -0.068601117 1.1762507 4225473
0.12838461 -0.068791971 1.1721979 4159424
-0.098218068 -0.070114307 1.1745085 3764919
0.12402498 -0.05975619 1.1765336 4422597
0.12787902 -0.05872111 1.1725166 4357059
-0.098217897 -0.060328688 1.1746405 3896505
-0.093422465 -0.06011413 1.179163 3962298
0.12336784 -0.049158402 1.1768705 4685767
0.12737346 -0.048650257 1.1728354 4422851
-0.097238131 -0.051088192 1.1730859 4027836
-0.092254631 -0.049238477 1.1783948 4028094
0.12093872 -0.038612172 1.1751084 4948684
0.1268657 -0.040055841 1.1701066 4751818
-0.095969424 -0.042861264 1.1717249 4093632
-0.09050706 -0.039317641 1.177618 4094399
0.11370397 -0.028634913 1.1776248 5080784
0.11800633 -0.029333666 1.1727482 5211343
-0.087703921 -0.030679882 1.1763687 4094402
-0.081305675 -0.027373679 1.1790314 4226244
-0.074894652 -0.025408752 1.1800151 4620744
-0.021034259 -0.02156122 1.1794806 5412064
0.0014310554 -0.020425908 1.179243 6463211
0.0096844453 -0.023849234 1.1790365 6397929
0.019327028 -0.022720687 1.1789544 6397929
0.028453853 -0.020346731 1.1789173 6003432
0.11020853 -0.019446187 1.175451 5081042
0.11550152 -0.022112265 1.1698009 5081041
-0.080401301 -0.019347504 1.1741333 4160963
-0.072318055 -0.018168926 1.1793509 4752075
-0.057429686 -0.014395423 1.1801448 4949201
-0.050661907 -0.014616229 1.1800559 5016022
-0.041045204 -0.015229702 1.179253 5213659
-0.031189088 -0.015618615 1.1785568 5411552
-0.021311648 -0.015915647 1.1788586 5740773
-0.0112067 -0.015436396 1.1795512 6003172
-0.0011034515 -0.014910124 1.1790446 6331366
0.0089485664 -0.014294326 1.1763402 6989552
0.019042287 -0.01380109 1.1766331 6792432
0.029107079 -0.013264358 1.1758772 5937640
0.037565351 -0.011992477 1.1780653 5806054
0.048213661 -0.010182269 1.1789927 5674725
0.054896887 -0.008718878 1.178957 5674983
0.1007968 -0.0089319572 1.178393 5146841
0.10684096 -0.010509416 1.1725532 5080789
-0.077455148 -0.010621332 1.1725007 4554184
-0.07401783 -0.0097154528 1.1754887 4751049
-0.058762036 -0.0087713152 1.1783345 4818129
-0.051338904 -0.0083685815 1.1774564 5015507
-0.041852985 -0.0077679232 1.1739579 5147609
-0.031774424 -0.0072130114 1.172552 5346018
-0.022095557 -0.0071890429 1.1750478 5937898
-0.011620041 -0.0074137151 1.175136 6462952
-0.0012257025 -0.0061119869 1.1741607 8303605
0.0081288125 -0.0057102069 1.1730431 8501495
0.018012414 -0.0061637759 1.1720954 7252467
0.029289501 -0.0050772429 1.1728319 6069484
0.038381785 -0.0035565346 1.1736304 6135528
0.048537504 -0.0035252571 1.1766057 5741031
0.057924163 -0.0029051304 1.1781001 5543655
0.067337975 -0.0011631623 1.1790404 5477092
0.077323288 0.00066912919 1.1789761 5739747
0.088693269 0.00099357218 1.178848 5280481
0.0979883 -0.0010472089 1.1749774 5015513
0.1035409 -0.0026672184 1.1725508 4949463
-0.071097113 -0.0035919547 1.1726416 4818122
-0.061725765 -0.0021246001 1.1725733 5147606
-0.053085759 -0.00094263256 1.1725051 4818639
-0.044321351 -0.0022388175 1.1723585 5344472
0.00027693808 0.00057400763 1.1719042 12971007
0.0047675567 0.00024193525 1.1718394 12905215
0.029312003 0.0014823154 1.1715798 5807584
0.042699888 0.0021588877 1.1714382 6004710
0.048708327 0.0034208298 1.1714045 5807083
0.057390459 0.0062699988 1.173522 5477863
0.06593585 0.0061859563 1.1759503 5542628
0.077921815 0.003701061 1.1790628 5673698
0.088360436 0.0062363669 1.177514 5804766
0.094020106 0.0047524124 1.1708956 5147865
0.059990562 0.014212795 1.1716024 5412324
0.0015227292 -0.20132042 1.1776299 3039650
0.0079954471 -0.20163871 1.1775414 3039650
-0.019160427 -0.19445956 1.178094 2842271
-0.012398008 -0.19411781 1.1780225 2973857
-0.0020163991 -0.19472542 1.1791414 2973857
0.0078259772 -0.19602221 1.1802455 3039395
0.01836573 -0.19352978 1.1794459 3171237
0.027580123 -0.19162232 1.1786817 3237030
0.037890308 -0.1905653 1.1790613 3302569
0.046222944 -0.19027901 1.1787639 3237546
-0.039328825 -0.18499106 1.1786327 2908065
-0.031712875 -0.18557426 1.1785221 2973857
-0.022941764 -0.18692788 1.1793742 2973857
-0.013099372 -0.18836845 1.1803282 2973858
-0.0047532935 -0.18883599 1.1820958 3105444
0.026911195 -0.1872358 1.1817609 3237030
0.038521238 -0.18513805 1.181685 3302825
0.047414578 -0.18422338 1.1812975 3171754
0.057264339 -0.18419081 1.1794857 3171752
0.067565978 -0.18322781 1.1788019 3171753
0.075831339 -0.17967689 1.1783998 3237546
0.083907902 -0.17682695 1.1773896 3303592
-0.050966181 -0.17611331 1.1790496 2908579
-0.042650245 -0.177928 1.1808934 2908579
-0.032743864 -0.17892726 1.1816516 3105444
-0.024002492 -0.18028939 1.1825948 3105443
0.07056132 -0.17596382 1.1815807 3303339
0.078454018 -0.17324752 1.180235 3303082
0.086708598 -0.17065391 1.1781189 3237545
0.092472017 -0.16735858 1.1775795 3303850
-0.060548313 -0.16530308 1.1795014 3302822
-0.053701513 -0.16933715 1.1815443 3040165
-0.046372734 -0.1728071 1.1830986 3040167
0.081416085 -0.16634916 1.1817472 3303598
0.087259136 -0.16202584 1.1808687 3238061
0.095685519 -0.15947428 1.1788969 3303596
0.10323371 -0.15664969 1.1777811 3369131
-0.070844106 -0.15528187 1.1799375 3171751
-0.06422779 -0.15862815 1.1811658 3368615
-0.057118081 -0.16201752 1.1835639 3171751
0.10473475 -0.15004094 1.1794689 3369134
-0.073169954 -0.14834036 1.1801811 3369130
-0.06692449 -0.15008123 1.1830529 3434922
0.10539358 -0.14038354 1.181309 3435183
-0.075307705 -0.13988528 1.1818036 3434923
0.10778849 -0.13316679 1.1816564 3501232
0.11437569 -0.12967964 1.1810725 3435694
0.12097999 -0.12751666 1.1784698 3501232
-0.084081963 -0.12916565 1.1819093 3369646
-0.078162633 -0.13267627 1.183396 3435182
0.11765268 -0.12032077 1.1827357 3567282
0.12169942 -0.1195122 1.1805286 3567027
-0.093110852 -0.11687648 1.1813998 3501231
-0.088301577 -0.12065418 1.1839756 3435439
0.11725546 -0.11240802 1.1829861 3829686
0.12219068 -0.1092874 1.1812443 3829431
-0.093280517 -0.11349671 1.1815068 3501231
-0.089041837 -0.11009238 1.1832285 3567024
0.12403043 -0.099820979 1.1819603 3830201
-0.093987472 -0.099414341 1.1819524 3632818
-0.090701863 -0.10003259 1.1838944 3698612
0.12560545 -0.08910127 1.1816069 3896507
-0.094468199 -0.089838326 1.1822554 3633333
-0.090584569 -0.089926586 1.185007 3764919
0.12492354 -0.078903414 1.1814314 4093886
-0.095360167 -0.081073709 1.1825383 3633334
-0.091335572 -0.080037288 1.1857233 3830201
0.12145019 -0.069469452 1.182489 4291523
-0.091447659 -0.069684267 1.1845118 3896506
0.12042823 -0.059008617 1.1822035 4619975
-0.088649862 -0.059985876 1.1848265 4028348
0.11402085 -0.047975659 1.185025 5146320
0.11854269 -0.049938183 1.1839087 4883148
-0.087423488 -0.050456166 1.1836779 3962814
-0.082486324 -0.048927896 1.1862383 3963072
0.11256946 -0.039167322 1.1838152 5146577
0.11638482 -0.040534895 1.1817254 5080527
-0.08650846 -0.041321594 1.1836644 4028607
-0.080399528 -0.0393322 1.1857865 4291526
-0.03062167 -0.034886636 1.1871877 5147865
-0.023169246 -0.034283377 1.1871159 5344731
-0.0069300495 -0.032556094 1.1869724 5345501
-0.00014480203 -0.032213196 1.1869006 5739743
0.010117314 -0.033885889 1.18539 5936862
0.019164965 -0.033447467 1.1856272 5871068
0.029314684 -0.031857684 1.1865538 5739228
0.047351934 -0.029812895 1.1863983 5213656
0.11024921 -0.030392565 1.1840156 4949970
-0.07902354 -0.031738341 1.183871 4422856
-0.070818864 -0.026615031 1.1857495 4686797
-0.060516864 -0.02497106 1.1858574 4884690
-0.050043978 -0.025928698 1.1872013 4950486
-0.0395744 -0.026132904 1.186234 5213659
-0.030980024 -0.026811995 1.1842409 5279707
-0.020770736 -0.027446926 1.1844975 5345244
-0.010701867 -0.025301702 1.1843529 5411808
-0.00080210902 -0.025909692 1.1840116 5806052
0.0086674336 -0.028530352 1.1829057 6068964
0.020708367 -0.028298326 1.1827667 6068963
0.030623984 -0.025443844 1.1836585 6003173
0.038994089 -0.023328759 1.1844999 5608417
0.049188759 -0.022841834 1.1849915 5411038
0.05605844 -0.022573337 1.1865172 5279709
0.10059206 -0.01853545 1.1851782 5212630
0.10638943 -0.021780856 1.1832626 5015248
-0.06743069 -0.020705096 1.1840726 4949712
-0.060668267 -0.020363353 1.1840011 4949713
-0.050524637 -0.019850731 1.1838938 5016279
-0.041113529 -0.019751608 1.1837827 5213659
-0.032434952 -0.020065986 1.1836675 5345501
0.040232796 -0.01582893 1.1829165 5871590
0.048657544 -0.01483845 1.182845 5871847
0.058813557 -0.012154087 1.1848061 5543139
0.066036336 -0.010668106 1.1850504 5280225
0.090548083 -0.0094977766 1.1865042 5411294
0.096441954 -0.010534003 1.1838536 5279196
0.067957103 -0.0053922758 1.1829038 5411556
0.077452369 -0.003218241 1.182856 5412066
0.088723063 -0.0026486665 1.1827368 5477344
0.095598593 -0.0045601055 1.1825939 5213404
0.0086554913 -0.19156332 1.1858505 3105189
-0.012100544 -0.18417166 1.1873325 3039906
-0.0023002271 -0.18582614 1.187591 3039908
0.0073030256 -0.18656304 1.1893573 3105447
0.017827945 -0.18517205 1.1866879 3105702
0.026827976 -0.18344349 1.1858819 3171750
0.035781555 -0.18257752 1.1858001 3237289
0.047138322 -0.18014294 1.1857376 3237548
0.057350431 -0.17962685 1.1856297 3171752
0.066427872 -0.17916812 1.1855336 3171752
-0.040301926 -0.17410076 1.186987 3039909
-0.032415286 -0.17446214 1.1877694 3105701
-0.024116762 -0.17674705 1.1892551 3105443
-0.014242183 -0.18169199 1.1904371 3040163
0.016451171 -0.17922816 1.1901408 3105960
0.027780145 -0.17754009 1.1900557 3105958
0.036780495 -0.17554735 1.1892078 3237545
0.04709854 -0.17392945 1.1880374 3237547
0.057106558 -0.17309456 1.1874362 3237544
0.067147091 -0.17236239 1.1874213 3237545
0.075676233 -0.16990942 1.1863757 3303339
-0.052007839 -0.16525462 1.1874037 3172009
-0.043408591 -0.1680627 1.1896135 3105961
-0.03395449 -0.16985321 1.1910439 3171752
0.050080087 -0.16703254 1.190111 3303337
0.056910988 -0.16668734 1.1900388 3303593
