# .PCD v0.7 - Point Cloud Data file format
VERSION 0.7
FIELDS x y z rgba
SIZE 4 4 4 4
TYPE F F F U
COUNT 1 1 1 1
WIDTH 174
HEIGHT 1
VIEWPOINT 0 0 0 1 0 0 0
POINTS 174
DATA ascii
0.091443487 -0.10740174 1.0985597 5134174
0.097709753 -0.10893025 1.0960219 5134176
0.091923147 -0.10537969 1.1027803 4871515
0.079536945 -0.12004364 1.0873642 4936281
0.089226872 -0.12243474 1.0833831 5199967
0.093999006 -0.12305516 1.0825725 5397348
0.072888575 -0.11591331 1.0945457 4673880
0.080425031 -0.11539258 1.0919609 4870232
0.089758024 -0.1172213 1.0907522 5068382
0.099407047 -0.11880241 1.089691 5068384
0.1073426 -0.12000905 1.0901731 4476504
0.074492939 -0.11067209 1.1023839 4607822
0.081472971 -0.11036433 1.1006455 4673623
0.092069067 -0.11207586 1.0981562 5134174
0.10245604 -0.11302759 1.0972146 4739419
0.10997365 -0.11527541 1.0962667 4081746
0.075955652 -0.10863817 1.1105517 4410445
0.084473386 -0.10655285 1.1088076 4213839
0.09466631 -0.10764976 1.1075472 4345429
0.10443725 -0.10910408 1.1055074 4016211
0.11228183 -0.11132209 1.1043507 3621193
0.086188741 -0.10435147 1.1135199 3884109
0.095574282 -0.10513425 1.1128284 3752784
0.10575805 -0.1064884 1.1110361 3621192
0.11266656 -0.10787225 1.10886 3686459
0.068380073 -0.13345429 1.0825264 4673626
0.076261915 -0.13231581 1.079132 4870741
0.084974311 -0.1341354 1.0766577 5265754
0.09496145 -0.13535804 1.075731 5397604
0.10374927 -0.13795885 1.0780232 4608350
0.069428667 -0.12601967 1.0889559 4673629
0.077393159 -0.12578118 1.0852585 4870744
0.085350938 -0.12721294 1.0823216 5134174
0.097806878 -0.12853283 1.0823209 5397606
0.10589625 -0.13300373 1.0834531 4476760
0.11275807 -0.13406816 1.0869402 4015442
0.064142793 -0.12571907 1.099386 3883351
0.067774676 -0.12148097 1.0965537 4475995
0.10008116 -0.12533247 1.087653 5068641
0.10961475 -0.12700878 1.0898438 4082513
0.11548962 -0.13128677 1.091802 3752531
0.068699688 -0.11606281 1.1050727 4079443
0.1134569 -0.1229506 1.0973293 3621705
0.11725955 -0.12730579 1.095831 3751503
0.11351444 -0.11822306 1.1036489 3490378
0.075380072 -0.15298015 1.069478 5002588
0.07850498 -0.15339567 1.0689281 5528419
0.066990271 -0.14758198 1.0797936 4739163
0.073593214 -0.14707756 1.0747256 5002333
0.082806975 -0.14838892 1.0727987 5397092
0.09217333 -0.14995718 1.0735993 5332066
0.098239072 -0.15173717 1.074294 4740695
0.066662356 -0.14101268 1.0812683 4082256
0.073284052 -0.14082427 1.0782919 5068120
0.095686138 -0.14537598 1.0756941 5200736
0.10432629 -0.14695793 1.0781837 4345175
0.11156565 -0.14913303 1.079669 4278096
0.10909148 -0.14039218 1.0846765 4147028
0.11352193 -0.1448863 1.0852122 3819087
0.11508469 -0.13835157 1.0902653 3687502
0.079410665 -0.16878927 1.062497 5528423
0.083731778 -0.1691236 1.0622324 5397348
0.071227044 -0.15936586 1.0688977 4804702
0.080471098 -0.16016197 1.066834 5462626
0.089681767 -0.16343504 1.0669072 5003105
0.098293476 -0.1638398 1.0690621 4804440
0.064343847 -0.15516634 1.0799483 3817824
0.069553174 -0.15390947 1.073873 4673622
0.085219473 -0.15599263 1.0711159 5660265
0.092763804 -0.15630183 1.0712205 5069150
0.10209623 -0.15809715 1.073025 4475986
0.10831764 -0.15701087 1.0758795 4014924
0.1062766 -0.15402147 1.0772573 4606547
0.11236982 -0.15419871 1.0786391 3620428
0.071274281 -0.17708701 1.0606388 4079956
0.077613316 -0.17630148 1.0576372 5266270
0.083331123 -0.17893197 1.0580178 5002845
0.069852389 -0.17233591 1.0657136 4079963
0.076824844 -0.172612 1.0612392 5330781
0.087502897 -0.17453089 1.0621109 5002331
0.092056952 -0.17097583 1.0661157 5001816
0.096684985 -0.17140497 1.0684403 4540755
0.1025459 -0.16803448 1.0732192 4213074
0.074386314 -0.19311188 1.0554175 5265766
0.074189708 -0.18850312 1.0583516 5068639
0.083061844 -0.18851306 1.0581114 4214103
0.067749493 -0.18019342 1.0630627 1580089
0.088799082 -0.18277903 1.0613288 4145996
0.09272249 -0.1801178 1.0656773 4212054
0.0677616 -0.19541478 1.0568987 3618132
0.072891399 -0.19658676 1.0549848 5199718
0.079557113 -0.19698325 1.0548228 4214875
0.064713538 -0.23620397 1.0091413 528927
0.069573633 -0.23714823 1.007671 1517876
0.066107482 -0.25196174 1.0043024 4419983
0.05286324 -0.24534646 1.0120608 1651559
0.058479983 -0.24290684 1.0104344 1782104
0.069863625 -0.24363482 1.0052156 4154236
0.07545504 -0.24631639 1.0090038 3028033
0.062603831 -0.24497302 1.0183816 2369321
0.070373051 -0.24279407 1.0153797 2040105
0.066910721 -0.23336598 1.0335795 4146252
0.051687591 -0.25643551 1.0120132 5077683
0.057856701 -0.25720093 1.0079801 4617364
0.066982105 -0.25858271 1.0060266 4549258
0.073407866 -0.25461942 1.0087179 6582660
0.053272091 -0.24791428 1.0205743 7695014
0.061548926 -0.24795008 1.0228457 2040625
0.069749415 -0.24789008 1.0222465 2172202
0.075313687 -0.25084519 1.0166951 2760198
0.054261051 -0.26925805 1.0041661 4683677
0.059827253 -0.26999819 1.0031865 3831442
0.048315324 -0.26435927 1.0110681 3299734
0.054793246 -0.26493651 1.0072948 4683420
0.063018069 -0.26710933 1.0057901 3960460
0.03159517 -0.31049716 0.94666213 3829135
0.039635591 -0.31135133 0.94569075 4223637
0.045620508 -0.31234744 0.94422406 3960467
0.032778494 -0.30647072 0.95508885 3498881
0.041120492 -0.30701381 0.95387101 3895695
0.049052395 -0.30783659 0.95387197 3631246
0.035378642 -0.29911149 0.96364725 3499128
0.042285886 -0.30038777 0.96169311 4025235
0.051004779 -0.30280155 0.96183264 3499655
0.038037773 -0.29347104 0.97095942 3826560
0.044587635 -0.29481459 0.96997905 4156303
0.052144151 -0.29832661 0.96921325 3630985
0.040152956 -0.29222196 0.98063225 3893387
0.046728708 -0.2915487 0.97909844 4157333
0.053926364 -0.2941407 0.97917593 3762828
0.043515034 -0.29069656 0.9887026 3762325
0.049778931 -0.28706649 0.98839468 4420507
0.055714052 -0.29004163 0.98819464 3828877
0.045308761 -0.28476614 1.0011191 4222878
0.05209199 -0.28310996 0.99663532 4552347
0.057925239 -0.28672534 0.99648124 3631755
0.045510724 -0.27619588 1.0059725 3627913
0.053680167 -0.27617693 1.0020717 4683676
0.060819216 -0.27921143 1.0032591 3892613
0.06355311 -0.27309391 1.0086416 3563127
0.027714591 -0.31928313 0.94060808 3033484
0.03553826 -0.32293284 0.93934327 2897991
0.04556584 -0.32346454 0.93810785 3891064
0.053024158 -0.32562789 0.93820298 2638186
0.025761321 -0.3136749 0.94871145 666715
0.035932481 -0.31602943 0.94485313 4813457
0.049821146 -0.31656101 0.94512337 3499654
0.056693092 -0.32075635 0.9455983 3561592
0.027521871 -0.3088249 0.95889479 6722
0.051706322 -0.31255654 0.95357394 3694979
0.058088738 -0.3151024 0.95353884 3233144
0.055442452 -0.30841133 0.96249712 3104639
0.059880756 -0.31187573 0.9630878 2640231
0.05681511 -0.30426133 0.97119761 2907007
0.060849968 -0.30896637 0.97231817 3099492
0.03749856 -0.29622558 0.98588115 4089741
0.058433764 -0.30052385 0.97989064 3496061
0.062682055 -0.30479038 0.98216099 4278874
0.041465078 -0.29314256 0.99263471 2972810
0.059929818 -0.29701638 0.9895876 3757171
0.063263781 -0.30124241 0.98954093 3748927
0.043814413 -0.29087609 0.99754387 3630740
0.062123254 -0.29279485 0.99538618 3953004
0.033374988 -0.33011401 0.93619156 984897
0.044431329 -0.32985216 0.93782043 4350584
0.059526738 -0.32175428 0.95755047 4674411
0.061164342 -0.32028288 0.96610492 6974583
0.061794005 -0.31541848 0.9762066 3815753
0.033156719 -0.30410498 0.98985082 5799072
0.064758584 -0.30882674 0.9832167 5064001
0.057845883 -0.33535704 0.95762151 7039097
0.058756251 -0.33380228 0.96321547 7565430
0.059923321 -0.32978886 0.97084868 8223350
0.06159313 -0.32210076 0.97616845 9076613
