# .PCD v0.7 - Point Cloud Data file format
VERSION 0.7
FIELDS x y z rgba
SIZE 4 4 4 4
TYPE F F F U
COUNT 1 1 1 1
WIDTH 174
HEIGHT 1
VIEWPOINT 0 0 0 1 0 0 0
POINTS 174
DATA ascii
0.087888792 -0.12112149 1.1022133 5134174
0.094154485 -0.12311676 1.1000217 5134176
0.088295311 -0.11905405 1.1064194 4871515
0.075718611 -0.13315168 1.0906337 4936281
0.085408598 -0.13626562 1.0871887 5199967
0.090161711 -0.1372209 1.0866313 5397348
0.069019236 -0.12844446 1.097401 4673880
0.07669241 -0.12848175 1.0951939 4870232
0.085927688 -0.13095649 1.0944901 5068382
0.095487408 -0.13320258 1.0939455 5068384
0.1032888 -0.13492982 1.0948491 4476504
0.070586383 -0.12317052 1.1052247 4607822
0.077648699 -0.12336635 1.1038381 4673623
0.088213995 -0.12583406 1.1019176 5134174
0.098545969 -0.12749954 1.1015197 4739419
0.10593086 -0.13026531 1.1009911 4081746
0.071777761 -0.12108007 1.1134223 4410445
0.080493592 -0.11960608 1.1120791 4213839
0.090638116 -0.12140957 1.1113554 4345429
0.10037641 -0.12355651 1.109838 4016211
0.10809949 -0.12631859 1.1091168 3621193
0.082119271 -0.11743313 1.1168363 3884109
0.091452479 -0.11885792 1.1166346 3752784
0.10159671 -0.12092781 1.1153835 3621192
0.1084943 -0.12281485 1.1135834 3686459
0.063928194 -0.14587474 1.0854535 4673626
0.072027698 -0.14533484 1.0824454 4870741
0.080707878 -0.14778353 1.0804461 5265754
0.090622254 -0.1496921 1.0800474 5397604
0.099088319 -0.15283196 1.0828242 4608350
0.065160617 -0.13840301 1.0918069 4673629
0.073296227 -0.13877237 1.088515 4870744
0.081273779 -0.14079256 1.0860093 5134174
0.093595698 -0.14294583 1.0866619 5397606
0.10129599 -0.14792696 1.0882752 4476760
0.10788827 -0.14938147 1.0921228 4015442
0.059397325 -0.13754411 1.1019491 3883351
0.063445069 -0.13361572 1.0992366 4475995
0.095815621 -0.13980177 1.0920502 5068641
0.10509276 -0.14207147 1.0947486 4082513
0.11055861 -0.14669526 1.0970713 3752531
0.064313591 -0.12810633 1.107703 4079443
0.10882672 -0.13813487 1.1023529 3621705
0.11239365 -0.14276411 1.1011202 3751503
0.10889278 -0.13329917 1.10859 3490378
0.070220694 -0.16607814 1.0730945 5002588
0.073333465 -0.16671328 1.0727106 5528419
0.061717119 -0.15992793 1.0828823 4739163
0.068581983 -0.15996735 1.0781486 5002333
0.07776925 -0.16193205 1.076713 5397092
0.08695595 -0.16410992 1.0780132 5332066
0.092844605 -0.16627936 1.0790434 4740695
0.061764449 -0.15332386 1.0842322 4082256
0.0685229 -0.15363887 1.0815929 5068120
0.090664342 -0.1597349 1.0802091 5200736
0.099042833 -0.16184461 1.0831592 4345175
0.10603489 -0.16447157 1.085045 4278096
0.10391638 -0.155488 1.0897785 4147028
0.10799868 -0.1602582 1.0906109 3819087
0.10975039 -0.15374562 1.0956305 3687502
0.07350675 -0.1822558 1.0665834 5528423
0.077802882 -0.18288472 1.0665438 5397348
0.065676518 -0.17218062 1.0724074 4804702
0.074935801 -0.17363603 1.0708286 5462626
0.083887376 -0.17751831 1.0714219 5003105
0.092334226 -0.17845833 1.0740173 4804440
0.058556207 -0.16731292 1.0830251 3817824
0.064133525 -0.16652785 1.0772026 4673622
0.079738997 -0.16971208 1.0752779 5660265
0.087230332 -0.17052519 1.0757701 5069150
0.096318051 -0.17290764 1.0780747 4475986
0.10244992 -0.17218606 1.0812234 4014924
0.10055134 -0.16903996 1.0824473 4606547
0.10654243 -0.16959898 1.0841392 3620428
0.064926527 -0.19002306 1.064449 4079956
0.071445204 -0.18972394 1.0617607 5266270
0.076944821 -0.19272457 1.0624734 5002845
0.063581675 -0.18508884 1.0693678 4079963
0.070732228 -0.18592009 1.0652579 5330781
0.081198595 -0.18853442 1.0667012 5002331
0.085780084 -0.18521564 1.070874 5001816
0.090247341 -0.18590909 1.0734371 4540755
0.096080139 -0.18284704 1.0784521 4213074
0.067195423 -0.20631982 1.0596521 5265766
0.067167871 -0.20165177 1.0624976 5068639
0.076019734 -0.20226228 1.0627081 4214103
0.061082754 -0.19283772 1.0667408 1580089
0.081967525 -0.19686472 1.0661193 4145996
0.085842751 -0.19438848 1.0706177 4212054
0.060364116 -0.20814316 1.0608323 3618132
0.065490745 -0.20969425 1.0592004 5199718
0.072113842 -0.21054065 1.0593832 4214875
0.056916222 -0.24956182 1.0136473 528927
0.061767638 -0.25085893 1.0124408 1517876
0.057472393 -0.26546925 1.0091405 4419983
0.044341117 -0.25782886 1.016109 1651559
0.050184529 -0.25580427 1.0147305 1782104
0.061736722 -0.25739715 1.0101085 4154236
0.066938132 -0.26037359 1.0142183 3028033
0.053759456 -0.25798693 1.022909 2369321
0.061798096 -0.25639388 1.0202705 2040105
0.058088269 -0.24640034 1.0381162 4146252
0.042417232 -0.26881269 1.0161811 5077683
0.048712127 -0.27006948 1.0124791 4617364
0.057807855 -0.27209902 1.0110137 4549258
0.06434726 -0.26852438 1.0139632 6582660
0.044152025 -0.26025134 1.0246727 7695014
0.052284546 -0.26079851 1.0273614 2040625
0.060489688 -0.26130122 1.0271783 2172202
0.066108055 -0.26473138 1.0219649 2760198
0.044497512 -0.28193018 1.008683 4683677
0.050042108 -0.2830615 1.0079992 3831442
0.038564436 -0.27650902 1.0151942 3299734
0.045166984 -0.27759373 1.0117643 4683420
0.05328925 -0.28034315 1.0107143 3960460
0.02195359 -0.32267061 0.95077693 3829135
0.02995545 -0.32408172 0.95022875 4223637
0.035923976 -0.32550609 0.94908398 3960467
0.022989355 -0.31856871 0.95918673 3498881
0.031325106 -0.31969461 0.95840263 3895695
0.03917281 -0.32104808 0.95881945 3631246
0.025657244 -0.31123474 0.96774596 3499128
0.032549899 -0.31301004 0.96616572 4025235
0.041066639 -0.31600082 0.9667865 3499655
0.028328642 -0.30564371 0.97509152 3826560
0.034812372 -0.30744305 0.97446662 4156303
0.042140964 -0.31146902 0.97414207 3630985
0.030042209 -0.30435055 0.98483777 3893387
0.03671642 -0.30415061 0.98362893 4157333
0.043708272 -0.30721816 0.98411345 3762828
0.033096425 -0.30289686 0.99304265 3762325
0.039600417 -0.29970241 0.99299431 4420507
0.045321882 -0.30307281 0.9931438 3828877
0.034672391 -0.29685858 1.0054367 4222878
0.041766368 -0.29574978 1.0012766 4552347
0.047340475 -0.29975107 1.0014772 3631755
0.035216555 -0.28822795 1.0101548 3627913
0.043551512 -0.28883404 1.0066739 4683676
0.050399862 -0.29231739 1.0082709 3892613
0.053273819 -0.28629321 1.0136856 3563127
0.017788656 -0.33129284 0.94467664 3033484
0.025398798 -0.33548382 0.94386959 2897991
0.035415795 -0.33671191 0.94315332 3891064
0.042695682 -0.33936906 0.94366181 2638186
0.015822649 -0.32540864 0.95257872 666715
0.025988564 -0.32851607 0.94928008 4813457
0.03977837 -0.32997388 0.95026326 3499654
0.046316851 -0.33461121 0.95115405 3561592
0.017402638 -0.32048965 0.96275854 6722
0.041510824 -0.32594055 0.95873278 3694979
0.047699045 -0.32890955 0.95906276 3233144
0.04507383 -0.32188192 0.96776593 3104639
0.049231324 -0.32562435 0.96863699 2640231
0.046293117 -0.31766409 0.97645658 2907007
0.049937904 -0.32260668 0.9778564 3099492
0.026864741 -0.30806339 0.99000919 4089741
0.047729813 -0.31387445 0.98515904 3496061
0.051560178 -0.31837147 0.98771065 4278874
0.030692484 -0.30512226 0.99690467 2972810
0.048978962 -0.3102864 0.99486142 3757171
0.052015767 -0.31472692 0.99505234 3748927
0.032944586 -0.30292311 1.0018895 3630740
0.051164716 -0.30610913 1.0006949 3953004
0.022910543 -0.34256375 0.94072866 984897
0.033864781 -0.34301332 0.94291198 4350584
0.048480485 -0.33556324 0.96324915 4674411
0.049788695 -0.33403811 0.97185075 6974583
0.050246835 -0.32903036 0.98189145 3815753
0.021805376 -0.31555426 0.99388033 5799072
0.053302314 -0.32251674 0.98893553 5064001
0.045876231 -0.34901839 0.96345466 7039097
0.046612099 -0.3474192 0.96906179 7565430
0.047670096 -0.34334466 0.97667849 8223350
0.049593747 -0.33568347 0.98195118 9076613
