# .PCD v0.7 - Point Cloud Data file format
VERSION 0.7
FIELDS x y z rgba
SIZE 4 4 4 4
TYPE F F F U
COUNT 1 1 1 1
WIDTH 1129
HEIGHT 1
VIEWPOINT 0 0 0 1 0 0 0
POINTS 1129
DATA ascii
-0.13350374 -0.10133157 1.0994549 3105183
0.15922552 -0.1051444 1.1063132 3631271
0.17808586 -0.11041833 1.1053137 13817037
-0.13572988 -0.089884184 1.0938445 3499424
-0.1331469 -0.090762801 1.0977538 3302563
0.15908459 -0.094936848 1.1050595 3369127
-0.13294064 -0.081287935 1.097003 3434147
0.16114007 -0.085348576 1.1056172 2908578
0.16698278 -0.082906768 1.1037272 8233160
-0.1373188 -0.070201404 1.0937194 3365295
-0.13209181 -0.071352988 1.0968926 3499689
0.16210172 -0.075807877 1.1049192 4024485
0.16712683 -0.074498482 1.1033266 11192030
-0.13568467 -0.061255235 1.0954744 2181536
-0.13048534 -0.061139323 1.0967945 3433908
0.16136673 -0.070254438 1.1069913 2708114
-0.13402276 -0.052878678 1.0991173 8233201
-0.1301758 -0.054139454 1.0975528 3564980
0.015268004 0.11626198 1.0905422 9935247
0.020993909 0.1170717 1.0906397 9934992
-0.1183065 -0.17012221 1.1138299 929696
-0.11418506 -0.1704312 1.1162539 1984411
0.14817522 -0.17035592 1.1225023 13424882
-0.11910041 -0.16066524 1.111061 2512540
-0.11458989 -0.16247849 1.1145269 2906513
0.14965796 -0.16457874 1.1198121 8955594
0.15541837 -0.16349778 1.1163368 14080986
-0.12602443 -0.14645678 1.1108142 2381461
-0.12304684 -0.15158829 1.1130719 2776212
0.15007111 -0.1550526 1.1181269 3697834
-0.12638976 -0.14049599 1.1113535 2841752
-0.12440915 -0.14469378 1.1147736 2906774
0.15208276 -0.14515492 1.11818 2646183
-0.12812167 -0.12986851 1.1118269 2907034
-0.12422665 -0.13404076 1.1142662 2775704
0.15278289 -0.1363878 1.1188769 3696546
0.15492764 -0.13191718 1.1181458 3761571
-0.12894477 -0.1204803 1.1099415 2973083
0.1567259 -0.12588343 1.1172311 3368880
-0.12985091 -0.1102936 1.1088853 3039134
0.15723014 -0.11431348 1.1162927 3500454
-0.12984206 -0.099868633 1.1080841 3171232
0.15627931 -0.10581984 1.1168765 3631529
-0.13023247 -0.091135398 1.1069542 3302564
0.15505368 -0.095621258 1.1120653 3697839
0.15539494 -0.095735081 1.1150832 3763633
-0.13016382 -0.080554172 1.1072485 3368355
0.15616006 -0.084516704 1.1142763 3436468
0.17052314 -0.081111491 1.1147411 10992842
-0.12764737 -0.070187293 1.1068105 3697068
0.15413728 -0.071350865 1.1178874 3765679
0.15740885 -0.07412982 1.1132739 3830452
0.17024174 -0.076859847 1.1145302 11387079
-0.12636413 -0.06254451 1.1042707 3631022
-0.12412208 -0.059397791 1.1036721 3500456
0.15368846 -0.064571552 1.114658 3830449
0.16045281 -0.065290391 1.1123706 5207985
0.16685812 -0.066210717 1.1166083 10334913
-0.12644529 -0.050432891 1.1057612 3434161
0.15298755 -0.05565016 1.1139582 3893939
0.16009001 -0.056285046 1.1133553 8428221
-0.12661436 -0.040240224 1.1088439 6194370
-0.12205107 -0.038172051 1.1097116 4421311
0.15100193 -0.043706819 1.115392 5734064
0.15721342 -0.0474241 1.116811 10203587
-0.12060424 -0.031535178 1.1094273 6852289
0.14966892 -0.037870232 1.1129677 8955077
0.021521036 0.093801431 1.106792 9737616
-0.088634469 -0.20679682 1.1269554 7635861
-0.085323043 -0.20721492 1.1297249 8100012
-0.098782837 -0.1965982 1.1288941 10535920
-0.091747984 -0.19949651 1.1268446 5996227
-0.085261613 -0.20362905 1.129554 6394567
-0.10840889 -0.18580124 1.1201344 8431615
-0.10152006 -0.18822089 1.123188 1526185
-0.095477633 -0.19051337 1.1275359 1262491
0.12819137 -0.19125342 1.134046 11717846
-0.11681502 -0.17711952 1.119517 7571711
-0.10990974 -0.17942247 1.1213499 1917611
-0.10306751 -0.1818704 1.1254138 2379673
-0.096426763 -0.18479915 1.1283833 2644619
0.12989834 -0.18441436 1.1337581 5010097
0.1373255 -0.18172058 1.1306583 10599906
0.14446682 -0.1806661 1.1299194 14081762
-0.10988714 -0.17047465 1.1235794 2709143
0.1311222 -0.1738441 1.1332793 2909858
0.13786906 -0.17365891 1.1296076 4026283
0.14554805 -0.17414886 1.126127 12307424
-0.11646735 -0.15682454 1.1185501 2775446
-0.11222751 -0.16096327 1.1217632 2775442
0.13925324 -0.16470334 1.1300297 3105445
0.14432946 -0.16419202 1.1251189 2578854
-0.11842722 -0.14949849 1.1203084 2775449
-0.11436079 -0.15175201 1.1250328 2906778
0.14171691 -0.1548852 1.1310186 3564451
0.14518091 -0.15415397 1.1270603 3433893
-0.12215746 -0.14071521 1.1209394 2840984
0.14331497 -0.14665897 1.1322638 3565217
0.14725856 -0.14486107 1.1269304 3499430
-0.12668225 -0.12888187 1.1169641 2841497
-0.1238733 -0.13041742 1.1231135 2907290
0.14966016 -0.13417633 1.1288109 3237547
-0.12673827 -0.11935777 1.1181074 2973083
-0.12411923 -0.11967193 1.1225913 3038877
0.15288918 -0.12449516 1.1296062 3827369
0.15571547 -0.12377273 1.1234481 3564710
-0.12765516 -0.10932418 1.1188625 3039391
-0.12513934 -0.11109536 1.1228225 3170977
0.15333483 -0.11443251 1.1289512 3565735
0.15586185 -0.11522748 1.123041 3500198
-0.12769216 -0.10103769 1.1206094 3170977
0.15377247 -0.10546157 1.127863 3631790
0.15476367 -0.10702749 1.1306324 3434923
-0.12764274 -0.090543121 1.1191049 3302823
0.15362841 -0.094010152 1.1274762 3566513
-0.12740891 -0.080618583 1.1172984 3368614
0.15288129 -0.084749155 1.1270521 3632560
-0.12680522 -0.072866209 1.1182755 3565995
0.1518876 -0.074635476 1.1252687 3895728
-0.12365154 -0.057806473 1.1192293 3697842
0.14975521 -0.064723559 1.1232729 4158132
-0.12181867 -0.049598683 1.1176405 3502262
0.14877862 -0.053993013 1.1239358 4027837
-0.11899733 -0.040166467 1.1166679 3698611
0.14402592 -0.042292569 1.127266 4619197
0.14990826 -0.045746736 1.1220258 4946612
-0.12505366 -0.033816006 1.1124352 7180220
-0.11758893 -0.030597165 1.1196687 4815032
0.14406765 -0.035849586 1.1262898 5209534
0.14899504 -0.034526389 1.1189998 8425655
0.022498371 0.089906029 1.1100067 9474444
-0.062133797 -0.21710694 1.1377628 8300241
-0.080115505 -0.20880622 1.133294 7642055
-0.072687566 -0.20947982 1.1356428 4815810
-0.066025808 -0.21296141 1.1374708 5210825
-0.089038476 -0.19677934 1.1321393 932767
-0.082170449 -0.20024933 1.1341563 2382238
-0.073662706 -0.20331161 1.1368252 2251168
0.10983918 -0.20299202 1.1411827 6518691
0.11572587 -0.20212889 1.139851 11319227
-0.090694562 -0.18992925 1.1336401 2447513
-0.085412599 -0.19337961 1.1360681 2513045
0.11770109 -0.19392827 1.1398804 4617903
0.12481235 -0.19419828 1.1371113 10929103
-0.099949397 -0.17878519 1.1324713 2971544
-0.094116978 -0.18261375 1.1333405 2774929
0.11994606 -0.18473478 1.1388773 2909086
0.12492199 -0.1839776 1.1366228 3105187
-0.10722073 -0.16556031 1.130206 2709911
-0.10274364 -0.1705744 1.1329099 2644371
0.12659326 -0.17416924 1.1368077 3368356
-0.10948092 -0.15882927 1.1316495 2775444
-0.10460396 -0.1629862 1.1328151 2709910
0.1311567 -0.16433881 1.1374301 3368613
0.13545056 -0.16152114 1.1357948 3499683
-0.112539 -0.15023406 1.1308451 2841497
0.13302563 -0.15680514 1.1395161 3237027
0.13786294 -0.15430248 1.1368406 3302821
-0.1182472 -0.13860801 1.1292205 2645144
-0.11485345 -0.14026585 1.1319243 2775964
0.14113121 -0.14438994 1.1372919 3237542
0.1452993 -0.14092077 1.1363748 3106215
-0.11995447 -0.13014817 1.1296577 2907291
0.14265601 -0.13484843 1.1373553 3499683
0.14582688 -0.13299288 1.1358157 3303338
-0.12079226 -0.12017389 1.1301053 3039134
0.14757988 -0.12452523 1.13572 3499947
-0.12563612 -0.10592616 1.1269019 3236770
-0.12363041 -0.11008535 1.1304876 3236770
0.14948088 -0.11403928 1.1356685 3500458
-0.12552525 -0.099454448 1.1265936 3237027
-0.12390161 -0.099651501 1.1306474 3302821
0.15201595 -0.10351922 1.1356916 3632048
-0.12535894 -0.089746885 1.1261311 3302824
-0.123744 -0.090450905 1.1302091 3302569
0.15044348 -0.094618961 1.1351224 3632047
-0.12563556 -0.080679595 1.1256889 3434408
-0.12291437 -0.078167543 1.1296387 3434665
0.14724971 -0.083549485 1.1341503 4026292
-0.12502635 -0.070331745 1.1252062 3631531
-0.12338241 -0.069343656 1.1292036 3631531
0.14752576 -0.075648978 1.1324016 4157366
-0.12491546 -0.063860036 1.1248978 4025255
-0.12173309 -0.058684457 1.127014 3632304
0.14720157 -0.063887186 1.1313837 4289211
-0.11810645 -0.049786467 1.1261007 3568048
0.14421511 -0.053050362 1.1314595 4094399
0.14643873 -0.057405282 1.1330569 4224702
-0.11665394 -0.043852162 1.1241333 3764911
-0.1132006 -0.039477851 1.1265091 3895729
0.14178482 -0.044561196 1.1317827 4487616
-0.11762933 -0.025606304 1.1262378 6458567
-0.11274587 -0.029481769 1.1259395 3895996
0.14192846 -0.033587355 1.1302028 5735616
0.14885391 -0.030467235 1.1298172 9477559
-0.11716833 -0.022885896 1.1271194 6852289
-0.11391831 -0.02293776 1.1271994 5933254
0.054567561 0.075692125 1.1224698 9474701
-0.025849605 -0.22755548 1.1511469 7248329
0.006976095 -0.22970745 1.1512313 5801654
0.015027775 -0.22873306 1.1508422 5210039
0.02777528 -0.22950542 1.1525184 6328255
0.035438657 -0.22962773 1.1527069 7379645
0.046996623 -0.22969061 1.1529853 8430007
0.055070259 -0.22823811 1.1491021 8625323
-0.063410603 -0.21921927 1.1418397 9678537
-0.052744903 -0.21908063 1.1486229 4422071
-0.043457419 -0.21983431 1.1503563 2778029
-0.033729404 -0.22180271 1.1506827 2513574
-0.026164556 -0.22463274 1.150999 2315684
0.0037466036 -0.2258395 1.1517696 2120102
0.015789049 -0.22603169 1.1520659 2185635
0.028945003 -0.22514752 1.1523368 2186146
0.034400098 -0.22632873 1.1525236 2316696
0.049764328 -0.22438565 1.1527964 4486314
0.057376064 -0.22420779 1.1509663 5997746
0.068551086 -0.2213887 1.1519556 6063288
0.077215977 -0.22000957 1.1532403 6589614
0.085313499 -0.22035763 1.15345 8757678
-0.06864167 -0.20718402 1.1411368 1855898
-0.06204281 -0.20964143 1.1446549 2249885
-0.054497994 -0.21187758 1.1489825 2381985
-0.046425328 -0.21409744 1.1500099 3039902
0.071290322 -0.21433491 1.1528264 2841504
0.077320911 -0.21388409 1.1529485 3302564
0.086953774 -0.21184802 1.151745 4420011
0.09687148 -0.21138251 1.1475717 6984117
0.1064084 -0.20889117 1.1453903 6254993
-0.079622976 -0.19646126 1.1411611 2710418
-0.072040811 -0.19967256 1.1450821 2775447
-0.06542518 -0.20187101 1.1481686 2906776
0.089513749 -0.20395935 1.1523616 3171492
0.09811148 -0.20285749 1.1497095 3237285
0.10656659 -0.20198065 1.1456342 3629215
-0.082485639 -0.18928322 1.1447537 2775191
-0.074472278 -0.19277881 1.1476495 2906012
0.10018936 -0.19362161 1.1508508 3040421
0.10724 -0.192214 1.1475604 3105703
0.11321044 -0.19270185 1.1447744 2777257
-0.097455136 -0.17521495 1.1389141 2710677
-0.090841644 -0.1790334 1.1427896 2709909
-0.08474692 -0.18261796 1.1455812 2709910
0.10844959 -0.18369201 1.1507638 3368100
0.11616524 -0.18219107 1.1464763 3302561
-0.098645024 -0.16851011 1.1416792 2710421
-0.094007857 -0.17123875 1.1460155 2644886
0.11060459 -0.17590168 1.1519166 3040936
0.11874719 -0.17303512 1.149883 3237031
0.12526859 -0.17037973 1.1469935 3368615
-0.1079917 -0.15548934 1.1377152 2776209
-0.1027516 -0.15982378 1.1428052 2841240
0.12087467 -0.16449204 1.1516132 3237287
0.12748921 -0.16261813 1.1465305 3302822
-0.10898597 -0.14861193 1.141901 2710683
-0.10441506 -0.15184073 1.1449691 2841499
0.12983438 -0.15412512 1.1487366 3237541
0.13494182 -0.15167581 1.1449233 3237798
-0.11098208 -0.14000395 1.1420503 2907293
0.13160706 -0.14527281 1.1509455 3237797
0.13650154 -0.14304814 1.1459481 3303334
-0.11699235 -0.12841278 1.1373442 2907805
-0.11496641 -0.12979139 1.1435246 2907805
0.13844082 -0.13360363 1.1480997 3434407
-0.11736826 -0.11903628 1.1384108 3039392
-0.11489766 -0.12000309 1.1438571 3039391
0.14055055 -0.12408022 1.1475652 3500202
0.14487885 -0.12149661 1.1421078 3631274
-0.12040427 -0.10974053 1.1397612 3170979
0.1426269 -0.11375499 1.1492486 3631791
0.14616521 -0.11351816 1.1435355 3566510
-0.12065927 -0.099340625 1.1404381 3105957
0.14202413 -0.10270055 1.1474792 3632305
0.14738497 -0.10416742 1.1416688 3501227
-0.12081467 -0.089431174 1.1376692 3237546
0.1417429 -0.093675755 1.1461587 3698099
0.14647219 -0.09437108 1.1412431 3698094
-0.12003063 -0.079693861 1.1374584 3434923
0.14312449 -0.084407188 1.1462926 3895479
0.14547431 -0.086737312 1.1404519 3895477
-0.11948762 -0.069226161 1.1375884 3566256
0.14354493 -0.073059104 1.1470926 4027579
0.146127 -0.072683677 1.1437979 4157882
-0.1183228 -0.060379744 1.1364337 3567024
0.14168131 -0.063525334 1.1460795 4159422
0.1461118 -0.063953228 1.1417758 4289724
-0.11578847 -0.050697561 1.1338297 3567791
-0.11278012 -0.048559681 1.1391397 3764403
0.14017944 -0.053544786 1.1440719 4356797
-0.11074145 -0.039955735 1.1326709 3830196
0.13770403 -0.043976489 1.1426185 4619718
-0.10913815 -0.02897945 1.1345227 3896507
0.13380668 -0.032010123 1.1424403 4817095
0.13839923 -0.03281346 1.1393615 4948420
-0.11661232 -0.019643717 1.1349884 6916535
-0.10912801 -0.020307563 1.1348906 5210049
0.1330196 -0.025512181 1.1442235 5013440
0.13754128 -0.025278687 1.1419833 5998788
0.034103192 0.049870692 1.1340954 5859448
0.042343013 0.049728103 1.1324389 6122362
0.047831438 0.04991173 1.1355652 6319482
0.058865532 0.051191442 1.1397724 5330522
0.034797244 0.054229848 1.1323766 5792108
0.042646807 0.054923527 1.1319962 5527648
0.047906131 0.054271854 1.1353574 5067354
-0.020178767 -0.2274757 1.1542823 4354997
-0.012887506 -0.22852331 1.1565094 4684224
-0.0029541086 -0.2284576 1.1552742 4289976
0.0080726799 -0.22635946 1.154902 2054307
0.018490709 -0.22707421 1.1551845 2777510
0.023960043 -0.22825849 1.1553718 4026798
0.040424392 -0.22852126 1.1557767 5604271
0.044294253 -0.22693753 1.1557928 4881326
-0.038974829 -0.21683267 1.1533231 3039902
-0.031056089 -0.21785219 1.1540614 2710943
-0.022690115 -0.21975936 1.1571609 2645152
-0.012944892 -0.22261015 1.1608973 2514339
-0.002993172 -0.22269085 1.1606041 2514851
0.0070002084 -0.22042018 1.1591977 2842787
0.016941391 -0.22026028 1.1572237 2908579
0.026604079 -0.21999666 1.1579309 3039651
0.036755793 -0.22080815 1.1593245 2908578
0.04612311 -0.22009853 1.1592633 2778020
0.056234777 -0.21871057 1.1571127 2646433
0.065794989 -0.22161287 1.1560494 5012145
0.077298112 -0.22307628 1.1563938 8955830
-0.051863693 -0.20820254 1.1528873 2841242
-0.042108819 -0.21033148 1.1552727 2775960
-0.033171594 -0.21165608 1.1574855 2841500
-0.023893567 -0.21379644 1.1615481 2907551
0.0078025721 -0.21356589 1.1622924 3105184
0.017019207 -0.2133448 1.1625013 3170722
0.026966361 -0.21350354 1.162746 3302053
0.037107181 -0.2131131 1.1629689 3170723
0.047622718 -0.21236038 1.1631833 3105188
0.057005458 -0.21179903 1.1616632 3170467
0.066704527 -0.21192935 1.1580093 3236258
0.076951467 -0.20874718 1.1561421 3171236
-0.068272494 -0.19661927 1.1516536 2906776
-0.061809883 -0.1989021 1.1530619 2907033
-0.053467944 -0.19984367 1.1570017 2841497
-0.044360749 -0.20389658 1.1605847 2775704
0.058045484 -0.20626731 1.1631389 3105443
0.066887401 -0.20640841 1.1633564 3105443
0.077771567 -0.20292814 1.1621835 3105956
0.086268097 -0.20036402 1.158721 3105956
-0.079060853 -0.18547718 1.1508613 2644884
-0.072126821 -0.18900988 1.1542006 2775705
-0.063871577 -0.19188435 1.1572059 2841497
0.081444696 -0.19559473 1.1631837 3172006
0.089164048 -0.19338571 1.1622601 3040421
0.095124558 -0.19125228 1.159796 2974628
-0.087691538 -0.17656353 1.1502273 2645144
-0.081154421 -0.17828877 1.1535293 2710425
-0.075935885 -0.18101883 1.1552995 2776216
0.09873268 -0.18266676 1.1597198 3171493
0.10382288 -0.18066955 1.1565907 3237026
-0.090653539 -0.16838354 1.1523557 2710424
-0.084418617 -0.1705019 1.1565689 2710937
0.10167952 -0.17603484 1.162726 3302823
0.10815337 -0.17220727 1.1595341 3172005
0.11402075 -0.16920343 1.1586862 3172006
-0.099067613 -0.15700179 1.1490164 2841498
-0.094834715 -0.15935305 1.1541604 2907290
0.11071062 -0.16513295 1.1624175 3303592
0.117046 -0.16191868 1.1610788 3237544
0.12342793 -0.15799305 1.154366 3303337
-0.10072816 -0.14844462 1.1502824 2973342
-0.096342042 -0.15133479 1.1568205 3038879
0.12079325 -0.15419076 1.1614645 3237544
0.1253121 -0.1514523 1.1569006 3303336
-0.10853612 -0.13681243 1.1488221 2973342
-0.10263436 -0.13985389 1.1536154 2973600
0.1288477 -0.14233518 1.1577486 3368872
-0.11001147 -0.12886938 1.1497601 3039392
-0.10473342 -0.12950334 1.1555716 3236259
0.13026798 -0.13284379 1.159079 3500460
0.13487385 -0.13075095 1.1533298 3434923
-0.11095894 -0.11919544 1.1498095 3170978
0.13144036 -0.12389868 1.159595 3500719
0.13625519 -0.12163623 1.156263 3500718
-0.11726018 -0.10807823 1.1462321 3237029
-0.11361524 -0.10921989 1.1523825 3237286
0.13667849 -0.11266294 1.1586177 3697329
-0.11710987 -0.099304691 1.1458142 3237543
-0.11472294 -0.098550998 1.1533456 3172263
0.13806418 -0.10360681 1.1577097 3697843
-0.1173191 -0.089531109 1.1483439 3303340
-0.1153454 -0.088253312 1.1533368 3303852
0.13800773 -0.093151569 1.1576066 3764149
-0.11714386 -0.079923987 1.1448822 3500716
-0.11459441 -0.078218684 1.1528724 3501229
0.14116047 -0.082843579 1.1557558 3764661
-0.11664019 -0.071887426 1.144508 3566512
-0.11351559 -0.068310946 1.1487806 3632306
0.13835715 -0.072605364 1.1550961 3896764
-0.11274951 -0.058712076 1.1483376 3698357
0.13249429 -0.062376838 1.1566641 4291265
0.13643792 -0.063870326 1.1512982 4225217
-0.11097636 -0.049758893 1.1475855 3764408
0.13345666 -0.05283042 1.1555609 4554434
0.13620777 -0.052885912 1.1496203 4488640
-0.10785763 -0.039069027 1.1479474 3895997
-0.10375966 -0.035785519 1.1510918 4027323
0.13327371 -0.042088103 1.1540389 4817354
-0.10606954 -0.02973818 1.14407 3962044
-0.10221377 -0.028316423 1.1499686 4093118
0.1240899 -0.029480435 1.1562185 5014224
0.12952992 -0.032487139 1.1524869 4751563
-0.10476216 -0.019421451 1.1422702 4290235
-0.099988163 -0.019153789 1.146911 4158908
-0.093853004 -0.016797185 1.1504155 4028609
0.12258944 -0.022509761 1.1540675 4817874
0.12939987 -0.022582389 1.1490035 5145287
-0.097440548 -0.012654677 1.144523 4487616
-0.092118397 -0.0098760352 1.1487892 4356800
0.11395847 -0.0098802745 1.1530325 5276623
0.12033421 -0.013167754 1.1496227 5604813
0.12974668 -0.014600575 1.148517 6720449
-0.089929253 -0.0028681904 1.1498398 5671109
0.11216118 -0.004223749 1.1541485 5802961
0.11861031 -0.0052897707 1.1502522 6787017
0.036370724 0.012789786 1.1520972 12972031
-0.018641679 0.0234759 1.14827 5869264
0.013636312 0.019412018 1.1512372 7515376
0.021121072 0.018924356 1.1514391 8764660
0.030716812 0.018329397 1.1516963 10146554
0.037330586 0.01719287 1.1519085 10870005
-0.076060139 0.032410361 1.1404637 8028800
-0.070931643 0.032694183 1.1405723 7305855
-0.014281105 0.024644174 1.1503205 5671370
-0.010965388 0.024591252 1.1504022 5869265
0.012244637 0.024220847 1.1509731 6988787
0.016665595 0.024150282 1.1510818 7185904
0.10302562 0.031608842 1.1527814 6314850
-0.069626473 0.037670739 1.1403643 8028802
0.099991478 0.03519199 1.1525369 6117979
0.076412939 0.045700528 1.1434586 5593178
0.078608193 0.045665495 1.1435126 5658970
-0.018566607 -0.21665379 1.1658181 2973083
-0.013040353 -0.21785039 1.1660073 2973595
-0.0036238562 -0.21753907 1.1668844 2973598
-0.03833963 -0.20525417 1.1647992 2842012
-0.031986341 -0.20674106 1.165022 2776219
-0.022727722 -0.2092943 1.1668913 2907806
-0.013199223 -0.2107465 1.1688246 2907807
-0.0026587658 -0.2114464 1.1692851 2973599
0.006321534 -0.20937967 1.1667293 3039136
0.017061805 -0.20853019 1.1676121 3170723
0.027054157 -0.20860213 1.167186 3236770
0.036872841 -0.20833027 1.1667393 3170979
0.045919493 -0.2082615 1.1669515 3170980
0.052602246 -0.20670554 1.1670361 3171236
-0.049278237 -0.19621231 1.1641041 2842012
-0.04264532 -0.19851229 1.1658293 2842011
-0.033097714 -0.20087339 1.1671786 2842012
-0.024874533 -0.20237944 1.1689876 2907805
0.02156336 -0.20451081 1.1701967 3302309
0.027620008 -0.20350631 1.1691482 3302308
0.036304362 -0.20358852 1.1680001 3171236
0.047094978 -0.20440081 1.1667941 3171236
0.057700448 -0.20311864 1.1686543 3105443
0.067567728 -0.20138696 1.1681386 3171492
0.074170381 -0.19966036 1.1672115 3040420
-0.070160307 -0.18479499 1.1630579 2841497
-0.061447494 -0.18765511 1.1639371 2907291
-0.053090028 -0.19037238 1.1656177 2907549
-0.046488576 -0.19156113 1.1679528 2907551
0.070719466 -0.19417316 1.1708714 3040420
0.077809893 -0.19253686 1.1690643 3106213
0.085722387 -0.19016463 1.1670306 3106214
-0.071599834 -0.17819653 1.1647094 2907290
-0.065100476 -0.18110538 1.1665062 2973340
0.082000405 -0.1854555 1.1707213 3302823
0.088141441 -0.18328521 1.16836 3237030
0.094332963 -0.17997217 1.1685263 3237031
-0.088672414 -0.1645482 1.161644 2841497
-0.080350921 -0.16813187 1.1625485 2842012
-0.074330449 -0.17034449 1.1652685 2907547
0.099668033 -0.17242116 1.1674347 3368361
0.10482787 -0.16929895 1.1664833 3237285
-0.090049893 -0.15861471 1.1613261 2973085
-0.083340868 -0.15881611 1.1642363 3039135
0.1021217 -0.16537634 1.1662303 3368615
0.10868324 -0.16211939 1.1669586 3237799
0.11332607 -0.1589047 1.1661863 3303337
-0.097222082 -0.14556882 1.1605283 2973857
-0.091892734 -0.14910632 1.1623831 3039137
-0.086035222 -0.14996347 1.1650118 3104930
0.11076955 -0.15459958 1.1679214 3172264
0.11707108 -0.15187593 1.1666055 3238059
-0.098296456 -0.13730995 1.1611073 3039650
-0.09444993 -0.14082025 1.1643718 3105700
0.12043986 -0.14212501 1.1677066 3369132
0.12470128 -0.14246014 1.1656673 3434410
-0.10092209 -0.12867945 1.1613454 3171236
0.12244488 -0.13399307 1.1684113 3500719
0.12588373 -0.13180326 1.1671863 3435183
-0.107819 -0.1165811 1.158883 3302823
-0.10326703 -0.11850445 1.1617544 3171495
0.12682247 -0.12173951 1.1665431 3566514
-0.10945195 -0.10785908 1.1598816 3368873
-0.10583579 -0.10900909 1.1617709 3368875
0.12971856 -0.11265022 1.1651558 3697588
-0.11022939 -0.098731764 1.1606383 3303850
0.13138726 -0.10296158 1.1673623 3763892
0.13470446 -0.10249542 1.1639855 3698099
-0.11137252 -0.088568814 1.1590546 3435181
-0.10558492 -0.089035846 1.1616185 3435438
0.13256608 -0.092836581 1.1674762 3829942
0.13548903 -0.092470936 1.164667 3764149
-0.11018089 -0.078905061 1.1590194 3501229
0.13279465 -0.079493664 1.1668404 3896505
0.13719139 -0.082547389 1.1649071 3830455
-0.10940318 -0.069088191 1.1581039 3632563
-0.10518491 -0.065685749 1.160506 3567542
0.13062002 -0.072429918 1.1638741 4027837
0.13582169 -0.076133139 1.1627455 3896505
-0.1084675 -0.059064284 1.1574392 3829940
-0.10507062 -0.059014294 1.1601882 3699127
0.12925407 -0.062745117 1.1646161 4291009
-0.10786289 -0.04896827 1.1564344 3895737
-0.10424693 -0.048064195 1.1596817 4027576
0.12973775 -0.052755617 1.16348 4422849
-0.10654713 -0.042338088 1.155346 4158911
-0.10204555 -0.03861922 1.1572775 4093372
0.12986019 -0.043046653 1.1625158 4817355
-0.098126829 -0.029313952 1.1564616 4093630
-0.093370616 -0.02583462 1.1588728 4094397
0.12257721 -0.032158889 1.1625423 5080014
0.12708767 -0.03553687 1.1605867 4883149
-0.095841676 -0.02181866 1.1546153 4028348
-0.091329664 -0.019264378 1.1561022 4028864
0.11826242 -0.022477083 1.1615293 4949202
-0.087611824 -0.0097253323 1.156051 4029123
-0.0834084 -0.0074567273 1.1582272 3963586
0.11232738 -0.01248499 1.1617979 5146069
0.1157559 -0.017067298 1.1594293 5080276
-0.086627595 -0.0020143688 1.1538833 5342665
-0.079566531 0.0002104193 1.1579504 4882633
-0.016069308 0.0029614642 1.1593313 6070261
-0.0093921758 0.0028548986 1.1594955 6528744
-0.0027150456 0.0027483329 1.1596597 8827627
0.012864927 0.0024996921 1.160043 10340848
0.021597905 0.0017247722 1.1602883 8895736
0.029089754 0.00090610981 1.1605061 6266608
0.10348742 0.00044970959 1.1612996 5475287
0.10794702 -0.0032151937 1.1599129 5475028
-0.07594458 0.0060424581 1.1557536 5999306
-0.069267504 0.0070443079 1.1558646 5540557
-0.060629696 0.01020629 1.1552509 5803727
-0.047950879 0.011873662 1.1581434 4950220
-0.039011084 0.01060757 1.1584172 5016280
-0.029290309 0.0098228827 1.158286 5411294
-0.019202804 0.0095607787 1.1566963 5806569
-0.009256836 0.009492889 1.158579 7120874
0.0003265636 0.010114551 1.1593783 12379901
0.010968213 0.0093007162 1.1571411 13891069
0.020791989 0.0088734478 1.1567211 12969723
0.030726215 0.008993797 1.1578375 9946095
0.040780626 0.0086211637 1.1584983 10013177
0.050551258 0.010332473 1.1584078 7449069
0.05718597 0.012173012 1.1606344 5411552
0.10067994 0.0043082461 1.1595452 6526426
-0.04588782 0.016783908 1.1579566 6264275
-0.038222842 0.017345354 1.1556087 5803990
-0.028602784 0.017749868 1.1543164 5345755
-0.018578028 0.018850416 1.1545024 5412839
-0.0089931097 0.019313753 1.1552093 5676266
-3.0818395e-005 0.018362492 1.157829 7253489
0.0098389722 0.017935269 1.156225 8436213
0.019800304 0.01549951 1.1555779 12051453
0.034293849 0.019701838 1.1557214 10082302
0.04211846 0.018838026 1.1559494 10607102
0.050585568 0.017858401 1.1561983 7515119
0.057579234 0.017197154 1.1577319 6068200
-0.0066649672 0.024789132 1.154501 6001365
-0.0022287797 0.024718337 1.15461 6396124
0.11032733 0.028685749 1.1571016 6447199
-0.0097649638 -0.20676033 1.1735641 3039391
-0.0022505391 -0.2062373 1.1752201 3039135
0.0092183072 -0.20706329 1.1740309 3104930
-0.038607076 -0.19513986 1.1723183 2776478
-0.032295816 -0.1960402 1.1745149 2842271
-0.022476686 -0.1977309 1.1770151 2907807
-0.01329712 -0.19971046 1.1778436 2908063
-0.0033230223 -0.20066598 1.1792331 2973600
0.0070219818 -0.19987181 1.178974 3105187
0.016974442 -0.19972359 1.1782832 3236773
0.026715025 -0.19857335 1.1777786 3237029
0.037655368 -0.19883032 1.1781185 3171237
0.047341898 -0.20004317 1.1761043 3171236
0.056899279 -0.19866511 1.175688 3105444
0.065791368 -0.197364 1.174913 3171493
-0.050720878 -0.18593265 1.1747919 2841758
-0.04268267 -0.18832798 1.1758997 2907551
-0.033861808 -0.18943989 1.178991 2842271
-0.023228226 -0.19074115 1.180485 2908064
-0.016501796 -0.19197214 1.1807045 2973857
0.0048595062 -0.19231305 1.1812298 3105444
0.017743358 -0.19151989 1.1814988 3237030
0.027801737 -0.19213387 1.1809669 3302823
0.037476115 -0.19151348 1.1810443 3171495
0.046869859 -0.1902777 1.1807399 3105703
0.056576736 -0.19070093 1.1807826 3105703
0.066433839 -0.19045091 1.1791027 3105702
0.074873939 -0.18821627 1.1764066 3105958
-0.061827213 -0.17813879 1.1725976 2973598
-0.053967856 -0.1797763 1.1772227 2907551
-0.044159323 -0.18169898 1.1795518 2908065
0.068273976 -0.18191594 1.1822414 3237288
0.077161424 -0.18146113 1.1799834 3302823
0.085928135 -0.17970224 1.1771194 3237287
-0.071064256 -0.16667643 1.1730386 3105183
-0.063739322 -0.17000908 1.1766385 2974112
-0.055524409 -0.17224765 1.1788268 2842786
0.078710638 -0.17461468 1.1821394 3171750
0.087430701 -0.17121075 1.1808484 3172008
0.095627204 -0.16979402 1.176636 3303081
-0.078968465 -0.15698139 1.1701908 3104930
-0.072926641 -0.15911117 1.1764457 3170978
0.090029478 -0.16285273 1.181844 3303337
0.097884208 -0.16156685 1.1797161 3368873
0.10492203 -0.16052642 1.1766247 3237543
-0.088627316 -0.14395666 1.1713376 3040164
-0.081997834 -0.14776224 1.1728029 3105701
-0.075796232 -0.15207332 1.1773745 3302822
0.0995574 -0.15247476 1.1815723 3303597
0.10710326 -0.15037781 1.1772815 3238059
0.11426533 -0.14751472 1.1756759 3303852
-0.090986125 -0.13753769 1.1720858 3106213
-0.083359189 -0.13949905 1.1765901 3172007
0.10805911 -0.1411342 1.1810298 3369387
0.11608907 -0.14120404 1.1774189 3435181
-0.097903475 -0.12731606 1.1689818 3237030
-0.091447465 -0.12788597 1.1735026 3237800
-0.085187167 -0.13132356 1.1761537 3303594
0.10997611 -0.1351124 1.1809864 3500972
0.11853281 -0.13112941 1.1777443 3500976
0.12337744 -0.12853181 1.172978 3500977
-0.098926373 -0.11796685 1.1702886 3237545
-0.094388358 -0.11951261 1.1744767 3303852
0.12040564 -0.12149566 1.1805807 3566772
0.12381626 -0.12207094 1.1766838 3566515
-0.10127486 -0.10822268 1.1699035 3369389
0.12142535 -0.11198783 1.1801481 3763639
0.12492001 -0.11134152 1.1753044 3763639
-0.10777456 -0.094386443 1.1671643 3435181
-0.1025444 -0.097999692 1.1707054 3435438
0.12225747 -0.10092532 1.1796365 3895737
0.12736544 -0.1011333 1.1745843 3764149
-0.10718901 -0.08787483 1.1679337 3435438
-0.10192707 -0.088396318 1.1721514 3501231
0.1223537 -0.095308706 1.1793689 3961530
0.1279218 -0.091667347 1.1741427 3961528
0.13523217 -0.088544339 1.1713393 3895735
-0.1067637 -0.078610651 1.1680995 3501489
-0.10256229 -0.078318626 1.1710721 3501490
0.12266159 -0.077335529 1.1785127 4159679
0.12840286 -0.082323916 1.174155 3962041
0.13527039 -0.086312912 1.1712329 3895735
-0.10708315 -0.071319111 1.1667402 3501747
-0.10228537 -0.068081804 1.1693695 3567541
0.12202112 -0.07095807 1.1781909 4225473
0.12579976 -0.07171049 1.1743114 4159424
-0.10031291 -0.058022317 1.1678649 3764919
0.12192309 -0.062092308 1.1777626 4422597
0.12597238 -0.061634816 1.1738313 4357059
-0.099649198 -0.048278306 1.1672409 3896505
-0.095005915 -0.048018198 1.1719171 3962298
0.12197992 -0.05148115 1.1772542 4685767
0.12614498 -0.05155915 1.1733514 4422851
-0.097988926 -0.039274961 1.1650167 4027836
-0.093073085 -0.037338048 1.1703575 4028094
0.12033736 -0.040972613 1.1745894 4948684
0.12631762 -0.0431947 1.1699493 4751818
-0.096116312 -0.031283252 1.163075 4093632
-0.090627089 -0.027646229 1.1688856 4094399
0.11371966 -0.030374885 1.1760433 5080784
0.11812665 -0.031739801 1.1714069 5211343
-0.087200224 -0.019337334 1.1670834 4094402
-0.080684863 -0.016255029 1.1697307 4226244
-0.074191578 -0.014641464 1.1708094 4620744
-0.020206952 -0.014379397 1.1720833 5412064
0.0022786288 -0.014738239 1.1726363 6463211
0.010281326 -0.018699542 1.1730173 6397929
0.019975707 -0.018214151 1.173225 6397929
0.029239329 -0.016452678 1.1733612 6003432
0.11093511 -0.021179691 1.1730314 5081042
0.1162217 -0.024627857 1.1678152 5081041
-0.079069667 -0.0087209865 1.1642665 4160963
-0.071105786 -0.0076616257 1.1696892 4752075
-0.056029931 -0.0048186406 1.1707702 4949201
-0.049293876 -0.0054879561 1.1709628 5016022
-0.03971985 -0.0067910403 1.170586 5213659
-0.029895389 -0.007877931 1.1703074 5411552
-0.020077119 -0.0087953061 1.1710168 5740773
-0.0099922251 -0.0089242682 1.1720645 6003172
0.00013471767 -0.0091018826 1.1719139 6331366
0.010290973 -0.0093622208 1.1695646 6989552
0.020379139 -0.0095083714 1.1702125 6792432
0.030476877 -0.0096929371 1.1698111 5937640
0.038923446 -0.0088066682 1.1722231 5806054
0.049633048 -0.0076285899 1.1734232 5674725
0.05639796 -0.0066129193 1.1735356 5674983
0.10216904 -0.0098715574 1.1747829 5146841
0.10828535 -0.012301154 1.1693227 5080789
-0.075481199 -0.00036403537 1.1620811 4554184
-0.072093025 0.00055028498 1.1651222 4751049
-0.056913279 0.00071840733 1.1684802 4818129
-0.049454555 0.00056357682 1.1678642 5015507
-0.039836943 0.00026195496 1.164703 5147609
-0.029702267 4.2796135e-005 1.1636531 5346018
-0.020134235 -0.00036751479 1.1665157 5937898
-0.0097074732 -0.0012690425 1.1670301 6462952
0.00077848975 -0.00073171407 1.166364 8303605
0.010171025 -0.0010328814 1.1655849 8501495
0.020026982 -0.0022058934 1.1650618 7252467
0.031320587 -0.0018039942 1.166152 6069484
0.04046328 -0.00082238019 1.1671852 6135528
0.050491065 -0.0012184009 1.1705436 5741031
0.059842274 -0.0010963753 1.1723511 5543655
0.069315866 9.5583498e-005 1.173521 5477092
0.079399429 0.0012599602 1.1737053 5739747
0.090762846 0.00082889944 1.1739969 5280481
0.1000224 -0.0021172538 1.1706614 5015513
0.10553028 -0.0042851046 1.1685859 4949463
-0.068666548 0.0062233284 1.161927 4818122
-0.059219956 0.007064566 1.1621116 5147606
-0.050522052 0.0076697618 1.1622899 4818639
-0.041866645 0.0057956204 1.1625862 5344472
0.0028094463 0.005640626 1.1636583 12971007
0.0072665429 0.005011484 1.1637948 12905215
0.031833127 0.0046194121 1.1643989 5807584
0.045233089 0.0044055581 1.1647285 6004710
0.051311351 0.0052651465 1.1648321 5807083
0.060091197 0.0077000409 1.1670607 5477863
0.068523943 0.0072510615 1.1698202 5542628
0.080200262 0.0042435229 1.1735811 5673698
0.090833977 0.00595925 1.1722499 5804766
0.096599594 0.0035857856 1.165992 5147865
0.063290827 0.015277565 1.1646365 5412324
-0.0099241082 -0.19480377 1.1850029 3039650
-0.0034889318 -0.19555071 1.1851922 3039650
-0.03009451 -0.18658984 1.1841277 2842271
-0.023325989 -0.18669787 1.1842941 2973857
-0.013053836 -0.18789203 1.1858612 2973857
-0.0033658929 -0.18973762 1.1874458 3039395
0.007340407 -0.18801145 1.1868683 3171237
0.016684072 -0.18677762 1.1863196 3237030
0.027023626 -0.18637027 1.1870189 3302569
0.035361655 -0.18665415 1.1870258 3237546
-0.049576156 -0.17580986 1.1831454 2908065
-0.042018406 -0.17689686 1.1833777 2973857
-0.033393979 -0.178749 1.1846737 2973857
-0.023710767 -0.18074957 1.1861198 2973858
-0.015480591 -0.1816196 1.1882428 3105444
0.016212458 -0.18212539 1.1890223 3237030
0.027934534 -0.18080416 1.1892382 3302825
0.036877576 -0.18050684 1.1891289 3171754
0.046762176 -0.18126294 1.187706 3171752
0.05712273 -0.18103324 1.1873528 3171753
0.06562008 -0.17807382 1.1870008 3237546
0.073901869 -0.17584774 1.1860898 3303592
-0.060587756 -0.16618514 1.1824206 2908579
-0.052482173 -0.16838712 1.1847224 2908579
-0.042698421 -0.16996849 1.1859419 3105444
-0.034107298 -0.1718199 1.1873281 3105443
0.060511336 -0.17378245 1.1896771 3303339
0.068612009 -0.17170399 1.1884351 3303082
0.07709118 -0.16983263 1.1864489 3237545
0.083081044 -0.16697475 1.1858821 3303850
-0.069419369 -0.15476982 1.1816616 3302822
-0.062936895 -0.15906744 1.1842759 3040165
-0.055918805 -0.16287437 1.1863785 3040167
0.071985275 -0.16491562 1.1895245 3303598
0.078136168 -0.16106744 1.1885437 3238061
0.086778902 -0.15923765 1.1867112 3303596
0.094535686 -0.15701061 1.1856763 3369131
-0.079015888 -0.14409393 1.18092 3171751
-0.072688743 -0.14775722 1.1826606 3368615
-0.065912113 -0.15140246 1.1855891 3171751
0.096426465 -0.15040079 1.186906 3369134
-0.080869362 -0.13701788 1.1805359 3369130
-0.074857943 -0.13892913 1.1837752 3434922
0.097680449 -0.14069131 1.1880192 3435183
-0.082478546 -0.12833875 1.1814157 3434923
0.1005493 -0.13364194 1.1879014 3501232
0.10737514 -0.13065067 1.1873077 3435694
0.11419588 -0.12913848 1.1848056 3501232
-0.090499125 -0.117094 1.1803505 3369646
-0.084886886 -0.12085457 1.1823339 3435182
0.11122528 -0.12142345 1.1883699 3567282
0.11539005 -0.12105967 1.1862667 3567027
-0.098645642 -0.10432039 1.1785412 3501231
-0.094195291 -0.10818727 1.181587 3435439
0.11136091 -0.11350691 1.1879927 3829686
0.1165537 -0.11086444 1.1862092 3829431
-0.098587714 -0.10093901 1.1783801 3501231
-0.094187148 -0.097692847 1.179998 3567024
0.11901012 -0.10151171 1.1862634 3830201
-0.098346353 -0.086849906 1.1777089 3632818
-0.095178127 -0.087525025 1.1798197 3698612
0.12132428 -0.090980262 1.1851449 3896507
-0.098182231 -0.077269316 1.1772525 3633333
-0.0944089 -0.07739187 1.1801523 3764919
0.12134644 -0.080806106 1.1841559 4093886
-0.098482855 -0.068470515 1.1768225 3633334
-0.094506852 -0.067449071 1.1800728 3830201
0.11849145 -0.071110979 1.1843452 4291523
-0.093870915 -0.057240378 1.178062 3896506
0.11819618 -0.060661774 1.1832131 4619975
-0.090429828 -0.04775155 1.1777357 4028348
0.11246523 -0.04904376 1.1849217 5146320
0.1168777 -0.051380496 1.1841377 4883148
-0.088517666 -0.038444296 1.1759034 3962814
-0.083577052 -0.037043069 1.178529 3963072
0.11166023 -0.04028381 1.1829795 5146577
0.11544179 -0.042060114 1.1811521 5080527
-0.086981259 -0.029419295 1.1752204 4028607
-0.080825992 -0.027670942 1.1774194 4291526
-0.030936645 -0.02639281 1.1804161 5147865
-0.023462268 -0.02628585 1.1805891 5344731
-0.0071474854 -0.025641225 1.1809469 5345501
-0.00035611913 -0.025749609 1.181114 5739743
0.0098130517 -0.028204866 1.1801391 5936862
0.018856328 -0.028341569 1.1806949 5871068
0.029053766 -0.02735021 1.1818917 5739228
0.047183454 -0.026508309 1.1822833 5213656
0.10993896 -0.031388082 1.182411 4949970
-0.078870885 -0.020360135 1.1749784 4422856
-0.070403792 -0.01565101 1.1767746 4686797
-0.060023144 -0.014680944 1.1771574 4884690
-0.049691483 -0.016211323 1.1789793 4950486
-0.039233565 -0.017176189 1.1784403 5213659
-0.030643156 -0.018572509 1.1768428 5279707
-0.020515541 -0.019851297 1.1775461 5345244
-0.010324592 -0.018387504 1.1776297 5411808
-0.00048357062 -0.019666865 1.1777234 5806052
0.0088169416 -0.022980958 1.1771939 6068964
0.020843431 -0.0235487 1.1775078 6068963
0.030894959 -0.021286838 1.178563 6003173
0.039356694 -0.019663371 1.1795647 5608417
0.049538366 -0.019806594 1.1804152 5411038
0.056354858 -0.019867226 1.1821828 5279709
0.10107999 -0.018869936 1.1822762 5212630
0.10670373 -0.02262982 1.1808448 5015248
-0.06656535 -0.010127738 1.1747799 4949712
-0.059796833 -0.010235757 1.1749464 4949713
-0.049644046 -0.010397792 1.1751962 5016279
-0.040249765 -0.01092352 1.1754452 5213659
-0.031613961 -0.011812963 1.1756938 5345501
0.041157283 -0.012410633 1.1774566 5871590
0.049627587 -0.011982098 1.1776379 5871847
0.059871063 -0.0098199695 1.179781 5543139
0.067166045 -0.0087948069 1.1801916 5280225
0.091637336 -0.0091179013 1.182507 5411294
0.097532928 -0.010745227 1.1801766 5279196
0.069513924 -0.0038437024 1.1777208 5411556
0.079131633 -0.0023060367 1.177876 5412066
0.090412498 -0.0024860725 1.1781535 5477344
0.097142398 -0.0048483461 1.1784273 5213404
-0.0024238471 -0.18491018 1.1927178 3105189
-0.022665085 -0.1760824 1.1928128 3039906
-0.013014914 -0.17834841 1.1935807 3039908
-0.0035495646 -0.17956871 1.1957724 3105447
0.0071299523 -0.17908609 1.1934167 3105702
0.016249077 -0.17801952 1.1928318 3171750
0.025238523 -0.17775026 1.193033 3237289
0.036730599 -0.17607631 1.1932265 3237548
0.046951927 -0.17623943 1.1934779 3171752
0.056037545 -0.17638443 1.1937013 3171752
-0.050085366 -0.16424835 1.1905893 3039909
-0.042272754 -0.16506124 1.1917048 3105701
-0.034204528 -0.16775832 1.1936855 3105443
-0.024736153 -0.17322855 1.1956306 3040163
0.006046229 -0.17280874 1.1963439 3105960
0.017460406 -0.17187732 1.1965711 3105958
0.026599295 -0.17055136 1.195924 3237545
0.037037369 -0.16971011 1.1950362 3237547
0.047093622 -0.16958205 1.1947637 3237544
0.057155468 -0.16951162 1.1950843 3237545
0.065862611 -0.16771281 1.1941864 3303339
-0.061167479 -0.15465058 1.189864 3172009
-0.052859589 -0.15783006 1.1926183 3105961
-0.043603532 -0.16011533 1.1945509 3171752
0.040410981 -0.16287974 1.1966858 3303337
0.047248043 -0.16298884 1.1968539 3303593
0.057357572 -0.16217402 1.1970557 3303594
0.066635713 -0.15976945 1.1959095 3303596
0.073546357 -0.1585031 1.1932594 3238062
-0.068403751 -0.14602225 1.1892771 3434409
-0.06276194 -0.1477391 1.1923215 3237547
-0.054494843 -0.15018362 1.1938142 3237805
0.067692384 -0.15243274 1.196834 3238318
0.077062376 -0.14970557 1.1958046 3238572
0.087226041 -0.14973348 1.1943657 3434926
0.093762919 -0.14929135 1.1932986 3369134
-0.070618443 -0.13690525 1.1900188 3435179
-0.064767011 -0.13889644 1.192582 3369388
0.081784442 -0.14304066 1.1967185 3500977
0.087488279 -0.13964379 1.1956898 3435186
0.093015045 -0.13989635 1.1928293 3500720
-0.078941219 -0.1260516 1.1890678 3566511
-0.073330067 -0.128938 1.1910093 3566767
-0.066195868 -0.13156815 1.1926409 3500977
0.089070395 -0.13201982 1.1958618 3501234
0.0970634 -0.12983894 1.1931936 3501490
-0.088282652 -0.11278862 1.1872065 3566770
-0.081665359 -0.11734929 1.1901871 3632306
-0.075155929 -0.12231432 1.1919827 3632563
0.098968931 -0.12112631 1.1946613 3699127
0.10648204 -0.12006114 1.1926684 3633076
-0.089418888 -0.10713994 1.1879095 3566770
-0.08350303 -0.10798925 1.1910956 3763892
0.099983215 -0.11201262 1.1956613 3633335
0.10675338 -0.11004479 1.1932802 3764407
-0.089421012 -0.096983984 1.189224 3698868
-0.085117705 -0.097606733 1.1905582 3699126
0.10075779 -0.10006703 1.1951058 3962811
0.10732105 -0.10031563 1.1941059 3830969
0.1151069 -0.10079252 1.1914769 3830714
-0.090379111 -0.08711195 1.1868473 3699126
-0.085199729 -0.087608829 1.1900759 3830712
0.10817637 -0.090371899 1.1942159 4028606
0.1164148 -0.090760112 1.191026 3962300
-0.089652896 -0.077615246 1.1870862 3830970
-0.084805287 -0.077256985 1.1895878 3962813
0.10858869 -0.081300445 1.1943908 4291522
0.11656085 -0.08118847 1.1909338 4094399
-0.089784734 -0.067548767 1.1867138 3962044
-0.084969245 -0.06781815 1.1891304 4093630
0.1103622 -0.070607595 1.1936522 4554438
0.11528229 -0.071608379 1.1900789 4357059
-0.088980287 -0.057546079 1.1858709 4093886
-0.084454201 -0.056763221 1.1886116 4291009
0.10872561 -0.060077045 1.1924841 4686026
0.11482492 -0.060412753 1.18953 4685769
-0.087213494 -0.050378073 1.1842333 4159935
-0.082239486 -0.047855366 1.1870918 4225985
0.10161598 -0.049971186 1.1927192 5015248
0.10774242 -0.051468998 1.1902667 5014991
-0.079039052 -0.0381332 1.1859604 4292037
-0.073751606 -0.040339317 1.1880774 4619977
-0.050844364 -0.033871785 1.1883126 5279449
-0.042867795 -0.033999085 1.1885087 5016538
-0.030352684 -0.035337672 1.1888714 4950743
-0.020863092 -0.03716391 1.1891853 4950488
-0.011766689 -0.037152767 1.1894015 5147351
-0.0013049217 -0.036370683 1.1896132 5278422
0.0092411377 -0.038893528 1.1890956 5212886
0.018620854 -0.038422223 1.1884341 5278423
0.028592095 -0.037721027 1.1891388 5147094
0.03945237 -0.038241342 1.1906743 4885460
0.04897853 -0.036925435 1.1901097 4950741
0.058077224 -0.036521185 1.1910355 5016279
0.10032862 -0.040173676 1.1908158 5212370
0.10776361 -0.041571774 1.1884565 5212369
-0.076835997 -0.031213574 1.1855626 4423370
-0.074699372 -0.028074883 1.1850622 4554187
-0.05028563 -0.028875843 1.1878189 5147610
-0.040377565 -0.028387904 1.1862957 5081818
-0.031314202 -0.030805029 1.1866279 5016538
-0.020146539 -0.029541709 1.1869668 5278938
-0.011033786 -0.029081285 1.1871618 5344730
-0.00055770855 -0.030176833 1.1863959 5673948
0.0096516889 -0.032628164 1.1856887 5805277
0.018737309 -0.032773167 1.1859123 5541848
0.028978072 -0.031801537 1.1861095 5475544
0.039238267 -0.029695198 1.1862528 5213397
0.0498612 -0.03045354 1.1872493 5082070
0.059521243 -0.029746167 1.1891421 5016536
0.068455182 -0.027641051 1.1908561 5213915
0.079215862 -0.026836634 1.1910739 5279453
0.090147346 -0.027466625 1.1913646 5213659
0.099568762 -0.030610017 1.190138 5212628
0.10624472 -0.030764587 1.187901 5146833
-0.074234776 -0.022209011 1.1831892 4554443
-0.048991084 -0.020795807 1.1837229 5016281
-0.041738138 -0.021819592 1.1839448 5147611
-0.010635441 -0.023224011 1.1847535 5411294
0.060234442 -0.019814879 1.1862785 5148123
0.068948448 -0.019948989 1.1866928 5213915
0.078939699 -0.020264737 1.1884874 5213917
0.089679033 -0.020342909 1.1893246 5213659
0.097698815 -0.022296242 1.1876243 5212887
0.090636477 -0.013489775 1.186699 5279708
0.09517929 -0.013562277 1.1868109 5411037
-0.019236928 -0.17382042 1.2007972 3106213
-0.013515577 -0.17391172 1.200938 3105959
-0.0022475366 -0.17474505 1.2012465 3105706
0.0082255583 -0.17425871 1.2014728 3105960
-0.029989982 -0.16678715 1.2002031 3105700
-0.022602884 -0.16811855 1.2011942 3105957
-0.013443967 -0.16826472 1.2014195 3106216
-0.0031600222 -0.16850922 1.2025275 3106217
0.0074901511 -0.16817251 1.2025934 3171752
0.015401209 -0.16782118 1.2024269 3303337
0.026690569 -0.1654045 1.2014873 3369130
0.033556189 -0.16551408 1.2016562 3369132
-0.042403199 -0.15537144 1.1996926 3171753
-0.032830663 -0.15782392 1.2024286 3171752
-0.022596555 -0.15817134 1.2047722 3172010
-0.013459669 -0.15955073 1.2060076 3172012
-0.003437629 -0.15925822 1.207029 3237802
0.0072510797 -0.15875307 1.2067132 3303338
0.016446076 -0.15891846 1.2071404 3369133
0.026801795 -0.15893057 1.2056653 3369388
0.036955018 -0.15878949 1.205209 3303853
0.046305582 -0.15786016 1.2033448 3369643
0.056459069 -0.15728858 1.2020423 3303851
-0.059921414 -0.14343727 1.1983678 3303598
-0.051904723 -0.14631015 1.2004137 3303341
-0.043455221 -0.14802535 1.204131 3303340
-0.034206897 -0.14947984 1.2072825 3369132
-0.026071237 -0.15149349 1.2075731 3303600
0.0073334551 -0.15202661 1.2083948 3303598
0.020004202 -0.15222883 1.2087064 3435186
0.02749146 -0.15234832 1.2088906 3369391
0.037282489 -0.15250458 1.2091314 3369392
0.047156006 -0.14977804 1.2086195 3369390
0.056824483 -0.14902955 1.2052242 3435184
0.066325232 -0.14773929 1.201583 3369392
-0.060772605 -0.13638882 1.1988101 3369646
-0.053798288 -0.13859731 1.2038894 3303853
-0.046647459 -0.14195533 1.2066245 3173034
0.049221002 -0.14164338 1.208894 3566773
0.057441801 -0.14049715 1.2083672 3566516
0.067351356 -0.13890958 1.2055895 3500977
0.077317901 -0.13984621 1.2031524 3500975
-0.070712626 -0.12431379 1.1971918 3632562
-0.061961874 -0.12738708 1.2005525 3501236
-0.054562382 -0.12747312 1.205295 3501494
0.069646589 -0.12970884 1.2088073 3698612
0.077260718 -0.1302779 1.2066491 3567283
0.08622539 -0.12810585 1.2040515 3567283
0.093763344 -0.12530498 1.2011589 3501747
-0.077740096 -0.11456262 1.1965559 3895478
-0.072263099 -0.11707085 1.1993105 3698613
-0.063493542 -0.11797403 1.2037356 3633080
0.071199805 -0.12311412 1.2085274 3699128
0.077811301 -0.12003164 1.208537 3830713
0.087323509 -0.11985159 1.2075533 3699126
0.094330736 -0.11890981 1.2008651 3633333
-0.078910738 -0.10653867 1.1961424 3961271
-0.072293386 -0.10686982 1.2013233 3896247
-0.065677471 -0.10941742 1.2046076 3764921
0.077823877 -0.11308908 1.2082037 3962300
0.088736817 -0.11077546 1.2078813 3896506
0.096439719 -0.10926233 1.2024548 3764920
-0.080149077 -0.097138785 1.1971635 3830712
-0.073408894 -0.096581161 1.2024714 4093627
0.091875218 -0.099959157 1.2079077 4028352
0.097404033 -0.099691585 1.2026856 3962812
-0.080384359 -0.086805142 1.1971622 3962556
-0.07410229 -0.087779135 1.2029221 4028606
0.091526657 -0.089559704 1.2073997 4357317
0.09802793 -0.090040408 1.2035719 4225985
0.10358342 -0.08657895 1.1995323 4225985
-0.079738759 -0.077815801 1.1967455 4028606
-0.075121567 -0.077799976 1.2028635 4094655
0.092190675 -0.081544645 1.2070304 4554695
0.098170407 -0.07970044 1.2024777 4554182
0.10448989 -0.078206934 1.1991516 4619462
-0.080202296 -0.067238376 1.1946946 4159424
-0.07236398 -0.066081606 1.2011336 4160448
-0.066060424 -0.064513676 1.202441 4554440
0.092880137 -0.068201475 1.2064058 4620747
0.098485805 -0.069413684 1.2043443 4686026
0.10500191 -0.07059104 1.1987978 4619977
-0.079405934 -0.057619434 1.1937802 4291265
-0.071470872 -0.057507701 1.1992215 4357573
-0.065942124 -0.057608228 1.202112 4751563
0.008208558 -0.056105439 1.2038068 4818903
0.015900942 -0.055460725 1.2039591 4819160
0.091183022 -0.059655353 1.2059547 4752590
0.098640859 -0.060223512 1.2039064 4817869
0.10399473 -0.0625697 1.1983885 4752076
-0.077255182 -0.048077591 1.193373 4291778
-0.071337834 -0.047301654 1.1970608 4554440
-0.065804109 -0.049551878 1.2017282 4883149
-0.047005393 -0.04297512 1.1978545 5674209
-0.041265003 -0.043066733 1.1979957 5082331
-0.029998941 -0.045994189 1.2002741 4950745
-0.020654453 -0.04799486 1.1981227 4884953
-0.011465676 -0.048141889 1.1981485 4753366
-0.0011507617 -0.047153734 1.1995485 4884692
0.0094243661 -0.04898379 1.1990428 4884692
0.018177623 -0.048370697 1.1998779 4884692
0.028332805 -0.047226597 1.2025245 4950484
0.039293408 -0.048435453 1.2010635 4950488
0.048050337 -0.048268236 1.2022589 4950489
0.058652781 -0.046941388 1.2035004 5411037
0.067610502 -0.046788391 1.2047746 5542623
0.081755608 -0.044999503 1.2050258 5213404
0.089481547 -0.048000861 1.2053541 5081558
0.097805567 -0.050486252 1.2032684 5015248
-0.071845159 -0.037708066 1.1930037 4685772
-0.049645536 -0.037546974 1.1946174 5542365
-0.040683359 -0.037867732 1.1948985 4951002
-0.031912446 -0.03908797 1.1940216 4884951
-0.022686308 -0.041106574 1.1943384 4753366
-0.0089354794 -0.040182423 1.1946217 4950484
-7.2281808e-005 -0.04060977 1.1948534 5015763
0.029950123 -0.04194662 1.1956331 5015764
0.03681574 -0.042056188 1.195802 4885461
0.048765637 -0.041266665 1.1960487 4884950
0.059524804 -0.040287953 1.198107 5082072
0.068846464 -0.039158359 1.2012329 5542624
0.078345746 -0.040352397 1.2039201 5279197
0.088581376 -0.039401527 1.2013143 5213144
0.095949441 -0.042237513 1.1972198 5212627
0.063290656 -0.03332983 1.1960136 5016538
0.069041379 -0.031706192 1.1960726 5213917
0.078619398 -0.029381223 1.1961892 5345245
0.088910058 -0.031821243 1.1972193 5213917
0.17986308 -0.035053018 1.2068858 13158081
-0.013578378 -0.15433012 1.2120129 3303598
-0.0008657435 -0.154533 1.2123256 3303850
-0.041826457 -0.14325303 1.2108076 3303853
-0.032095879 -0.14498585 1.2114804 3304111
-0.022607194 -0.14717087 1.2135621 3303857
-0.013553787 -0.1476091 1.2144445 3303856
-0.0031361841 -0.14779486 1.2149521 3369903
0.0073625855 -0.14657912 1.2121395 3435441
0.016410042 -0.14763539 1.2124059 3435187
0.026894607 -0.14716583 1.2126331 3500978
0.037410632 -0.14705867 1.2128786 3369649
0.044141345 -0.14554906 1.2129664 3435441
-0.049865447 -0.13565558 1.210251 3370159
