# .PCD v0.7 - Point Cloud Data file format
VERSION 0.7
FIELDS x y z rgba
SIZE 4 4 4 4
TYPE F F F U
COUNT 1 1 1 1
WIDTH 1130
HEIGHT 1
VIEWPOINT 0 0 0 1 0 0 0
POINTS 1130
DATA ascii
-0.10544775 -0.18832695 1.1213609 8431615
-0.098404735 -0.19074646 1.12404 1526185
-0.09215717 -0.19310422 1.12805 1262491
0.13157701 -0.19027488 1.1256509 11717846
-0.11400561 -0.17977268 1.1214242 7571711
-0.10699717 -0.18202741 1.1228886 1917611
-0.099959575 -0.18451563 1.126577 2379673
-0.093159921 -0.18744473 1.1291616 2644619
0.13316469 -0.18340161 1.1255687 5010097
0.14041822 -0.18046163 1.1222868 10599906
0.14750674 -0.17925701 1.1213081 14081762
-0.10702356 -0.17317493 1.1254706 2709143
0.13420413 -0.17280132 1.1254641 2909858
0.14079385 -0.1723568 1.1215379 4026283
0.14833303 -0.17257836 1.1177388 12307424
-0.11401208 -0.15945242 1.121255 2775446
-0.1095825 -0.16364099 1.1241299 2775442
0.14205481 -0.16340235 1.1222619 3105445
0.14692046 -0.16261193 1.117178 2578854
-0.11601293 -0.15223563 1.1233807 2775449
-0.11172493 -0.154603 1.1278465 2906778
0.14440373 -0.15358992 1.1235434 3564451
0.14769362 -0.15264472 1.1194831 3433893
-0.11985053 -0.14354894 1.1245091 2840984
0.14592285 -0.14539278 1.1250515 3565217
0.14961994 -0.14331973 1.1196419 3499430
-0.12471487 -0.13164777 1.1211917 2841497
-0.12163691 -0.13337527 1.1271588 2907290
0.1519293 -0.13267756 1.1218506 3237547
-0.12487254 -0.12217823 1.1227157 2973083
-0.12207036 -0.12262335 1.127076 3038877
0.15503715 -0.12298127 1.122903 3827369
0.15760145 -0.12196943 1.1166714 3564710
-0.1259138 -0.11219916 1.1239063 3039391
-0.12321325 -0.11408116 1.1276896 3170977
0.15529989 -0.11289451 1.122633 3565735
0.15759872 -0.11341354 1.1166002 3500198
-0.12600893 -0.10398947 1.1259825 3170977
0.15555412 -0.1038816 1.1218872 3631790
0.15668027 -0.10553785 1.1245503 3434923
-0.12618297 -0.093444631 1.1248972 3302823
0.15521693 -0.092427969 1.1219637 3566513
-0.12617615 -0.083454274 1.1234804 3368614
0.15430972 -0.083171576 1.1219394 3632560
-0.12565392 -0.075737044 1.1247414 3565995
0.15308818 -0.073014162 1.120602 3895728
-0.12269838 -0.060674645 1.1261698 3697842
0.15072359 -0.063069448 1.1190895 4158132
-0.1210586 -0.052380674 1.1248384 3502262
0.14960815 -0.052391458 1.1202182 4027837
-0.11842541 -0.042870682 1.1241318 3698611
0.14481258 -0.040913738 1.1241987 4619197
0.15053183 -0.044058453 1.1185956 4946612
-0.12474518 -0.036463436 1.1203994 7180220
-0.11704586 -0.033403881 1.1274539 4815032
0.14471495 -0.034437627 1.1234795 5209534
0.14932345 -0.032745212 1.1160583 8425655
0.020651892 0.089763299 1.1170614 9474444
-0.058019727 -0.21950476 1.1358771 8300241
-0.076293528 -0.21134368 1.1324596 7642055
-0.068767421 -0.21198186 1.1344832 4815810
-0.061984181 -0.21541813 1.1359054 5210825
-0.085441306 -0.19943506 1.1321406 932767
-0.078444563 -0.2028636 1.1337435 2382238
-0.069789693 -0.2058824 1.1359488 2251168
0.11371166 -0.20259666 1.1330355 6518691
0.1195258 -0.20158137 1.1315069 11319227
-0.087141626 -0.19267848 1.133978 2447513
-0.081713222 -0.19613066 1.136055 2513045
0.12137314 -0.19335568 1.1317854 4617903
0.12837036 -0.19339517 1.1287278 10929103
-0.096607819 -0.18165699 1.1336229 2971544
-0.090686426 -0.18541643 1.1341066 2774929
0.12343296 -0.18409285 1.1310617 2909086
0.12830165 -0.18316279 1.1286436 3105187
-0.10416884 -0.16847962 1.1321772 2709911
-0.099509165 -0.17351872 1.1344992 2644371
0.12982665 -0.17334211 1.1291534 3368356
-0.10647317 -0.16185009 1.1339767 2775444
-0.1014893 -0.16596559 1.1347812 2709910
0.1342584 -0.16346709 1.1299862 3368613
0.13843863 -0.16051441 1.1282957 3499683
-0.10969417 -0.15328346 1.1336378 2841497
0.13609278 -0.15599027 1.1322954 3237027
0.14077891 -0.15330216 1.1295322 3302821
-0.11564289 -0.14170189 1.1327062 2645144
-0.11211762 -0.14340633 1.1352049 2775964
0.14390855 -0.14336056 1.1302488 3237542
0.14798199 -0.1397873 1.1293064 3106215
-0.1174622 -0.13329616 1.133548 2907291
0.14528646 -0.13380422 1.1306325 3499683
0.14836355 -0.1318357 1.1290437 3303338
-0.11843587 -0.12336293 1.1344261 3039134
0.14997967 -0.1233421 1.1292164 3499947
-0.12362537 -0.10908534 1.1319885 3236770
-0.1214125 -0.11334717 1.135323 3236770
0.15171415 -0.11283123 1.1295081 3500458
-0.12362742 -0.10260556 1.1319345 3237027
-0.1218389 -0.1029338 1.1359097 3302821
0.15408458 -0.10227839 1.1298505 3632048
-0.12363052 -0.092885897 1.1318536 3302824
-0.12184182 -0.09372174 1.135833 3302569
0.15235254 -0.09339083 1.1296998 3632047
-0.12406537 -0.083814286 1.1317849 3434408
-0.12122652 -0.081413075 1.1357208 3434665
0.14895085 -0.082347952 1.1292976 4026292
-0.12363672 -0.073446564 1.1316918 3631531
-0.12184855 -0.07258819 1.1356571 3631531
0.14903361 -0.074381314 1.127856 4157366
-0.12363878 -0.066966787 1.1316378 4025255
-0.12045439 -0.06182462 1.133831 3632304
0.14848621 -0.062595896 1.127322 4289211
-0.11700599 -0.052836925 1.1331304 3568048
0.14533746 -0.051823046 1.1279485 4094399
0.14769094 -0.05619866 1.1292815 4224702
-0.11572616 -0.046806 1.1313455 3764911
-0.11224817 -0.042469919 1.133755 3895729
0.14279075 -0.043395903 1.1287063 4487616
-0.11689889 -0.028676152 1.1342133 6458567
-0.1119719 -0.032452859 1.1335672 3895996
0.14270034 -0.032367662 1.1275612 5735616
0.1495554 -0.029116854 1.1270263 9477559
-0.11644502 -0.02598498 1.1351839 6852289
-0.113194 -0.025984369 1.1351328 5933254
0.053413928 0.075621501 1.1276658 9474701
-0.021067912 -0.22984873 1.1473842 7248329
0.011763956 -0.23144078 1.146081 5801654
0.01977733 -0.23031437 1.1454121 5210039
0.032592472 -0.23093386 1.1465493 6328255
0.040258192 -0.23093243 1.1464287 7379645
0.051817574 -0.23080857 1.146246 8430007
0.059704654 -0.22906689 1.1421067 8625323
-0.059098274 -0.22179702 1.1399139 9678537
-0.048171319 -0.22174244 1.146269 4422071
-0.038810953 -0.22240467 1.1476011 2778029
-0.029048314 -0.22421773 1.1474627 2513574
-0.021433877 -0.22692823 1.1473656 2315684
0.0084991641 -0.22765274 1.1469009 2120102
0.020545295 -0.22765049 1.1467115 2185635
0.033686176 -0.22655283 1.1464956 2186146
0.03916204 -0.22764699 1.1464186 2316696
0.054492779 -0.22545372 1.1461593 4486314
0.062020905 -0.22507404 1.1440374 5997746
0.073181637 -0.22210529 1.1446944 6063288
0.081868827 -0.22062972 1.1456885 6589614
0.089972638 -0.22084725 1.1455629 8757678
-0.064539507 -0.20983464 1.1398997 1855898
-0.057766899 -0.21231508 1.1430526 2249885
-0.050020024 -0.21459009 1.1469849 2381985
-0.04187905 -0.21671021 1.147602 3039902
0.075843975 -0.21504533 1.1457368 2841504
0.081866868 -0.21449661 1.1456375 3302564
0.091410652 -0.21225044 1.1441351 4420011
0.1011437 -0.21145196 1.1395937 6984117
0.11054517 -0.20871422 1.1371371 6254993
-0.075675935 -0.19931042 1.1407874 2710418
-0.067893021 -0.20254308 1.1442734 2775447
-0.06112507 -0.20474756 1.1470048 2906776
0.093870692 -0.20434946 1.1449641 3171492
0.10233644 -0.20299751 1.1420193 3237285
0.11060583 -0.20181692 1.1376501 3629215
-0.078502521 -0.19232896 1.1447743 2775191
-0.070325695 -0.19579801 1.1472083 2906012
0.10431508 -0.19377936 1.1434449 3040421
0.1112047 -0.19212332 1.1399363 3105703
0.11706488 -0.19239926 1.1368986 2777257
-0.09391164 -0.17830029 1.140099 2710677
-0.087088898 -0.1821543 1.1435537 2709909
-0.080831744 -0.18574095 1.1459563 2709910
0.11241005 -0.18371423 1.1434268 3368100
0.11992244 -0.18191442 1.1389 3302561
-0.095093004 -0.17173049 1.1431744 2710421
-0.090243086 -0.17454758 1.1472112 2644886
0.11448865 -0.17593944 1.1448033 3040936
0.12249722 -0.17285645 1.1425644 3237031
0.1288549 -0.16997857 1.1395268 3368615
-0.10479272 -0.15872586 1.140107 2776209
-0.099285133 -0.16316655 1.1448082 2841240
0.12455991 -0.16435277 1.1445484 3237287
0.13093437 -0.16216794 1.1392863 3302822
-0.10572407 -0.15203609 1.1446 2710683
-0.10098369 -0.15530421 1.1473532 2841499
0.13323452 -0.15372923 1.1417348 3237541
0.13814551 -0.15104514 1.1378229 3237798
-0.10784584 -0.14347598 1.1451718 2907293
0.13495721 -0.14494142 1.1442232 3237797
0.13961121 -0.14243893 1.1391283 3303334
-0.11421998 -0.13181347 1.1411742 2907805
-0.1119255 -0.1333988 1.1472094 2907805
0.14148887 -0.13305441 1.1415766 3434407
-0.11469801 -0.12249386 1.1426281 3039392
-0.11199526 -0.12363134 1.1479293 3039391
0.14342736 -0.12348267 1.1413394 3500202
0.1474916 -0.12061319 1.1358222 3631274
-0.11782101 -0.11331156 1.1444677 3170979
0.14540941 -0.11319749 1.1433499 3631791
0.14871053 -0.1126761 1.1375149 3566510
-0.11820984 -0.10295212 1.1455687 3105957
0.14456439 -0.10209402 1.1420482 3632305
0.14970882 -0.1032398 1.135976 3501227
-0.11863044 -0.092945717 1.1432059 3237546
0.14409022 -0.093030483 1.1411012 3698099
0.14862777 -0.093451343 1.1359781 3698094
-0.11800668 -0.083195657 1.143353 3434923
0.1453321 -0.083752051 1.1415501 3895479
0.14748052 -0.085810579 1.1355325 3895477
-0.11762133 -0.072733372 1.1438789 3566256
0.14560834 -0.07243859 1.142785 4027579
0.1480494 -0.071890026 1.1394081 4157882
-0.11664136 -0.063829817 1.1430329 3567024
0.14355773 -0.062905662 1.1422279 4159422
0.14781727 -0.063088462 1.1377382 4289724
-0.11436455 -0.054010965 1.1407189 3567791
-0.11117819 -0.052032057 1.1459864 3764403
0.14182152 -0.052881129 1.1406813 4356797
-0.1095356 -0.043147206 1.1397904 3830196
0.13914138 -0.043306876 1.1397102 4619718
-0.10802944 -0.032226257 1.1420138 3896507
0.13505486 -0.031411126 1.1401644 4817095
0.13953151 -0.03201434 1.1368762 4948420
-0.11562274 -0.023045175 1.1431478 6916535
-0.10813904 -0.023576602 1.1427268 5210049
0.13423954 -0.025002591 1.1422353 5013440
0.13866311 -0.024604067 1.1398287 5998788
0.033837765 0.049017459 1.1390541 5859448
0.042005349 0.049080923 1.1370677 6122362
0.047611788 0.049235508 1.1399786 6319482
0.05878529 0.050537542 1.1437929 5330522
0.034394264 0.05345197 1.1374843 5792108
0.042210415 0.054294154 1.136821 5527648
0.047610395 0.053601071 1.1399423 5067354
-0.015277242 -0.22979517 1.150293 4354997
-0.0078867842 -0.23080459 1.1521856 4684224
0.0019865483 -0.23052059 1.150561 4289976
0.012955502 -0.22822122 1.1498359 2054307
0.023386288 -0.2287683 1.1496764 2777510
0.028876439 -0.22986533 1.1495992 4026798
0.045345824 -0.22986223 1.1493402 5604271
0.049188159 -0.22821443 1.149266 4881326
-0.03425955 -0.2194456 1.1505053 3039902
-0.026302619 -0.22035778 1.1508878 2710943
-0.017789958 -0.22224182 1.1535745 2645152
-0.007859027 -0.22507004 1.1568048 2514339
0.0020728512 -0.22496901 1.1561143 2514851
0.011965001 -0.22247437 1.1544044 2842787
0.021814879 -0.22206713 1.1520457 2908579
0.031492963 -0.22166631 1.1523792 3039651
0.041703962 -0.2223582 1.1533357 2908578
0.051049061 -0.22148666 1.1529313 2778020
0.061043099 -0.21984264 1.1504387 2646433
0.070596561 -0.22253712 1.148882 5012145
0.082125537 -0.22381601 1.1487114 8955830
-0.047287837 -0.21102667 1.1509259 2841242
-0.037412897 -0.2130805 1.1528356 2775960
-0.02837429 -0.21433793 1.1546376 2841500
-0.018908 -0.21647719 1.1582404 2907551
0.01278499 -0.21573412 1.1577358 3105184
0.021998018 -0.21536385 1.1575879 3170722
0.031948216 -0.21536197 1.1574314 3302053
0.042082503 -0.21480724 1.1572675 3170723
0.052585192 -0.21388386 1.1570946 3105188
0.061889209 -0.21310291 1.1552272 3170467
0.071434006 -0.21292384 1.1511892 3236258
0.081546769 -0.20949608 1.1490458 3171236
-0.063910745 -0.19968614 1.150807 2906776
-0.057362013 -0.20191166 1.1518656 2907033
-0.04885447 -0.20286438 1.1554309 2841497
-0.039548501 -0.20689853 1.1584853 2775704
0.062901922 -0.20761642 1.1568801 3105443
0.071746543 -0.20761476 1.156741 3105443
0.082519293 -0.20390552 1.1552774 3105956
0.090828568 -0.20106256 1.1515856 3105956
-0.07489384 -0.18870761 1.1508883 2644884
-0.067776896 -0.1922496 1.1538063 2775705
-0.059363648 -0.19509825 1.1563649 2841497
0.086115532 -0.19655532 1.1564229 3172006
0.093756191 -0.19418004 1.1552829 3040421
0.099578738 -0.19184995 1.1526715 2974628
-0.083680309 -0.1799248 1.1509533 2645144
-0.076989472 -0.18166633 1.153922 2710425
-0.071662098 -0.18437415 1.1553736 2776216
0.10304723 -0.18320763 1.152795 3171493
0.10797559 -0.18100238 1.1495485 3237026
-0.086680688 -0.17188653 1.1535223 2710424
-0.08024893 -0.17406172 1.157397 2710937
0.10600958 -0.17664942 1.1559442 3302823
0.11228937 -0.17258936 1.1526532 3172005
0.11807051 -0.16945466 1.1516941 3172006
-0.095398061 -0.16052799 1.1509761 2841498
-0.090925336 -0.16300665 1.1558502 2907290
0.11485069 -0.165591 1.1557131 3303592
0.12107634 -0.16221881 1.1542536 3237544
0.1271209 -0.15792413 1.147455 3303337
-0.097138807 -0.15205675 1.1526474 2973342
-0.092448451 -0.15512595 1.158886 3038879
0.12471575 -0.15444903 1.1547984 3237544
0.12900399 -0.15145668 1.150172 3303336
-0.10517878 -0.14051141 1.1519632 2973342
-0.099042177 -0.14363733 1.1563935 2973600
0.132429 -0.14232072 1.1512421 3368872
-0.10673819 -0.13263768 1.1532754 3039392
-0.10122102 -0.13340896 1.1588429 3236259
0.13375431 -0.132866 1.1528928 3500460
0.13809174 -0.13047063 1.1470537 3434923
-0.10783287 -0.12299076 1.1537483 3170978
0.13480763 -0.12392931 1.1537187 3500719
0.1394486 -0.1214558 1.1502912 3500718
-0.11444485 -0.11185104 1.1508701 3237029
-0.11053777 -0.11317078 1.1568207 3237286
0.13982718 -0.11257594 1.1529837 3697329
-0.11444765 -0.10306657 1.150797 3237543
-0.11177114 -0.10256841 1.1582519 3172263
0.14103448 -0.10346878 1.1523834 3697843
-0.11470638 -0.093404844 1.1537211 3303340
-0.11255313 -0.092290461 1.1586787 3303852
0.14081173 -0.093020044 1.1526999 3764149
-0.11481984 -0.083667628 1.1506412 3500716
-0.11197723 -0.082233965 1.1585859 3501229
0.14372703 -0.082594946 1.1511385 3764661
-0.1144564 -0.075615138 1.1505685 3566512
-0.11121804 -0.07215625 1.154853 3632306
0.14074087 -0.07238815 1.1509995 3896764
-0.11061944 -0.062535688 1.1547635 3698357
0.13478801 -0.062330805 1.1532059 4291265
0.13853489 -0.063544847 1.1476324 4225217
-0.10901713 -0.053530872 1.1542996 3764408
0.13555691 -0.052733373 1.1524471 4554434
0.13806693 -0.052508578 1.1464047 4488640
-0.10605259 -0.042811692 1.1549639 3895997
-0.10188266 -0.039584566 1.1580719 4027323
0.13514614 -0.041944288 1.1513635 4817354
-0.10456719 -0.033306614 1.151394 3962044
-0.10049935 -0.032051794 1.1571872 4093118
0.12586315 -0.029590771 1.154407 5014224
0.13119435 -0.032355219 1.1503456 4751563
-0.1034936 -0.022906341 1.1499569 4290235
-0.098541193 -0.022739485 1.1544118 4158908
-0.092307091 -0.02041772 1.1577616 4028609
0.12416925 -0.022567704 1.1525972 4817874
0.13077039 -0.022325031 1.1472683 5145287
-0.096193016 -0.016109027 1.1521859 4487616
-0.090747014 -0.013409413 1.1563451 4356800
0.11530868 -0.010056742 1.15241 5276623
0.12159205 -0.013098337 1.1486217 5604813
0.13097341 -0.014325514 1.1470873 6720449
-0.088626295 -0.0064118057 1.1575871 5671109
0.11347029 -0.0044799373 1.1538212 5802961
0.11977291 -0.0052817613 1.1496329 6787017
0.037403911 0.01130265 1.1554575 12972031
-0.017877193 0.021188624 1.1542443 5869264
0.014553315 0.017563865 1.1557647 7515376
0.022046791 0.0171967 1.1556499 8764660
0.031653177 0.016756251 1.1555026 10146554
0.038286965 0.015725523 1.1554068 10870005
-0.075695291 0.029439583 1.1490837 8028800
-0.070571601 0.029806569 1.1490002 7305855
-0.013456175 0.022349872 1.1561654 5671370
-0.010139443 0.022350498 1.1561131 5869265
0.013077686 0.022354856 1.155748 6988787
0.017499996 0.022355676 1.1556785 7185904
0.10373223 0.031217262 1.1542486 6314850
-0.069353238 0.034809053 1.1489394 8028802
0.10063549 0.034754857 1.1542678 6117979
0.076550059 0.045206979 1.1465582 5593178
0.078745984 0.045207381 1.1465237 5658970
-0.013369597 -0.21940845 1.1621785 2973083
-0.0078223124 -0.22051689 1.1621004 2973595
0.0016159164 -0.22007927 1.1626152 2973598
-0.033342093 -0.20831735 1.1624001 2842012
-0.026962673 -0.20970301 1.1623114 2776219
-0.017597755 -0.21216899 1.1637087 2907806
-0.0079777054 -0.21353282 1.1652031 2907807
0.0025823331 -0.21406995 1.1652169 2973599
0.011419196 -0.21175122 1.1623917 3039136
0.022171844 -0.21075353 1.162881 3170723
0.032138817 -0.21063787 1.1620566 3236770
0.041926123 -0.21018083 1.161232 3170979
0.050971828 -0.20996577 1.161088 3170980
0.057627611 -0.20830029 1.1609694 3171236
-0.044438787 -0.19944353 1.1625007 2842012
-0.037706845 -0.20169571 1.1638684 2842011
-0.028077142 -0.20394439 1.1647428 2842012
-0.01976536 -0.20537946 1.1661627 2907805
0.026710998 -0.20676236 1.1654434 3302309
0.03270416 -0.20561406 1.1641966 3302308
0.041335419 -0.20550263 1.1627026 3171236
0.052079976 -0.20608236 1.1610382 3171236
0.062730618 -0.20469303 1.162526 3105443
0.072541051 -0.20277399 1.161689 3171492
0.079073399 -0.20089969 1.1605705 3040420
-0.065520674 -0.18835264 1.1627399 2841497
-0.056736179 -0.19109568 1.1631581 2907291
-0.048276626 -0.19373354 1.1643962 2907549
-0.041568778 -0.19490001 1.1664183 2907551
0.075688057 -0.19562021 1.1645803 3040420
0.082673661 -0.19379324 1.1625603 3106213
0.09046001 -0.19120805 1.1603107 3106214
-0.066994675 -0.1818497 1.1647092 2907290
-0.060383834 -0.18471527 1.1661294 2973340
0.086817175 -0.18671176 1.1643312 3302823
0.092823654 -0.18434575 1.1618166 3237030
0.098964706 -0.18093646 1.1618694 3237031
-0.084386602 -0.16838545 1.1628703 2841497
-0.07598082 -0.17185906 1.1633004 2842012
-0.069822028 -0.17407349 1.1656891 2907547
0.10413366 -0.17325827 1.1608694 3368361
0.10920191 -0.17001337 1.1598394 3237285
-0.085867666 -0.16246846 1.1628443 2973085
-0.079044491 -0.16266921 1.1654758 3039135
0.1064272 -0.16613069 1.1598507 3368615
0.11296143 -0.16279313 1.1604476 3237799
0.11751894 -0.15947169 1.1596209 3303337
-0.093267709 -0.14952585 1.1628529 2973857
-0.087813698 -0.15304181 1.1643522 3039137
-0.081842422 -0.1539012 1.1667103 3104930
0.11496795 -0.15528232 1.1616263 3172264
0.12116831 -0.15240179 1.1601713 3238059
-0.094445862 -0.14131565 1.1638031 3039650
-0.090416916 -0.14488512 1.16677 3105700
0.12442704 -0.14264542 1.1615262 3369132
0.12860751 -0.14282733 1.1593078 3434410
-0.097193353 -0.13274732 1.1644894 3171236
0.12633243 -0.13451433 1.1624749 3500719
0.12968475 -0.13221964 1.1612028 3435183
-0.10437077 -0.12068132 1.1627872 3302823
-0.099677473 -0.12263778 1.1653967 3171495
0.13044055 -0.12212381 1.160925 3566514
-0.10609726 -0.11203442 1.1641971 3368873
-0.10239048 -0.1131957 1.1658942 3368875
0.13313702 -0.11293888 1.1597878 3697588
-0.10698507 -0.10295846 1.1653477 3303850
0.13474278 -0.10331722 1.1623113 3763892
0.13791355 -0.10266221 1.1588269 3698099
-0.10834865 -0.092762209 1.1642175 3435181
-0.10245587 -0.093230501 1.1665291 3435438
0.13576801 -0.09318582 1.1627823 3829942
0.13856936 -0.092660263 1.1598763 3764149
-0.10730947 -0.083085559 1.1645205 3501229
0.13576375 -0.07982628 1.1626711 3896505
0.14012583 -0.082726128 1.1604445 3830455
-0.10672168 -0.073228456 1.1639676 3632563
-0.10246331 -0.069851317 1.1663344 3567542
0.13336201 -0.072689749 1.1600776 4027837
0.13857079 -0.076256327 1.1585966 3896505
-0.10596918 -0.063171655 1.1636668 3829940
-0.10246544 -0.063171536 1.1662787 3699127
0.13187698 -0.063066304 1.1612591 4291009
-0.10556224 -0.053035118 1.1630425 3895737
-0.10183281 -0.052197516 1.1661774 4027576
0.13215944 -0.053033102 1.1605043 4422849
-0.10439444 -0.046345789 1.1621684 4158911
-0.099876918 -0.042629186 1.1640667 4093372
0.1320923 -0.043293096 1.1599241 4817355
-0.096139096 -0.033233419 1.163468 4093630
-0.091344118 -0.029770605 1.1658256 4094397
0.12464824 -0.03254088 1.160674 5080014
0.1291281 -0.035761878 1.1584078 4883149
-0.094046764 -0.025633454 1.1618332 4028348
-0.089518659 -0.023062736 1.1632407 4028864
0.12014645 -0.022901952 1.1602199 4949202
-0.085954338 -0.013466865 1.1634229 4029123
-0.081702337 -0.011213891 1.1655195 3963586
0.11407276 -0.013031043 1.1611223 5146069
0.11747371 -0.01745756 1.1584386 5080276
-0.085178018 -0.0056610405 1.1615273 5342665
-0.077994145 -0.0034772232 1.1653967 4882633
-0.014543192 0.00030275434 1.1643673 6070261
-0.007864017 0.00030400604 1.1642623 6528744
-0.0011848435 0.00030526519 1.1641573 8827627
0.014399895 0.00030818582 1.1639122 10340848
0.023146635 -0.00032634288 1.1637799 8895736
0.030652978 -0.0010247156 1.1636677 6266608
0.10502028 -0.00023979694 1.1614915 5475287
0.1094767 -0.0037706494 1.1597838 5475028
-0.074554592 0.0024976209 1.1632925 5999306
-0.067894824 0.0036083609 1.1631786 5540557
-0.059338853 0.0069392323 1.1623495 5803727
-0.046581164 0.0087083131 1.1648012 4950220
-0.037619032 0.0075854734 1.1646696 5016280
-0.027900437 0.0069728717 1.1641217 5411294
-0.017882334 0.0069458783 1.1621242 5806569
-0.0078687258 0.0069742128 1.1636068 7120874
0.0017283047 0.007727772 1.1640496 12379901
0.012282494 0.0071844608 1.1613615 13891069
0.022086808 0.0069420412 1.1605356 12969723
0.03205489 0.0071883053 1.1612611 9946095
0.042132333 0.0069619864 1.1615072 10013177
0.051863655 0.0088423267 1.1610978 7449069
0.058553353 0.010707222 1.1631311 5411552
0.10208487 0.003636077 1.1600051 6526426
-0.044603728 0.013656661 1.1647289 6264275
-0.037049234 0.014440812 1.1621032 5803990
-0.027496504 0.015060164 1.1604476 5345755
-0.017490676 0.016323805 1.1602796 5412839
-0.007893404 0.016922846 1.1606238 5676266
0.001180863 0.016022876 1.1628461 7253489
0.010983429 0.015827753 1.1608362 8436213
0.020947183 0.013589934 1.159698 12051453
0.035367791 0.018030591 1.1594342 10082302
0.043207698 0.01729241 1.159317 10607102
0.051692136 0.016448677 1.1591907 7515119
0.058751337 0.015847415 1.1604182 6068200
-0.0056809261 0.022460826 1.1600429 6001365
-0.0012433808 0.02246166 1.159973 6396124
0.11124659 0.02825208 1.1581558 6447199
-0.0044175033 -0.20967765 1.1699579 3039391
0.0031485409 -0.20909163 1.1713343 3039135
0.01457158 -0.20967409 1.1696593 3104930
-0.03346318 -0.19851208 1.1703217 2776478
-0.027055329 -0.1993899 1.1722286 2842271
-0.017118374 -0.2010093 1.1742679 2907807
-0.0078832731 -0.20286262 1.1746521 2908063
0.0021523405 -0.20370129 1.1756058 2973600
0.012464937 -0.20272079 1.1749686 3105187
0.022377973 -0.20237543 1.1738901 3236773
0.032071289 -0.2010399 1.173046 3237029
0.043019108 -0.20112291 1.1729412 3171237
0.052634247 -0.20208997 1.1704978 3171236
0.062144563 -0.20053342 1.1697582 3105444
0.070976935 -0.19905102 1.1686838 3171493
-0.045608848 -0.18961753 1.1736391 2841758
-0.037496336 -0.1919167 1.1743308 2907551
-0.028541872 -0.19299814 1.1770229 2842271
-0.017837813 -0.19417505 1.1780411 2908064
-0.011089716 -0.19529852 1.1779443 2973857
0.010278118 -0.1952945 1.1776083 3105444
0.023148485 -0.19429234 1.1773975 3237030
0.033185564 -0.19471288 1.1764431 3302823
0.042844415 -0.1939307 1.1761615 3171495
0.052197956 -0.19252348 1.1755344 3105703
0.061904058 -0.19278204 1.1751752 3105703
0.071680397 -0.19229779 1.1731172 3105702
0.079969302 -0.18981504 1.17018 3105958
-0.056914166 -0.18193457 1.1721997 2973598
-0.04885035 -0.18361777 1.1764406 2907551
-0.038927272 -0.18546242 1.1783001 2908065
0.073512897 -0.18386239 1.1765187 3237288
0.082294002 -0.18316737 1.1739299 3302823
0.090909824 -0.18114778 1.1707929 3237287
-0.066302665 -0.17065796 1.1734637 3105183
-0.058787778 -0.17400363 1.1766344 2974112
-0.050457612 -0.17618561 1.1784042 2842786
0.083822437 -0.17638537 1.1762942 3171750
0.092429519 -0.17278478 1.1747953 3172008
0.10042664 -0.17106384 1.1703211 3303081
-0.074464664 -0.16099516 1.1713208 3104930
-0.068143368 -0.16326524 1.1772412 3170978
0.094936334 -0.16442908 1.1760198 3303337
0.10267803 -0.16292654 1.1736352 3368873
0.10956856 -0.16164538 1.1703111 3237543
-0.084270366 -0.14819255 1.1733686 3040164
-0.077528961 -0.15193881 1.1744168 3105701
-0.071082026 -0.15631936 1.1785631 3302822
0.10428341 -0.15388706 1.1757851 3303597
0.11161678 -0.15149456 1.1712854 3238059
0.11866305 -0.1484486 1.1695126 3303852
-0.086696401 -0.14184916 1.1744652 3106213
-0.078864627 -0.14385514 1.1785817 3172007
0.11257939 -0.14239022 1.1753588 3369387
0.12045743 -0.14218098 1.1714325 3435181
-0.093890972 -0.13163333 1.1720484 3237030
-0.087249957 -0.13226978 1.1762834 3237800
-0.08083532 -0.13570127 1.1785448 3303594
0.11439943 -0.13633949 1.1754798 3500972
0.1227557 -0.13208658 1.1720624 3500976
0.12736344 -0.12922142 1.1672153 3500977
-0.095005296 -0.12236149 1.1737667 3237545
-0.090278752 -0.12399264 1.1777067 3303852
0.12459163 -0.12254097 1.1752045 3566772
0.12785095 -0.12290443 1.1711556 3566515
-0.097518295 -0.11265129 1.1738644 3369389
0.12544546 -0.11300744 1.1751118 3763639
0.12873162 -0.11211184 1.1701629 3763639
-0.10433695 -0.098831341 1.1719395 3435181
-0.098912925 -0.10249086 1.1751232 3435438
0.12608455 -0.10192076 1.1750094 3895737
0.13098738 -0.10184289 1.1697543 3764149
-0.10382199 -0.092345886 1.1729442 3435438
-0.098386884 -0.092942506 1.1769259 3501231
0.12608276 -0.096297152 1.1749625 3961530
0.13137858 -0.092358768 1.1696692 3961528
0.13852069 -0.089003578 1.1667049 3895735
-0.1035341 -0.083089441 1.1734626 3501489
-0.099221349 -0.082842544 1.1762756 3501490
0.12607703 -0.078301579 1.1748127 4159679
0.13171472 -0.083016172 1.1700352 3962041
0.13851997 -0.086769372 1.1666863 3895735
-0.10402116 -0.075756684 1.1724091 3501747
-0.099172115 -0.072543532 1.1749731 3567541
0.12532525 -0.071928293 1.1747714 4225473
0.12895569 -0.072463118 1.1707181 4159424
-0.097418204 -0.062400486 1.1737943 3764919
0.12507251 -0.063055515 1.1747015 4422597
0.12895249 -0.062374894 1.1706342 4357059
-0.096931435 -0.05262956 1.1735337 3896505
-0.092108063 -0.052473873 1.1780288 3962298
0.12494417 -0.052433163 1.174615 4685767
0.12894927 -0.052286673 1.1705501 4422851
-0.095502026 -0.043518774 1.1716065 4027836
-0.090405576 -0.041709241 1.1768212 4028094
0.12303272 -0.041857734 1.172439 4948684
0.12885489 -0.043793384 1.1674805 4751818
-0.093833379 -0.035426151 1.1699126 4093632
-0.088171549 -0.031926714 1.1756415 4094399
0.11631537 -0.031439945 1.1745758 5080784
0.12055258 -0.032546252 1.1697177 5211343
-0.084949411 -0.023496099 1.1740378 4094402
-0.078381263 -0.020409144 1.1765456 4226244
-0.071875595 -0.018728383 1.1774294 4620744
-0.017894054 -0.01759354 1.1765711 5412064
0.0045984043 -0.017589316 1.1762173 6463211
0.01267045 -0.021425113 1.1761224 6397929
0.022356626 -0.020782568 1.1759647 6397929
0.031589761 -0.018869653 1.1758035 6003432
0.11326938 -0.022182569 1.1720462 5081042
0.11839432 -0.025332414 1.166491 5081041
-0.077104658 -0.012639888 1.1713266 4160963
-0.068946116 -0.011658207 1.1764672 4752075
-0.053884856 -0.0086025 1.1770623 4949201
-0.04713694 -0.0091636032 1.1769608 5016022
-0.037566818 -0.010287002 1.1761528 5213659
-0.027745882 -0.011193968 1.1754417 5411552
-0.01789395 -0.011970483 1.1757241 5740773
-0.0077742413 -0.011968024 1.1763651 6003172
0.0023399349 -0.011966415 1.1758059 6331366
0.012396082 -0.011960633 1.1730473 6989552
0.02250322 -0.011959605 1.1732885 6792432
0.032578222 -0.011955597 1.1724799 5937640
0.04110036 -0.0110204 1.1745884 5806054
0.051830061 -0.0097074062 1.175409 5674725
0.058577441 -0.0085814074 1.1752934 5674983
0.10440663 -0.011103444 1.1745937 5146841
0.11033489 -0.013211899 1.1688029 5080789
-0.073737256 -0.0041434541 1.169336 4554184
-0.070243873 -0.0032914281 1.1722744 4751049
-0.054945581 -0.0029957443 1.1750319 4818129
-0.047516219 -0.0029987171 1.1741149 5015507
-0.038030304 -0.0030115247 1.1705652 5147609
-0.027943989 -0.0030160025 1.1691065 5346018
-0.018263156 -0.0033747032 1.1715688 5937898
-0.0078114048 -0.0041173175 1.1716329 6462952
0.0026295949 -0.0033750534 1.1705735 8303605
0.011986648 -0.0034847632 1.1694112 8501495
0.021830527 -0.0044676587 1.1684513 7252467
0.033151295 -0.0039158165 1.1691079 6069484
0.042311866 -0.002819337 1.1698161 6135528
0.052471787 -0.0031753778 1.1727557 5741031
0.061885215 -0.0029645413 1.1741945 5543655
0.071378626 -0.0016576275 1.1750345 5477092
0.081442155 -0.0003291443 1.1748651 5739747
0.092813402 -0.00057696551 1.1746883 5280481
0.1019756 -0.0032311603 1.1708735 5015513
0.10742833 -0.0052213669 1.1684963 4949463
-0.067037366 0.0025604218 1.1691748 4818122
-0.057605192 0.0035551637 1.1690181 5147606
-0.048917614 0.0043015182 1.1688753 4818639
-0.040229261 0.002565451 1.1687531 5344472
0.004450758 0.003132388 1.1680458 12971007
0.0089189559 0.0025746599 1.1679802 12905215
0.033493057 0.0025792718 1.1675937 5807584
0.046897117 0.0025817826 1.1673828 6004710
0.052960552 0.0035404488 1.1672795 5807083
0.061784238 0.0060357451 1.1692536 5477863
0.070327289 0.0056230351 1.1716565 5542628
0.082190931 0.0026702508 1.1748284 5673698
0.092734471 0.0046184808 1.1731461 5804766
0.098279335 0.0025914237 1.1665747 5147865
0.064765632 0.013756178 1.1670088 5412324
-0.0043010097 -0.19818383 1.1818622 3039650
0.0021473775 -0.19882748 1.1817662 3039650
-0.024615301 -0.19028792 1.1821159 2842271
-0.017844712 -0.19028667 1.1820095 2973857
-0.0075004604 -0.19136563 1.1831191 2973857
0.0022709304 -0.19310607 1.1842432 3039395
0.012917195 -0.19117576 1.1833111 3171237
0.022210887 -0.18976176 1.1824419 3237030
0.032562658 -0.18920545 1.1827464 3302569
0.040897589 -0.18934678 1.1824113 3237546
-0.044285603 -0.17981237 1.182338 2908065
-0.036708675 -0.18077826 1.1822269 2973857
-0.028011335 -0.18253212 1.1831049 2973857
-0.018247841 -0.18442208 1.1840849 2973858
-0.0099262912 -0.18523392 1.1858433 3105444
0.021776456 -0.18522798 1.1853448 3237030
0.033475794 -0.18371598 1.1851482 3302825
0.042401478 -0.18326175 1.1846963 3171754
0.052231252 -0.18379229 1.1828536 3171752
0.062564343 -0.18337181 1.1820992 3171753
0.070993669 -0.18025598 1.1815289 3237546
0.079196475 -0.1778546 1.1803797 3303592
-0.05546546 -0.1703563 1.182435 2908579
-0.047240518 -0.17250803 1.1843239 2908579
-0.037392206 -0.17396855 1.1850904 3105444
-0.02872452 -0.17572579 1.1860598 3105443
0.065930963 -0.17616096 1.1845748 3303339
0.073941782 -0.17389716 1.1830965 3303082
0.082303971 -0.17180456 1.1808521 3237545
0.088221058 -0.16882464 1.1801627 3303850
-0.064496517 -0.15907267 1.1824831 3302822
-0.057848066 -0.16335812 1.1846645 3040165
-0.050692722 -0.16712409 1.1863337 3040167
0.077250481 -0.1671001 1.1843214 3303598
0.083296411 -0.16311176 1.1832517 3238061
0.091828838 -0.16106397 1.1811526 3303596
0.099502146 -0.15866572 1.1799006 3369131
-0.074279599 -0.14854153 1.1825492 3171751
-0.06783139 -0.1521616 1.1838899 3368615
-0.060886495 -0.15580259 1.1863996 3171751
0.10133817 -0.15207788 1.1813171 3369134
-0.076256603 -0.14148855 1.1825216 3369130
-0.070090599 -0.14342244 1.1854411 3434922
0.1024852 -0.14239956 1.1827663 3435183
-0.077963486 -0.13287947 1.1838102 3434923
0.10523726 -0.13530299 1.1828163 3501232
0.11198641 -0.13217445 1.1820723 3435694
0.1186765 -0.1304488 1.1793641 3501232
-0.086193964 -0.12174033 1.1835134 3369646
-0.08044868 -0.12547937 1.1851212 3435182
0.11573262 -0.12293155 1.1833483 3567282
0.11980309 -0.12241435 1.1810979 3567027
-0.094603963 -0.1090467 1.1825398 3501231
-0.089975022 -0.11295351 1.1852499 3435439
0.1157301 -0.11500517 1.1832823 3829686
0.12080517 -0.11220631 1.1814011 3829431
-0.094605044 -0.1056611 1.1825117 3501231
-0.090193741 -0.1024062 1.184082 3567024
0.12311638 -0.10282229 1.1817311 3830201
-0.094609536 -0.091554448 1.1823943 3632818
-0.09134873 -0.092257634 1.1843491 3698612
0.12521993 -0.092217013 1.180943 3896507
-0.094612591 -0.081961922 1.1823144 3633333
-0.090724029 -0.082133681 1.185055 3764919
0.12504436 -0.082012996 1.1803607 4093886
-0.095066771 -0.073159456 1.1822482 3633334
-0.090979345 -0.072198555 1.1853764 3830201
0.12204924 -0.072383001 1.1810498 4291523
-0.090583414 -0.061909411 1.1837509 3896506
0.12154653 -0.061903983 1.1803482 4619975
-0.087305896 -0.052357644 1.1836674 4028348
0.11570954 -0.050461687 1.182745 5146320
0.12012254 -0.052690059 1.181694 4883148
-0.08561375 -0.042954303 1.1821337 3962814
-0.080593668 -0.041572958 1.184615 3963072
0.11469112 -0.041647289 1.1811874 5146577
0.11842305 -0.043285571 1.179142 5080527
-0.084246323 -0.033884495 1.1817509 4028607
-0.078035302 -0.032118835 1.1837721 4291526
-0.028091552 -0.0301065 1.1848369 5147865
-0.020618832 -0.029878631 1.1847174 5344731
-0.0043148529 -0.02896969 1.1844535 5345501
0.0024785921 -0.028968416 1.1843467 5739743
0.012637079 -0.03120929 1.1828721 5936862
0.021696441 -0.031213067 1.183063 5871068
0.031917214 -0.030095235 1.1838931 5739228
0.050032713 -0.028959498 1.1835988 5213656
0.11281052 -0.032766826 1.1810429 4949970
-0.076293804 -0.024685465 1.1815492 4422856
-0.067835286 -0.019906417 1.1831948 4686797
-0.057463944 -0.01877477 1.1832041 4884690
-0.047044754 -0.020198613 1.1845523 4950486
-0.036603339 -0.020962641 1.1835611 5213659
-0.02806366 -0.02214808 1.1815697 5279707
-0.01789731 -0.023280136 1.1818193 5345244
-0.0077352133 -0.021646731 1.1815569 5411808
0.0021202527 -0.022760324 1.1812092 5806052
0.011442164 -0.025891587 1.1801795 6068964
0.02347889 -0.026265502 1.1799933 6068963
0.033528477 -0.023875274 1.1807386 6003173
0.041997503 -0.022147954 1.181468 5608417
0.052206174 -0.02215033 1.1819077 5411038
0.059088476 -0.022163749 1.1833997 5279709
0.10376019 -0.020406343 1.1817594 5212630
0.10937931 -0.024010427 1.1799572 5015248
-0.064166494 -0.014244266 1.1812714 4949712
-0.057395898 -0.014242999 1.181165 4949713
-0.047240011 -0.014241092 1.1810052 5016279
-0.037836291 -0.014615506 1.1808605 5213659
-0.029184738 -0.015366234 1.1807307 5345501
0.043598939 -0.014788315 1.1795813 5871590
0.052061997 -0.014222465 1.1794435 5871847
0.062348738 -0.011971302 1.1812632 5543139
0.069637559 -0.010838486 1.181425 5280225
0.094184339 -0.010833763 1.1827534 5411294
0.10000576 -0.012267314 1.180128 5279196
0.071806855 -0.0057547688 1.1790625 5411556
0.081397995 -0.0040601715 1.1788975 5412066
0.092682317 -0.0040580556 1.17872 5477344
0.099453621 -0.006313853 1.1786324 5213404
0.0033496656 -0.18847391 1.1896623 3105189
-0.017005822 -0.18000405 1.190912 3039906
-0.0072985459 -0.18213311 1.1912057 3039908
0.0022652289 -0.18327649 1.1929699 3105447
0.012832362 -0.18251926 1.1902137 3105702
0.021902859 -0.18127479 1.1893106 3171750
0.03088785 -0.18085995 1.1891658 3237289
0.042351034 -0.17899865 1.1889701 3237548
0.052575484 -0.17899674 1.1888093 3171752
0.061663888 -0.17899504 1.1886663 3171752
-0.044673719 -0.16856238 1.1902517 3039909
-0.036810838 -0.16928473 1.191023 3105701
-0.028628474 -0.17191917 1.1925731 3105443
-0.01900568 -0.17729884 1.1939213 3040163
0.011770226 -0.17638108 1.1934297 3105960
0.023168461 -0.17526431 1.1932411 3105958
0.032252181 -0.17375788 1.1922857 3237545
0.042631678 -0.1727041 1.1910187 3237547
0.052665584 -0.1723935 1.190353 3237544
0.062729873 -0.1721637 1.1902771 3237545
0.071364805 -0.17018241 1.1891071 3303339
-0.055923633 -0.15913443 1.1903501 3172009
-0.047463171 -0.16227704 1.1926435 3105961
-0.038102403 -0.16447785 1.1941149 3171752
0.045962654 -0.16588704 1.1928046 3303337
0.05280181 -0.16588576 1.192697 3303593
0.062897392 -0.16490677 1.1925302 3303594
0.072083384 -0.16230077 1.1911137 3303596
0.07886114 -0.16081338 1.1882443 3238062
-0.063310668 -0.15061469 1.1903952 3434409
-0.057524793 -0.15235302 1.1931427 3237547
-0.049167328 -0.15471254 1.1942075 3237805
0.073062502 -0.15498899 1.1922877 3238318
0.08233995 -0.15206373 1.1909972 3238572
0.092436589 -0.15186134 1.1891565 3434926
0.098917492 -0.15126595 1.1878494 3369134
-0.065634839 -0.14157304 1.1915874 3435179
-0.059654683 -0.14356296 1.1938351 3369388
0.086991042 -0.14536005 1.1919883 3500977
0.092595398 -0.14182839 1.1908706 3435186
0.098005667 -0.14187394 1.1877855 3500720
-0.07415656 -0.13083431 1.1914012 3566511
-0.06842763 -0.13369834 1.1930019 3566767
-0.061193526 -0.13626814 1.1942431 3500977
0.094064705 -0.13419113 1.1912841 3501234
0.10190888 -0.13177083 1.1883901 3501490
-0.083770059 -0.11767015 1.1904426 3566770
-0.076968066 -0.12223049 1.192974 3632306
-0.070315316 -0.12715016 1.1943105 3632563
0.10373661 -0.12309122 1.1901276 3699127
0.11114588 -0.12182034 1.1878825 3633076
-0.084964536 -0.11207367 1.1914148 3566770
-0.078912631 -0.11294612 1.1943275 3763892
0.10464887 -0.11400781 1.1914495 3633335
0.11128622 -0.11183256 1.1888822 3764407
-0.085071236 -0.10197867 1.1931328 3698868
-0.080708534 -0.10257964 1.1942693 3699126
0.105215 -0.10203812 1.1913409 3962811
0.1117357 -0.10213502 1.1900724 3830969
0.11941575 -0.10237515 1.1871198 3830714
-0.086277395 -0.092038766 1.1911917 3699126
-0.08096502 -0.092573375 1.19419 3830712
0.11244039 -0.092190102 1.1905452 4028606
0.1205486 -0.092311881 1.1870182 3962300
-0.085689567 -0.082547732 1.1917804 3830970
-0.08075121 -0.082205117 1.1941003 3962813
0.11271863 -0.083126783 1.1910654 4291522
0.12054231 -0.0827429 1.1873022 4094399
-0.085992463 -0.072478116 1.1918156 3962044
-0.081079893 -0.072759792 1.1940267 4093630
0.11429485 -0.072384425 1.1906844 4554438
0.11908185 -0.073159888 1.1868818 4357059
-0.085377909 -0.062437758 1.1913413 4093886
-0.080757745 -0.061685823 1.1939294 4291009
0.11244933 -0.061845656 1.1900034 4686026
0.11842911 -0.061960805 1.1867987 4685769
-0.083789967 -0.055181835 1.1899223 4159935
-0.078744538 -0.05268861 1.1926798 4225985
0.10519902 -0.051879857 1.1909233 5015248
0.11124416 -0.053175271 1.1881721 5014991
-0.075743526 -0.042876225 1.1918113 4292037
-0.070341453 -0.045073025 1.1936272 4619977
-0.047546439 -0.038228985 1.1932118 5279449
-0.039567441 -0.038227487 1.1930863 5016538
-0.027028626 -0.039365094 1.1928985 4950743
-0.017506903 -0.041039728 1.1927627 4950488
-0.0084104426 -0.040881552 1.1926184 5147351
0.0020379638 -0.039929625 1.1924461 5278422
0.012592467 -0.042249519 1.1914105 5212886
0.021929463 -0.041592311 1.1903969 5278423
0.031908922 -0.040748928 1.1907331 5147094
0.042829018 -0.041143361 1.1918148 4885460
0.052303128 -0.039643627 1.190926 4950741
0.061424367 -0.039120518 1.1915056 5016279
0.10368416 -0.04203862 1.189465 5212370
0.11103883 -0.043215699 1.1867588 5212369
-0.073665895 -0.03590966 1.1916029 4423370
-0.071600124 -0.032717668 1.1911438 4554187
-0.047085635 -0.033208683 1.192896 5147610
-0.037255771 -0.032491997 1.1910019 5081818
-0.028149975 -0.034764968 1.1908776 5016538
-0.016998673 -0.03332518 1.1908236 5278938
-0.0078937039 -0.032717027 1.1906754 5344730
0.0025587333 -0.033602379 1.1894515 5673948
0.012768141 -0.035849147 1.1882429 5805277
0.021856539 -0.03584744 1.1880999 5541848
0.032080628 -0.034709357 1.1879296 5475544
0.042304352 -0.032435149 1.18775 5213397
0.052969299 -0.033050284 1.1882933 5082070
0.062685624 -0.032252692 1.1898283 5016536
0.071647644 -0.030064039 1.1912693 5213915
0.082394585 -0.029084928 1.1910921 5279453
0.093337357 -0.029538848 1.1909238 5213659
0.10274932 -0.032470115 1.1892 5212628
0.1093313 -0.032422587 1.1866957 5146833
-0.071302459 -0.026775703 1.1894894 4554443
-0.046082728 -0.024953134 1.1890776 5016281
-0.038811713 -0.02586069 1.1889708 5147611
-0.0076836552 -0.026763774 1.1884888 5411294
0.06312868 -0.022205904 1.1873373 5148123
0.07185334 -0.022207163 1.1874001 5213915
0.081912488 -0.022422247 1.188783 5213917
0.092676751 -0.022349589 1.1891899 5213659
0.10065084 -0.024097271 1.1870962 5212887
0.093421176 -0.015383296 1.1868041 5279708
0.097965382 -0.015382446 1.1867325 5411037
-0.013294186 -0.17799896 1.1988381 3106213
-0.0075710826 -0.17799789 1.1987481 3105959
0.0037118075 -0.1786499 1.1985761 3105706
0.014176702 -0.1779938 1.1984061 3105960
-0.02417027 -0.17113265 1.198952 3105700
-0.016729472 -0.17237544 1.1995955 3105957
-0.0075677466 -0.17237374 1.1994513 3106216
0.0027550505 -0.17248568 1.2001401 3106217
0.013392722 -0.17196976 1.199797 3171752
0.021284239 -0.17147696 1.1993312 3303337
0.032487713 -0.16883259 1.1980418 3369130
0.039355434 -0.16883129 1.1979338 3369132
-0.036769584 -0.15991962 1.1993902 3171753
-0.027057672 -0.16231358 1.2016444 3171752
-0.016733276 -0.1625777 1.2035646 3172010
-0.0075337254 -0.16384812 1.2043806 3172012
0.002515587 -0.16342461 1.2050147 3237802
0.013173761 -0.16272478 1.2042956 3303338
0.022379968 -0.16274956 1.2043512 3369133
0.032666769 -0.1625267 1.2024672 3369388
0.04278994 -0.16219422 1.2016146 3303853
0.052042238 -0.16103271 1.1994196 3369643
0.062124893 -0.16023692 1.1977395 3303851
-0.054509997 -0.1482439 1.1992384 3303598
-0.046373762 -0.15105741 1.2008486 3303341
-0.037755735 -0.15277249 1.2041564 3303340
-0.028366463 -0.15419124 1.2068782 3369132
-0.020195441 -0.15607536 1.2067653 3303600
0.013219472 -0.15606909 1.2062398 3303598
0.025894096 -0.1560667 1.2060405 3435186
0.033383645 -0.1560653 1.2059227 3369391
0.043177672 -0.15606347 1.2057686 3369392
0.052979045 -0.15315051 1.2049748 3369390
0.062490061 -0.15210411 1.2012314 3435184
0.0718152 -0.15050966 1.1972708 3369392
-0.055451922 -0.14123385 1.199995 3369646
-0.048245162 -0.14352046 1.2047015 3303853
-0.040938668 -0.14686051 1.2070148 3173034
0.054926977 -0.14499879 1.2054917 3566773
0.063101098 -0.14369237 1.2046854 3566516
0.072864838 -0.14182779 1.2015827 3500977
0.082738392 -0.14249747 1.1987168 3500975
-0.065635212 -0.12927631 1.1992555 3632562
-0.056709513 -0.13232909 1.202141 3501236
-0.049124479 -0.13247472 1.2065792 3501494
0.075144865 -0.13272256 1.2050714 3698612
0.082673751 -0.13307619 1.202592 3567283
0.091491662 -0.13065086 1.1997297 3567283
0.098862566 -0.12761015 1.1966547 3501747
-0.072833039 -0.11962928 1.1992882 3895478
-0.067211233 -0.12214971 1.2017213 3698613
-0.05825752 -0.12307582 1.2057555 3633080
0.076583043 -0.12609634 1.2049937 3699128
0.083140932 -0.12290401 1.2048639 3830713
0.092601813 -0.12252288 1.2035118 3699126
0.099318378 -0.12119961 1.1965941 3633333
-0.074143738 -0.11161647 1.1992421 3961271
-0.067318633 -0.11203755 1.2041391 3896247
-0.060537003 -0.11459864 1.2070543 3764921
0.083032347 -0.11595452 1.2048078 3962300
0.093886226 -0.11344378 1.2041456 3896506
0.10133978 -0.11158732 1.1984825 3764920
-0.075485609 -0.10228647 1.2006857 3830712
-0.068546452 -0.10182248 1.2057403 4093627
0.096854955 -0.10258477 1.204479 4028352
0.10216401 -0.10201792 1.1990566 3962812
-0.075881042 -0.091966271 1.2011061 3962556
-0.069357596 -0.093058072 1.2065691 4028606
0.096324913 -0.092180878 1.2044007 4357317
0.10267331 -0.092399716 1.2003021 4225985
0.10800713 -0.088687859 1.1961867 4225985
-0.075392283 -0.082957782 1.2010233 4028606
-0.070533104 -0.083103195 1.2069491 4094655
0.096849084 -0.084147319 1.2043256 4554695
0.10261115 -0.082023844 1.1996166 4554182
0.10876753 -0.080293082 1.1961048 4619462
-0.076102152 -0.072317474 1.1994163 4159424
-0.068029612 -0.071280509 1.2055804 4160448
-0.061703555 -0.069657557 1.2066983 4554440
0.097305715 -0.070780069 1.2042071 4620747
0.10284189 -0.071814403 1.2018782 4686026
0.10914666 -0.072661534 1.1960351 4619977
-0.075492613 -0.062657833 1.1988555 4291265
-0.0673474 -0.062624134 1.2039781 4357573
-0.061705761 -0.0627435 1.2066407 4751563
0.012420729 -0.060040805 1.2054524 4818903
0.020102074 -0.059271134 1.2053252 4819160
0.095459424 -0.062253088 1.204165 4752590
0.10283657 -0.062612809 1.2018017 4817869
0.10799947 -0.064648695 1.1959865 4752076
-0.073508307 -0.053071979 1.1987445 4291778
-0.067459896 -0.052340347 1.2022228 4554440
-0.061708331 -0.054677118 1.2065736 4883149
-0.043185301 -0.04763291 1.2022231 5674209
-0.037443154 -0.04763183 1.2021327 5082331
-0.026050365 -0.050453417 1.203844 4950745
-0.016770249 -0.052208021 1.2012455 4884953
-0.0075867269 -0.052198824 1.200901 4753366
0.0027596559 -0.051090173 1.2019293 4884692
0.01333293 -0.052717891 1.200932 4884692
0.02210216 -0.051988471 1.2014431 4884692
0.032336779 -0.050775684 1.2037286 4950484
0.043247037 -0.051738676 1.201787 4950488
0.052041382 -0.051468816 1.2026401 4950489
0.062663376 -0.05001064 1.203512 5411037
0.071661718 -0.049754649 1.2044351 5542623
0.085776001 -0.047735408 1.2041963 5213404
0.093554519 -0.050614808 1.204098 5081558
0.10182527 -0.052873723 1.2015864 5015248
-0.068279095 -0.042604964 1.198575 4685772
-0.046037644 -0.042127807 1.1993124 5542365
-0.037067525 -0.042306069 1.1992248 4951002
-0.028321201 -0.043340795 1.1979527 4884951
-0.019059582 -0.045212246 1.1978227 4753366
-0.0053245015 -0.044064946 1.1975971 4950484
0.0035463972 -0.044349458 1.1974601 5015763
0.033592954 -0.045202371 1.1969947 5015764
0.040460676 -0.045201082 1.1968867 4885461
0.052397117 -0.044217654 1.1966907 4884950
0.063214011 -0.043136679 1.1983581 5082072
0.072635427 -0.041971445 1.2011546 5542624
0.082252666 -0.043107461 1.2034131 5279197
0.092358969 -0.041880157 1.2004435 5213144
0.099599153 -0.044426836 1.1959502 5212627
0.066784032 -0.036038361 1.1963964 5016538
0.072506577 -0.034320213 1.196292 5213917
0.082044289 -0.031838179 1.1961213 5345245
0.092404716 -0.034140453 1.1966444 5213917
0.1837126 -0.036193628 1.2025601 13158081
-0.0074913055 -0.15887006 1.2105895 3303598
0.0052252179 -0.15886767 1.2103895 3303850
-0.035933465 -0.14823879 1.2109482 3303853
-0.026157966 -0.14983007 1.211165 3304111
-0.01656034 -0.15193257 1.21278 3303857
-0.007473018 -0.15225025 1.2132845 3303856
0.0029582027 -0.15227762 1.2133708 3369903
0.013314974 -0.15077309 1.2101949 3435441
0.022381112 -0.15168415 1.2100599 3435187
0.032857768 -0.1510447 1.2098898 3500978
0.04337221 -0.15076745 1.2097222 3369649
0.050076768 -0.14914759 1.2096032 3435441
-0.044105254 -0.14076391 1.2110145 3370159
-0.03755407 -0.14153343 1.2109179 3370416
-0.027164171 -0.14177561 1.2130069 3436469
-0.01674735 -0.1420736 1.215596 3502005
-0.0074608754 -0.14207186 1.2154499 3501749
0.0029875133 -0.14555264 1.2153146 3501493
0.013403269 -0.14192836 1.2138704 3567542
0.022711065 -0.1420313 1.2146626 3567541
0.033103801 -0.14189819 1.2133104 3633333
0.043414392 -0.14161758 1.210583 3567541
0.051994957 -0.1408941 1.2095044 3633079
0.062030286 -0.13870697 1.2093283 3632566
-0.044493295 -0.13228552 1.21095 3501750
-0.037597962 -0.13253425 1.213344 3567798
-0.029161943 -0.13305654 1.2157161 3633848
-0.015588393 -0.13626882 1.2155294 3633591
-0.0086235348 -0.13626751 1.2154199 3699128
0.013431465 -0.13510247 1.2150633 3830714
0.023878746 -0.13510051 1.2148991 3764921
0.033375971 -0.13414888 1.2147417 3830712
0.043925025 -0.13323529 1.214211 3830713
0.052629605 -0.13293611 1.213762 3830458
0.062926404 -0.13268435 1.2116328 3764409
0.07102102 -0.13116235 1.2096797 3764407
-0.053513929 -0.12141941 1.2110014 3698874
-0.046863727 -0.12208378 1.2131526 3764923
-0.038262613 -0.12275185 1.2157733 3765435
-0.031842671 -0.12698457 1.2157077 3699641
0.06179592 -0.12696701 1.2142349 3896252
0.071881033 -0.12251841 1.2114198 3831226
0.079200476 -0.12185697 1.2089179 3830458
-0.056144759 -0.11196856 1.2117536 3896508
-0.046938002 -0.11189554 1.2158194 4028352
-0.039044276 -0.11259061 1.215701 4094143
0.073133767 -0.11262023 1.2103652 4159936
0.082434073 -0.11137394 1.2087797 4028352
0.090468176 -0.11000432 1.208642 3962559
-0.064155675 -0.1022293 1.2110088 4093628
-0.057241879 -0.10228605 1.2116507 4028352
-0.046932191 -0.10258525 1.2154292 4094401
-0.040208772 -0.1009817 1.2156227 4225986
0.074631244 -0.10342716 1.2124732 4357317
0.082888782 -0.10241401 1.2115109 4225732
0.091679469 -0.10196885 1.2085561 4159938
-0.06514968 -0.092484795 1.2109433 4028609
-0.056948952 -0.092544466 1.2121787 3963330
-0.047558703 -0.09256988 1.2156682 4160708
-0.041139126 -0.09564168 1.2155929 4292035
0.077261537 -0.089814909 1.2136823 4620236
0.082691953 -0.092556894 1.2122306 4488649
0.091107547 -0.093217783 1.208492 4357318
-0.06630899 -0.082244821 1.2108762 4160449
-0.057650104 -0.082389884 1.2144375 4160708
-0.048340358 -0.082408629 1.2155958 4489161
0.083803028 -0.083277792 1.2124534 4555212
0.092019938 -0.082082987 1.208385 4620489
-0.15838784 -0.073606342 1.2172531 14082013
-0.064935088 -0.074867219 1.2107931 4226242
-0.056793712 -0.072555438 1.2131463 4620234
-0.049659736 -0.070490174 1.2155173 5079759
-0.01560946 -0.070096821 1.2149786 6791922
-0.0074841697 -0.068934381 1.2148411 5608162
0.0029631108 -0.068932422 1.2146767 5016279
0.013062624 -0.070974715 1.2131711 5608413
0.021536238 -0.069509394 1.2143894 4950485
0.028500907 -0.068927631 1.2142751 5016277
0.08654245 -0.072399482 1.2133913 4752847
0.092394508 -0.072436363 1.2100637 4620747
-0.057493828 -0.063659534 1.211583 4948687
-0.046952412 -0.066619962 1.2154424 5408980
-0.025420824 -0.063499004 1.2131546 6134248
-0.016771367 -0.06302619 1.2124375 5344990
-0.0078316312 -0.063206092 1.2126557 4884696
0.0033369418 -0.063246727 1.2125643 4818902
0.013749924 -0.064524174 1.2094697 4818646
