# .PCD v0.7 - Point Cloud Data file format
VERSION 0.7
FIELDS x y z rgba
SIZE 4 4 4 4
TYPE F F F U
COUNT 1 1 1 1
WIDTH 1133
HEIGHT 1
VIEWPOINT 0 0 0 1 0 0 0
POINTS 1133
DATA ascii
0.099842131 0.01107239 1.0086598 6845830
0.10813031 0.0084478781 1.0106877 7436672
-0.069871485 0.020683408 1.0148786 6321290
-0.063704714 0.02159065 1.0137424 5795463
0.07897839 0.021196544 1.0123078 5860223
0.088621825 0.016507193 1.0099006 6649473
0.096162811 0.015864678 1.0139507 6977411
-0.070287272 0.025252469 1.0150105 7372164
-0.060869049 0.025540717 1.0135758 6123396
-0.051462937 0.029884964 1.0155735 5729669
-0.042923484 0.030453265 1.0154283 5336195
-0.036302153 0.032864481 1.0106182 5270149
0.068934642 0.028390668 1.0085306 5532277
0.076540515 0.02548252 1.0131714 5860472
-0.05192684 0.034987733 1.0169346 6714755
-0.042861942 0.034976691 1.0167562 5794947
-0.032088161 0.036650509 1.0144497 5466498
-0.021651216 0.039217234 1.0131032 5466240
-0.011148239 0.039726704 1.0140486 5334655
-0.00071275607 0.039857641 1.0123434 5138044
0.0083479388 0.040504649 1.0127674 5072252
0.018014923 0.040309176 1.011884 5072247
0.027661741 0.039752707 1.011313 5137530
0.037963606 0.039027557 1.0147512 5137788
0.046933152 0.035752386 1.0119908 5268347
0.11547311 -0.007998012 1.016485 7374502
-0.10052988 -0.0016386285 1.0249034 9214113
-0.091738611 0.0022683144 1.022887 6978442
0.11157924 -0.0060447156 1.0165687 7112109
0.11607893 -0.0018494874 1.017127 8686741
-0.089849129 0.0080395564 1.0234849 7636109
-0.084509075 0.012136452 1.0224944 7437970
0.11614092 0.0062906221 1.0165234 9277068
0.081845373 0.022587746 1.0182575 5992060
0.088456392 0.020506956 1.0207037 6451580
0.095318168 0.019342452 1.0193142 6516347
-0.059853707 0.027962126 1.021066 6254982
-0.05615161 0.032338008 1.0270102 6648965
-0.040332086 0.031162873 1.0196931 5270660
0.063172311 0.033066094 1.0206633 5662844
0.069039956 0.031694025 1.0206429 5794679
0.077616856 0.028901011 1.0193636 5926261
0.085842982 0.025259949 1.0221893 6253428
-0.050110999 0.037070841 1.0216572 7043204
-0.041009571 0.037730187 1.0218972 6188928
-0.030607745 0.040807903 1.0226371 5991293
-0.020836715 0.042947054 1.0225525 5794427
-0.011067355 0.042906016 1.02156 5597052
-0.0028919876 0.042462632 1.0201972 5399930
0.0064395908 0.042797297 1.0188144 5203324
0.017154649 0.042784259 1.0186034 5269365
0.029870005 0.042805195 1.0193535 5334394
0.039084069 0.041784257 1.0211688 5466234
0.045649558 0.03995806 1.0218666 5597049
0.063176088 0.03599751 1.0206738 5991033
0.067841604 0.035920233 1.0228678 6055795
-0.018876616 0.044891626 1.022321 6056827
-0.0097961333 0.045995653 1.0256469 5859449
-0.0014433153 0.046138003 1.0243828 5728377
0.0077551529 0.045573056 1.0258 5532027
0.018402701 0.04499954 1.0255884 5532021
-0.097606212 7.5250864e-007 1.03071 7306630
-0.095637694 0.00098215789 1.0306748 7438985
-0.077989846 0.018744789 1.0363928 7044228
-0.074127585 0.018702269 1.033316 6255491
0.090786457 0.022890799 1.0270844 6187632
0.096196994 0.023376107 1.0269796 6119529
-0.059795219 0.031042933 1.0300778 6780808
0.058832169 0.03325963 1.0277507 5465215
0.082604766 0.028093457 1.0322652 6056820
0.088678688 0.027393803 1.0304427 5988198
-0.047390986 0.039291784 1.0298634 7108737
-0.040956713 0.042157635 1.0330477 7108222
-0.032631651 0.043209031 1.029587 6582396
0.050306998 0.040402085 1.0301948 5859705
0.055634208 0.038545951 1.0288329 5728122
-0.028053571 0.046583384 1.0320096 6713719
-0.021609388 0.0474879 1.0332862 6450807
-0.013429549 0.047706142 1.0314757 6122104
-0.0015962962 0.048676968 1.0312463 6122617
0.010738899 0.049174577 1.031422 6057083
0.017084535 0.049007967 1.03223 6057334
-0.082938269 0.017512724 1.0394864 7832202
0.08235018 0.031488299 1.0362833 5792617
0.085326731 0.031484663 1.0362247 5724767
-0.03967106 0.045530096 1.0387357 7764863
-0.019822188 0.049475461 1.0383593 6384242
-0.010892499 0.049464583 1.0381835 6121843
0.16290446 -0.078276277 1.0533056 13950701
0.16593529 -0.078279972 1.0532459 13160147
0.16492891 -0.075247332 1.0532767 13423577
0.16410951 -0.087983727 1.0602483 12898285
0.16808718 -0.088964865 1.0596663 12832198
0.1626333 -0.082016394 1.0584413 10136266
0.16939969 -0.082503445 1.0584135 13159885
0.16301852 -0.075738773 1.0598137 12175571
0.16829398 -0.074668646 1.056213 13093836
-0.14067273 -0.10797827 1.0779777 1720740
-0.14143898 -0.10108064 1.0778059 3628972
-0.14243577 -0.094923735 1.0792598 4745397
0.16362162 -0.08979822 1.0692531 6256041
0.16816752 -0.092487127 1.0693539 12767188
0.16192256 -0.08071956 1.0713197 7312841
-0.13840675 -0.13222617 1.0890478 2903988
-0.13529022 -0.13222997 1.0889865 1324707
-0.13986716 -0.12018986 1.0883698 2904505
-0.13856889 -0.11142655 1.0870256 2644141
0.16392675 -0.10973531 1.0831779 5801403
0.16835873 -0.11008705 1.0830895 11779799
-0.1382803 -0.10032486 1.0851595 3039906
0.16307579 -0.10063328 1.0822273 3630254
0.16928318 -0.10145893 1.0815138 11516624
0.17640363 -0.10143816 1.0829623 13685195
-0.14072224 -0.091363601 1.0876042 2708908
0.16285124 -0.092161193 1.0813872 3762605
0.16757807 -0.095952891 1.0801551 10465738
0.16293739 -0.085334644 1.0772842 6721740
-0.13833182 -0.074039914 1.0892563 1588628
-0.13521528 -0.074043706 1.0891949 3826867
-0.13175546 -0.14762042 1.0948626 3694011
-0.13676068 -0.14107673 1.0929842 7178192
-0.1315002 -0.14083561 1.0940356 2114980
-0.13695444 -0.12960513 1.0930295 1063065
-0.13246065 -0.13243382 1.0938309 2447769
-0.13647549 -0.12204504 1.0930473 2578847
-0.13391423 -0.12161392 1.095999 2907546
0.16380274 -0.12075813 1.0886416 6851775
0.16936013 -0.12029442 1.0870336 13029078
-0.13575859 -0.11195651 1.0938197 3104917
-0.13389806 -0.10906544 1.0960441 3170462
0.16242453 -0.10996461 1.0887077 3040417
0.1721098 -0.11329576 1.0870048 13422807
0.17503326 -0.11017077 1.0869585 13619661
-0.13782918 -0.099431209 1.0939057 3104162
0.16118531 -0.10174765 1.0881188 2973607
-0.13714798 -0.091107741 1.0941724 3169952
0.16165595 -0.091648199 1.0902892 2843043
-0.13895021 -0.081424892 1.0934005 3301299
-0.12645023 -0.15956837 1.104717 4750553
-0.12277032 -0.16180588 1.106637 1196192
-0.12851857 -0.1522892 1.1015834 3036848
-0.12452099 -0.15458649 1.1066974 1789334
0.15952678 -0.1508843 1.0986192 12898004
-0.12742649 -0.14140144 1.1030236 2776475
0.160015 -0.14178184 1.0975422 9087435
0.1657629 -0.13713583 1.094045 13488846
-0.12966406 -0.1306597 1.1028842 3038106
0.15986252 -0.13112777 1.0965834 4354994
0.16766195 -0.12916182 1.0940365 13752800
-0.13149679 -0.12095337 1.1044 2973083
0.15986517 -0.12135921 1.0975264 2121388
-0.13640331 -0.10738148 1.1001002 3301280
-0.13295679 -0.11235054 1.1036515 3039132
0.1605617 -0.11329081 1.0954003 2646946
0.1768325 -0.1080707 1.0969326 13817039
-0.1363952 -0.10108438 1.1001227 3366820
-0.13375217 -0.10157219 1.10507 3105183
0.15901904 -0.10105344 1.099009 3631271
0.1778874 -0.10596724 1.0969195 13817037
-0.13638079 -0.089889549 1.1001627 3499424
-0.13361585 -0.09092582 1.1039054 3302563
0.15868284 -0.090798639 1.0982937 3369127
-0.13357295 -0.08142285 1.1036388 3434147
0.16062921 -0.081219882 1.0992579 2908578
0.1663487 -0.078591451 1.0972453 8233160
-0.13824356 -0.07025408 1.1011276 3365295
-0.1328662 -0.071483001 1.104007 3499689
0.16142811 -0.071641818 1.0990148 4024485
0.16635953 -0.070172459 1.0972755 11192030
-0.13665639 -0.061384562 1.1032717 2181536
-0.13140592 -0.061253347 1.104369 3433908
0.16070925 -0.066214226 1.1014019 2708114
-0.13495025 -0.053180065 1.1072686 8233201
-0.13115923 -0.05429744 1.1054752 3564980
0.011481502 0.11854158 1.1010048 9935247
0.017194478 0.11943664 1.1008956 9934992
-0.1169925 -0.17075711 1.1151849 929696
-0.11276418 -0.17112392 1.1174085 1984411
0.14959028 -0.16717669 1.1122587 13424882
-0.11803763 -0.16118464 1.1129472 2512540
-0.11335395 -0.16310069 1.1161155 2906513
0.15087335 -0.16124633 1.1098099 8955594
0.15645924 -0.15989693 1.1061485 14080986
-0.12516005 -0.14709464 1.1137384 2381461
-0.12201552 -0.1522868 1.1155957 2776212
0.15108092 -0.15164104 1.1086047 3697834
-0.12558295 -0.14117587 1.1146016 2841752
-0.1233958 -0.14551112 1.1177101 2906774
0.15295699 -0.14172818 1.1090835 2646183
-0.12743789 -0.13061562 1.1157002 2907034
-0.12338206 -0.13484453 1.1177484 2775704
0.15356687 -0.13299817 1.1102033 3696546
0.15561572 -0.12846228 1.1096126 3761571
-0.12847216 -0.12115752 1.1143417 2973083
0.15728885 -0.12236165 1.1089349 3368880
-0.12956375 -0.11094588 1.1138555 3039134
0.15759239 -0.11075225 1.1085767 3500454
-0.12973332 -0.10049475 1.1135964 3171232
0.15655185 -0.10231593 1.1096408 3631529
-0.13029301 -0.091722466 1.112939 3302564
0.15497507 -0.091905236 1.1054229 3697839
0.15545085 -0.092167988 1.1084131 3763633
-0.13035661 -0.081170455 1.1137785 3368355
0.15602559 -0.080912217 1.1081567 3436468
0.17034712 -0.077306218 1.1081735 10992842
-0.12800443 -0.070755854 1.1137698 3697068
0.15398386 -0.067982577 1.11253 3765679
0.15708628 -0.070468992 1.1076409 3830452
0.16999838 -0.073054381 1.1081958 11387079
-0.12693962 -0.062973499 1.1115764 3631022
-0.12476955 -0.059764847 1.1110451 3500456
0.15329988 -0.061054822 1.109679 3830449
0.15996581 -0.061547402 1.107066 5207985
0.16656409 -0.062581077 1.1109682 10334913
-0.127121 -0.050956961 1.1136951 3434161
0.15244643 -0.052121643 1.1094741 3893939
0.15952335 -0.05261125 1.1085312 8428221
-0.12729356 -0.04093954 1.1173068 6194370
-0.1227252 -0.038845871 1.1180818 4421311
0.15036242 -0.040300641 1.1116101 5734064
0.15668091 -0.043985996 1.1125635 10203587
-0.12138352 -0.032180876 1.1180794 6852289
0.14884366 -0.034369607 1.1095518 8955077
0.018753748 0.095381126 1.1157812 9737616
-0.086269334 -0.20757693 1.1250906 7635861
-0.08283338 -0.20808336 1.1276883 8100012
-0.096461117 -0.19765446 1.1279942 10535920
-0.089484572 -0.20033121 1.1254938 5996227
-0.08282876 -0.20449293 1.1277012 6394567
-0.10661194 -0.18657826 1.1202322 8431615
-0.099562377 -0.18904072 1.1228545 1526185
-0.09330292 -0.19145602 1.1268113 1262491
0.1304244 -0.18895453 1.1235596 11717846
-0.11515541 -0.17801172 1.1204313 7571711
-0.10814498 -0.1802949 1.121841 1917611
-0.10109699 -0.18283808 1.1254716 2379673
-0.094292 -0.18580858 1.1279942 2644619
0.13202301 -0.18208331 1.1235529 5010097
0.13926834 -0.17911601 1.1202775 10599906
0.14635491 -0.17791109 1.1192851 14081762
-0.10814667 -0.17147377 1.1245284 2709143
0.13307941 -0.1714842 1.1235703 2909858
0.13965431 -0.17100343 1.1196238 4026283
0.14717805 -0.17119172 1.1157924 12307424
-0.11512925 -0.15769091 1.1205041 2775446
-0.11069526 -0.16192046 1.1233113 2775442
0.1409328 -0.16206026 1.1204492 3105445
0.14577967 -0.16121709 1.1153557 2578854
-0.11710989 -0.15049677 1.1227233 2775449
-0.1128082 -0.152924 1.1271436 2906778
0.14330283 -0.15226755 1.1218381 3564451
0.14657822 -0.1512793 1.1177764 3433893
-0.12092875 -0.14181803 1.1239704 2840984
0.14484131 -0.14409138 1.1234376 3565217
0.14852042 -0.14195994 1.1180385 3499430
-0.12578662 -0.12987047 1.1208143 2841497
-0.12268798 -0.13167383 1.126748 2907290
0.15085593 -0.13134851 1.1203647 3237547
-0.12592272 -0.12041952 1.1224514 2973083
-0.12310414 -0.12092101 1.1267951 3038877
0.15398383 -0.12167042 1.12152 3827369
0.15652516 -0.1205885 1.1152909 3564710
-0.12694296 -0.1104537 1.1237649 3039391
-0.12423059 -0.11238493 1.1275147 3170977
0.15426202 -0.11158159 1.1213691 3565735
0.15653619 -0.11203238 1.1153215 3500198
-0.12701643 -0.10226919 1.125939 3170977
0.15452807 -0.10256084 1.1207297 3631790
0.155662 -0.1042505 1.1233684 3434923
-0.12717749 -0.091711901 1.1249801 3302823
0.15420996 -0.091108419 1.1209439 3566513
-0.12715986 -0.081705399 1.1236823 3368614
0.15331785 -0.081850961 1.1210333 3632560
-0.12662002 -0.074004576 1.125033 3565995
0.1521077 -0.071676403 1.1198218 3895728
-0.12363419 -0.058964986 1.1266289 3697842
0.14975345 -0.061710626 1.1184372 4158132
-0.12198605 -0.050658368 1.1253898 3502262
0.14865999 -0.051045079 1.1196973 4027837
-0.11934009 -0.04114484 1.124786 3698611
0.14389896 -0.039607964 1.1238331 4619197
0.14959091 -0.042694815 1.1181704 4946612
-0.12566401 -0.034683533 1.1211553 7180220
-0.11793195 -0.031720497 1.1282152 4815032
0.14380912 -0.033123598 1.1231915 5209534
0.1483911 -0.031350255 1.1157728 8425655
0.019925481 0.09134233 1.1187441 9474444
-0.059178222 -0.21800223 1.1341882 8300241
-0.077451929 -0.20977193 1.1309406 7642055
-0.069918975 -0.21044615 1.1329266 4815810
-0.063135818 -0.21390992 1.1342809 5210825
-0.086581379 -0.19784582 1.1307995 932767
-0.079583988 -0.20130435 1.1323339 2382238
-0.070925459 -0.20436296 1.1344687 2251168
0.11256813 -0.20133495 1.1308677 6518691
0.11837785 -0.2003108 1.1293283 11319227
-0.088263363 -0.19110891 1.132724 2447513
-0.082832471 -0.19459423 1.1347383 2513045
0.12023975 -0.19209194 1.1296973 4617903
0.12722479 -0.19210614 1.1266118 10929103
-0.0977128 -0.18006891 1.1325376 2971544
-0.091795713 -0.18384328 1.1329532 2774929
0.12231189 -0.18282443 1.1290758 2909086
0.12717253 -0.1818734 1.1266497 3105187
-0.10525785 -0.16686325 1.131279 2709911
-0.10059732 -0.17193705 1.1335223 2644371
0.12871562 -0.17206192 1.1272702 3368356
-0.10754418 -0.16025195 1.1331663 2775444
-0.10256393 -0.16438466 1.1339021 2709910
0.13316679 -0.16220461 1.128203 3368613
0.13734517 -0.15923864 1.1265311 3499683
-0.11075245 -0.15167677 1.1329422 2841497
0.13502252 -0.15475874 1.1305938 3237027
0.13970214 -0.15204537 1.1278443 3302821
-0.11668579 -0.14007547 1.1321721 2645144
-0.11315349 -0.14181517 1.1346364 2775964
0.14285088 -0.14211801 1.1286668 3237542
0.1469264 -0.13854027 1.1277509 3106215
-0.118488 -0.13167748 1.1331211 2907291
0.14424595 -0.13256912 1.1291587 3499683
0.14731994 -0.13058673 1.1275812 3303338
-0.11944193 -0.12175387 1.1341213 3039134
0.14895068 -0.12209836 1.1278487 3499947
-0.12461756 -0.10744001 1.1318744 3236770
-0.12239856 -0.11174478 1.1351491 3236770
0.15070349 -0.1115945 1.1282586 3500458
-0.12460922 -0.10096005 1.1318976 3237027
-0.12280557 -0.10133848 1.1358615 3302821
0.15309259 -0.10105027 1.1287173 3632048
-0.1245967 -0.091240123 1.1319325 3302824
-0.12279369 -0.092126161 1.1358945 3302569
0.15137453 -0.092158794 1.1286793 3632047
-0.12501694 -0.082167663 1.1319735 3434408
-0.12215865 -0.079818025 1.1359264 3434665
0.14798936 -0.081106514 1.128422 4026292
-0.12457167 -0.071800262 1.1320021 3631531
-0.12276648 -0.070992038 1.1359702 3631531
0.14807951 -0.07312341 1.1270751 4157366
-0.12456332 -0.065320313 1.1320252 4025255
-0.12136187 -0.060209703 1.1342669 3632304
0.14754935 -0.061331607 1.1266835 4289211
-0.11790153 -0.051219806 1.1336596 3568048
0.14442074 -0.050561991 1.1274507 4094399
0.1467723 -0.054956913 1.1287222 4224702
-0.11661887 -0.045170095 1.1319416 3764911
-0.1131243 -0.040868565 1.1343888 3895729
0.14189087 -0.042140421 1.1283189 4487616
-0.11775057 -0.027073853 1.1350297 6458567
-0.11283238 -0.030850433 1.1343192 3895996
0.14181401 -0.031099185 1.1273055 5735616
0.14867224 -0.027853161 1.1267822 9477559
-0.11728847 -0.024395153 1.1360304 6852289
-0.11403768 -0.024399109 1.1359665 5933254
0.052705854 0.077023074 1.1290495 9474701
-0.022198312 -0.22854136 1.1454248 7248329
0.010625508 -0.23017007 1.1439726 5801654
0.018638019 -0.22904852 1.1432855 5210039
0.031456515 -0.22970191 1.1443645 6328255
0.039121687 -0.22971125 1.1442136 7379645
0.050680444 -0.22960363 1.1439865 8430007
0.05855399 -0.22782531 1.139837 8625323
-0.060244586 -0.2203407 1.1382016 9678537
-0.049292583 -0.2203792 1.1445136 4422071
-0.039928135 -0.22107217 1.1458007 2778029
-0.0301691 -0.222899 1.145602 2513574
-0.022559561 -0.22562027 1.1454425 2315684
0.0073701879 -0.22638686 1.1448505 2120102
0.019415464 -0.22640152 1.1446134 2185635
0.032557178 -0.22532231 1.1443586 2186146
0.038030893 -0.22642419 1.1442469 2316696
0.053364068 -0.22425239 1.143953 4486314
0.060884379 -0.22385944 1.1418059 5997746
0.072052464 -0.22091652 1.142454 6063288
0.080745906 -0.21946672 1.1434312 6589614
0.088848799 -0.21969563 1.1432709 8757678
-0.065666214 -0.20837036 1.1383516 1855898
-0.058885302 -0.21089895 1.1414477 2249885
-0.051126722 -0.21323296 1.145322 2381985
-0.042986862 -0.21537325 1.1458815 3039902
0.074730456 -0.21387371 1.1435698 2841504
0.080753803 -0.21333344 1.1434532 3302564
0.090295255 -0.21108474 1.1419399 4420011
0.10001162 -0.21024773 1.1373698 6984117
0.10940781 -0.20749588 1.1349086 6254993
-0.076781794 -0.19783974 1.1394085 2710418
-0.068990499 -0.20112607 1.1428249 2775447
-0.062215451 -0.2033737 1.145503 2906776
0.0927715 -0.20319812 1.1428531 3171492
0.10122778 -0.20182467 1.139891 3237285
0.1094818 -0.20060527 1.1355035 3629215
-0.079581186 -0.19090176 1.1434894 2775191
-0.071400523 -0.19441259 1.1458496 2906012
0.10322714 -0.19262731 1.1414185 3040421
0.11010557 -0.19094056 1.1379025 3105703
0.11595327 -0.19118965 1.1348386 2777257
-0.094985589 -0.17679389 1.1390426 2710677
-0.088155612 -0.18069962 1.1424241 2709909
-0.081894934 -0.18432461 1.1447589 2709910
0.11133847 -0.18257558 1.1414881 3368100
0.11883588 -0.18073395 1.1369534 3302561
-0.09614405 -0.17025931 1.1422007 2710421
-0.091282874 -0.17313202 1.1461843 2644886
0.11343521 -0.17482105 1.1429489 3040936
0.12143993 -0.17172438 1.140715 3237031
0.1277903 -0.16882065 1.1376868 3368615
-0.10583445 -0.15720364 1.1393268 2776209
-0.10031566 -0.16170877 1.1439528 2841240
0.12352435 -0.16324823 1.142792 3237287
0.12988162 -0.16101103 1.137531 3302822
-0.10673712 -0.15056638 1.1439028 2710683
-0.10199128 -0.15387461 1.146598 2841499
0.1322052 -0.15260574 1.1400707 3237541
0.13710514 -0.14988308 1.1361716 3237798
-0.10884258 -0.14201033 1.1445847 2907293
0.13395211 -0.14385097 1.1426567 3237797
0.13859008 -0.14129537 1.1375736 3303334
-0.11521332 -0.13029088 1.1407516 2907805
-0.11289765 -0.13195165 1.1467583 2907805
0.14049275 -0.13194367 1.140126 3434407
-0.11567034 -0.12098851 1.1423182 3039392
-0.11294855 -0.12219337 1.1475947 3039391
0.142446 -0.1223729 1.139995 3500202
0.14649315 -0.11944438 1.1344963 3631274
-0.11877099 -0.11182381 1.1442794 3170979
0.14445283 -0.11211556 1.14212 3631791
0.14773174 -0.11152997 1.1362785 3566510
-0.11913849 -0.10147762 1.1455051 3105957
0.14362086 -0.10099605 1.140954 3632305
0.14873946 -0.10207761 1.1348481 3501227
-0.11955199 -0.091443129 1.1432632 3237546
0.14315781 -0.091921136 1.1401168 3698099
0.14767446 -0.092288159 1.134971 3698094
-0.11891168 -0.081696518 1.1435239 3434923
0.14441669 -0.082650691 1.140671 3895479
0.14653797 -0.084640816 1.1346209 3895477
-0.1185071 -0.071241871 1.1441729 3566256
0.14471634 -0.071353197 1.1420395 4027579
0.14714496 -0.070768341 1.1386598 4157882
-0.11751589 -0.062330443 1.143429 3567024
0.14267915 -0.061811056 1.1416042 4159422
0.14692068 -0.061947148 1.1370957 4289724
-0.11523214 -0.052488357 1.1412231 3567791
-0.11202177 -0.05057741 1.1465012 3764403
0.14095332 -0.051766064 1.1401838 4356797
-0.11038907 -0.041622013 1.1404049 3830196
0.13828506 -0.042176668 1.1393374 4619718
-0.10885626 -0.030730739 1.1427522 3896507
0.13421986 -0.030280672 1.1399493 4817095
0.13868251 -0.030851819 1.1366366 4948420
-0.11642995 -0.021551728 1.1440254 6916535
-0.10894886 -0.022090025 1.1435685 5210049
0.13342324 -0.023895979 1.1420996 5013440
0.13783792 -0.023475856 1.1396804 5998788
0.03313116 0.050316483 1.1401978 5859448
0.041290943 0.050390586 1.1381799 6122362
0.04690906 0.05050157 1.1410702 6319482
0.058099635 0.051740289 1.1448554 5330522
0.033688735 0.054768488 1.1386788 5792108
0.041503582 0.055606052 1.1379945 5527648
0.046914682 0.054867253 1.141086 5067354
-0.016396139 -0.22853167 1.1483111 4354997
-0.0089999381 -0.22957532 1.1501622 4684224
0.00086736213 -0.22928771 1.148502 4289976
0.011837127 -0.22699733 1.1477609 2054307
0.022266295 -0.22755907 1.1475536 2777510
0.02775429 -0.22866385 1.1474416 4026798
0.044222511 -0.22868389 1.1471174 5604271
0.048067216 -0.22704144 1.1470476 4881326
-0.03536047 -0.21815518 1.1487218 3039902
-0.027403601 -0.21908449 1.149062 2710943
-0.018883511 -0.22101396 1.1516923 2645152
-0.0089445654 -0.22389627 1.1548492 2514339
0.00098466128 -0.22380282 1.1541207 2514851
0.01087407 -0.22130373 1.1524013 2842787
0.020715225 -0.22088414 1.1500088 2908579
0.030395191 -0.2205027 1.1503086 3039651
0.040608734 -0.22122219 1.1512163 2908578
0.049953584 -0.22036079 1.1507854 2778020
0.059940398 -0.21870312 1.1482729 2646433
0.069483221 -0.22139406 1.1466465 5012145
0.081009328 -0.22268918 1.1464149 8955830
-0.048373174 -0.20972109 1.1492941 2841242
-0.038494166 -0.21181324 1.1511402 2775960
-0.029450603 -0.21310645 1.1528913 2841500
-0.019973688 -0.21530354 1.1564308 2907551
0.011718238 -0.21460497 1.1558096 3105184
0.020931207 -0.21424764 1.1556295 3170722
0.030880697 -0.21425974 1.1554337 3302053
0.041015152 -0.21371925 1.1552361 3170723
0.051518586 -0.21281059 1.1550326 3105188
0.060816433 -0.21202224 1.1531378 3170467
0.070345506 -0.21181029 1.1490645 3236258
0.080455363 -0.20837337 1.146922 3171236
-0.064977825 -0.1983535 1.1493763 2906776
-0.058428604 -0.20060189 1.1503823 2907033
-0.049908649 -0.20161058 1.1539022 2841497
-0.040597335 -0.20569563 1.1568714 2775704
0.061844643 -0.20655748 1.1548519 3105443
0.070688643 -0.20656824 1.1546779 3105443
0.081461594 -0.20285898 1.1532158 3105956
0.0897609 -0.19998547 1.1495252 3105956
-0.075942487 -0.18735924 1.1496317 2644884
-0.06881991 -0.19094706 1.1524792 2775705
-0.060401317 -0.1938394 1.1549703 2841497
0.08507438 -0.19552867 1.1544344 3172006
0.092714369 -0.19315217 1.1532925 3040421
0.098530382 -0.1908004 1.150686 2974628
-0.084714234 -0.17856386 1.1498362 2645144
-0.078014597 -0.18035129 1.1527573 2710425
-0.072685987 -0.18308467 1.1541555 2776216
0.10201348 -0.1821657 1.1508987 3171493
0.10693263 -0.17992976 1.1476593 3237026
-0.087691277 -0.17055199 1.1525124 2710424
-0.081247851 -0.17278343 1.1563356 2710937
0.10499899 -0.17565019 1.154114 3302823
0.11127241 -0.17156121 1.1508467 3172005
0.11705483 -0.16842455 1.149902 3172006
-0.096399978 -0.15915006 1.1501362 2841498
-0.091912135 -0.16169372 1.1549628 2907290
0.11385722 -0.16460389 1.1539795 3303592
0.12008259 -0.16122448 1.1525356 3237544
0.12610732 -0.15685874 1.1457647 3303337
-0.098120227 -0.15069658 1.1519152 2973342
-0.093410343 -0.15384732 1.1580981 3038879
0.12373684 -0.15346755 1.1531584 3237544
0.12801172 -0.15042713 1.148551 3303336
-0.10614392 -0.13913111 1.1514004 2973342
-0.099995017 -0.14231935 1.1557688 2973600
0.1314559 -0.14131004 1.1497164 3368872
-0.10768522 -0.13127111 1.1528124 3039392
-0.10214742 -0.13211742 1.1583484 3236259
0.1328032 -0.13187777 1.1514742 3500460
0.1371215 -0.12941994 1.1456469 3434923
-0.1087622 -0.12162876 1.1534044 3170978
0.13387442 -0.12295324 1.1524022 3500719
0.13850588 -0.12044647 1.148986 3500718
-0.11536723 -0.11044504 1.1506852 3237029
-0.11143887 -0.11184178 1.1566041 3237286
0.13890962 -0.11159992 1.1517825 3697329
-0.11535592 -0.10166033 1.1507167 3237543
-0.1126492 -0.10125527 1.1581664 3172263
0.14012949 -0.10248819 1.151286 3697843
-0.11558726 -0.092033722 1.1537566 3303340
-0.11341266 -0.090981901 1.1587186 3303852
0.13992511 -0.092043623 1.1517278 3764149
-0.11569691 -0.082260348 1.1507934 3500716
-0.11282064 -0.080925941 1.1587433 3501229
0.14285132 -0.081605323 1.1502789 3764661
-0.11532056 -0.074208148 1.150815 3566512
-0.11205964 -0.070805699 1.1551276 3632306
0.13988139 -0.071392857 1.1502734 3896764
-0.11144564 -0.061185718 1.1551503 3698357
0.13395375 -0.061353039 1.1526228 4291265
0.13767663 -0.062506571 1.1470205 4225217
-0.10983042 -0.05217858 1.1547873 3764408
0.13473539 -0.051748492 1.1519753 4554434
0.13722192 -0.05145574 1.1459261 4488640
-0.10684572 -0.041472804 1.1555673 3895997
-0.10265829 -0.03828958 1.158697 4027323
0.13433804 -0.040946625 1.1510218 4817354
-0.10535881 -0.031928256 1.1521051 3962044
-0.10126612 -0.030749016 1.1578966 4093118
0.12508738 -0.028615475 1.1542491 5014224
0.13039798 -0.031339824 1.1501338 4751563
-0.10427387 -0.021513328 1.1507877 4290235
-0.099303663 -0.021407433 1.1552246 4158908
-0.093052611 -0.019135669 1.158577 4028609
0.12339787 -0.021568656 1.1525296 4817874
0.12997833 -0.021273039 1.1471778 5145287
-0.096953422 -0.014754683 1.1530685 4487616
-0.091486633 -0.012113474 1.1572379 4356800
0.11455716 -0.009042263 1.1525265 5276623
0.12082055 -0.01204852 1.1486773 5604813
0.13019377 -0.013272263 1.1470914 6720449
-0.089349568 -0.0051345378 1.1585547 5671109
0.11273348 -0.0034797415 1.1540114 5802961
0.11901823 -0.0042416453 1.1497889 6787017
0.03670013 0.012403332 1.1561368 12972031
-0.018569045 0.022391066 1.1552603 5869264
0.013861218 0.018696815 1.1566091 7515376
0.021353571 0.018319115 1.1564602 8764660
0.030958563 0.017865151 1.1562696 10146554
0.037590228 0.016825072 1.1561352 10870005
-0.07639344 0.030794963 1.1504276 8028800
-0.071269527 0.031154767 1.150328 7305855
-0.014138592 0.023522303 1.1571776 5671370
-0.010822095 0.023518264 1.1571122 5869265
0.012393389 0.023490012 1.1566552 6988787
0.016815387 0.023484617 1.1565682 7185904
0.10305573 0.032225296 1.1549022 6314850
-0.070043221 0.036155671 1.150322 8028802
0.099964887 0.035767332 1.1549758 6117979
0.075866416 0.046348885 1.1474867 5593178
0.078062177 0.046346217 1.1474434 5658970
-0.014424616 -0.21829031 1.1603117 2973083
-0.0088795051 -0.21940657 1.1601986 2973595
0.00056138262 -0.21899016 1.160681 2973598
-0.034377877 -0.20717086 1.1607447 2842012
-0.028001137 -0.20856553 1.160614 2776219
-0.018634837 -0.21106288 1.1619447 2907806
-0.0090112165 -0.21245973 1.1633847 2907807
0.0015479 -0.2130138 1.1633503 2973599
0.010377342 -0.21067566 1.1605178 3039136
0.021133456 -0.20970099 1.1609764 3170723
0.031097282 -0.20959136 1.1601139 3236770
0.040881995 -0.20914014 1.1592561 3170979
0.049927399 -0.20893778 1.1590788 3170980
0.056585386 -0.2072816 1.1589538 3171236
-0.045459524 -0.19828121 1.1609948 2842012
-0.038725942 -0.20056024 1.1623088 2842011
-0.029096566 -0.20283449 1.1631184 2842012
-0.020781618 -0.20429961 1.1644881 2907805
0.025689218 -0.20574784 1.1635681 3302309
0.031679291 -0.20459431 1.1623113 3302308
0.040304765 -0.20447885 1.1607846 3171236
0.051041711 -0.2050558 1.1590708 3171236
0.061700396 -0.20370127 1.160533 3105443
0.071510583 -0.20178801 1.15968 3171492
0.078041539 -0.19991094 1.158558 3040420
-0.066522092 -0.1871604 1.1614496 2841497
-0.057740528 -0.18992221 1.1618001 2907291
-0.049280491 -0.19258809 1.1629733 2907549
-0.042566653 -0.19378924 1.1649548 2907551
0.074680686 -0.19467419 1.1626438 3040420
0.081661269 -0.19283444 1.1606179 3106213
0.089442909 -0.19023502 1.1583685 3106214
-0.067977652 -0.18067902 1.163502 2907290
-0.061365973 -0.18357185 1.1648617 2973340
0.085823327 -0.18578115 1.1624565 3302823
0.091823727 -0.18339492 1.1599466 3237030
0.097970515 -0.17999627 1.1600157 3237031
-0.085354611 -0.16716617 1.1618923 2841497
-0.07695289 -0.17065802 1.1622478 2842012
-0.070788369 -0.17291054 1.1645855 2907547
0.10314807 -0.17231497 1.1590866 3368361
0.10821752 -0.1690661 1.1580753 3237285
-0.086826056 -0.16124696 1.1619426 2973085
-0.07999289 -0.1614899 1.1645446 3039135
0.10544924 -0.16517942 1.1581438 3368615
0.11199126 -0.1618596 1.1587543 3237799
0.11655091 -0.15853582 1.1579492 3303337
-0.094204783 -0.1482936 1.1621346 2973857
-0.088750675 -0.15183583 1.1635703 3039137
-0.082771569 -0.15273276 1.1658943 3104930
0.1140147 -0.15436658 1.1600146 3172264
0.120214 -0.1514788 1.1585693 3238059
-0.095365718 -0.14009342 1.1631873 3039650
-0.09133096 -0.1437044 1.1660954 3105700
0.12349403 -0.14174446 1.1600274 3369132
0.12766542 -0.14190659 1.1577904 3434410
-0.09809643 -0.13152951 1.1639863 3171236
0.12541647 -0.13362831 1.1610652 3500719
0.12876749 -0.13132396 1.1598073 3435183
-0.1052607 -0.11943267 1.1624564 3302823
-0.10056038 -0.12142755 1.1650238 3171495
0.12953876 -0.12122676 1.1596467 3566514
-0.10696746 -0.11080045 1.163976 3368873
-0.10325593 -0.11198775 1.1656444 3368875
0.13224575 -0.11203323 1.1586082 3697588
-0.10783584 -0.10173744 1.165238 3303850
0.13387723 -0.10244489 1.1612397 3763892
0.13703533 -0.10175346 1.1577508 3698099
-0.10918716 -0.091526285 1.1642346 3435181
-0.10328607 -0.092031457 1.1665171 3435438
0.13492092 -0.092321455 1.1618273 3829942
0.13771164 -0.091765784 1.1589167 3764149
-0.10813092 -0.081855595 1.1646488 3501229
0.13493814 -0.078961551 1.1618751 3896505
0.13928664 -0.08184161 1.1595969 3830455
-0.10752915 -0.07199356 1.1642109 3632563
-0.10325596 -0.068651631 1.1666008 3567542
0.13253789 -0.071790814 1.1593764 4027837
0.13773492 -0.075347796 1.1578324 3896505
-0.10676137 -0.061935093 1.1640269 3829940
-0.10324736 -0.061971679 1.1666248 3699127
0.1310733 -0.062179781 1.1606781 4291009
-0.10634029 -0.051792502 1.1635218 3895737
-0.10259716 -0.050998244 1.1666516 4027576
0.13136923 -0.052138761 1.1600418 4422849
-0.10516496 -0.045095105 1.1627227 4158911
-0.10063392 -0.041408576 1.1646471 4093372
0.13131575 -0.04239244 1.1595778 4817355
-0.096883073 -0.032012314 1.1641456 4093630
-0.092073172 -0.028585471 1.1665252 4094397
0.12389237 -0.031638086 1.1604851 5080014
0.12835796 -0.034838989 1.1581631 4883149
-0.094784752 -0.024396747 1.162593 4028348
-0.090246931 -0.021850199 1.1640131 4028864
0.11940463 -0.021987274 1.1601638 4949202
-0.086666182 -0.012262866 1.1642954 4029123
-0.082402259 -0.010041796 1.1664017 3963586
0.11335073 -0.012118161 1.1612076 5146069
0.11673382 -0.016517803 1.158458 5080276
-0.085884556 -0.004436262 1.1624898 5342665
-0.078681916 -0.0023101196 1.1663564 4882633
-0.0152294 0.0013808161 1.1651208 6070261
-0.0085506979 0.0013726801 1.1649894 6528744
-0.0018719975 0.0013645515 1.1648579 8827627
0.013711639 0.0013455823 1.164551 10340848
0.022456737 0.0006987527 1.1643765 8895736
0.029961422 -1.0192394e-005 1.1642263 6266608
0.10432075 0.00068219006 1.1617649 5475287
0.10876462 -0.0028351694 1.1599978 5475028
-0.075240895 0.00368388 1.16431 5999306
-0.068579808 0.0047852919 1.1641828 5540557
-0.060021732 0.0081121698 1.1633596 5803727
-0.047251593 0.0098316073 1.1657816 4950220
-0.038291898 0.0086961463 1.1656011 5016280
-0.028576557 0.0080746412 1.1650076 5411294
-0.018566467 0.0080554932 1.1629702 5806569
-0.0085470546 0.0080502182 1.1644132 7120874
0.0010528686 0.0087831765 1.164827 12379901
0.011595471 0.0082551166 1.1620908 13891069
0.021396043 0.0080069378 1.1612232 12969723
0.031367298 0.008228682 1.1619121 9946095
0.041445248 0.0079833865 1.1621157 10013177
0.051177945 0.0098529831 1.16169 7449069
0.057878654 0.011682861 1.1637189 5411552
0.10138586 0.004580155 1.1603365 6526426
-0.045266345 0.014777303 1.1657604 6264275
-0.037720989 0.015580647 1.1631143 5803990
-0.02817386 0.016204469 1.1614283 5345755
-0.018166713 0.017454088 1.1612358 5412839
-0.0085671879 0.018033706 1.1615491 5676266
0.00051428284 0.017092876 1.1637245 7253489
0.010308515 0.016906098 1.1616735 8436213
0.020264022 0.01466614 1.1604693 12051453
0.034690738 0.019086659 1.1602013 10082302
0.042528898 0.018337443 1.1600443 10607102
0.051011376 0.017481767 1.1598743 7515119
0.05807437 0.016854689 1.1610665 6068200
-0.0063479394 0.02357468 1.1610253 6001365
-0.0019107088 0.023569278 1.1609379 6396124
0.11058056 0.029201835 1.158744 6447199
-0.0054259766 -0.20866713 1.1681709 3039391
0.0021463856 -0.20810959 1.1695242 3039135
0.013561761 -0.20869026 1.1677971 3104930
-0.034451656 -0.19746044 1.1687827 2776478
-0.028037779 -0.19837113 1.1706536 2842271
-0.018095527 -0.20003054 1.1726341 2907807
-0.0088620353 -0.201903 1.1729596 2908063
0.0011758739 -0.20276894 1.1738634 2973600
0.011487471 -0.20179735 1.1731973 3105187
0.021396732 -0.20145494 1.1720836 3236773
0.03108882 -0.20012489 1.1712171 3237029
0.042035989 -0.20022409 1.171068 3171237
0.051639821 -0.20117727 1.168575 3171236
0.061149683 -0.19962716 1.1678164 3105444
0.069980174 -0.19814616 1.1667247 3171493
-0.046569545 -0.18858673 1.1722538 2841758
-0.03845815 -0.19090691 1.172886 2907551
-0.029494926 -0.19203457 1.1755296 2842271
-0.018788878 -0.19324055 1.1764913 2908064
-0.012043068 -0.19437355 1.1763544 2973857
0.0093232542 -0.19439955 1.1759337 3105444
0.022194315 -0.19341543 1.175684 3237030
0.032226853 -0.19384058 1.1746848 3302823
0.041885786 -0.19307047 1.1743743 3171495
0.051239073 -0.19167078 1.1737269 3105703
0.06094325 -0.19194049 1.1733261 3105703
0.070712179 -0.19144732 1.1712353 3105702
0.078993499 -0.18894297 1.168295 3105958
-0.057867844 -0.18086919 1.1709509 2973598
-0.049790133 -0.18261561 1.1751394 2907551
-0.039862841 -0.18449807 1.1769376 2908065
0.072571896 -0.18305595 1.1747297 3237288
0.081343859 -0.18234414 1.1721146 3302823
0.089950547 -0.18030107 1.1689678 3237287
-0.067232788 -0.1695935 1.1723862 3105183
-0.059710946 -0.17298865 1.175487 2974112
-0.051377457 -0.17520481 1.1771978 2842786
0.082892716 -0.17559323 1.1745535 3171750
0.091499716 -0.17198876 1.1730634 3172008
0.09948194 -0.17022739 1.1685784 3303081
-0.075387314 -0.15989289 1.1703908 3104930
-0.069046468 -0.16224337 1.1762587 3170978
0.094025031 -0.16365224 1.1743774 3303337
0.10175972 -0.16213372 1.1719801 3368873
0.10863918 -0.16082403 1.1686443 3237543
-0.085163862 -0.14709997 1.1726297 3040164
-0.078424543 -0.15086916 1.1736065 3105701
-0.071968496 -0.15530907 1.1776749 3302822
0.10338838 -0.15312307 1.1742311 3303597
0.11070786 -0.15068881 1.1697313 3238059
0.11775208 -0.14763318 1.167967 3303852
-0.087575167 -0.14076623 1.1738114 3106213
-0.079730526 -0.14283358 1.1778727 3172007
0.11170144 -0.14163519 1.1739088 3369387
0.11956428 -0.14139172 1.1699542 3435181
-0.094762444 -0.1305109 1.1715449 3237030
-0.088105842 -0.13120833 1.1757456 3237800
-0.081687972 -0.13467671 1.1779406 3303594
0.11353187 -0.13558923 1.1740947 3500972
0.12188156 -0.13130921 1.1706951 3500976
0.12647483 -0.12839387 1.1658642 3500977
-0.095854774 -0.12125842 1.173378 3237545
-0.09111543 -0.12294391 1.1772795 3303852
0.12374552 -0.12180466 1.1739434 3566772
0.12698823 -0.12212505 1.1698775 3566515
-0.098351464 -0.11154608 1.173601 3369389
0.12461458 -0.11227207 1.1739607 3763639
0.12788267 -0.11132281 1.1690098 3763639
-0.10515501 -0.097693346 1.1718678 3435181
-0.099724457 -0.10139915 1.1749864 3435438
0.12527144 -0.10118599 1.1739877 3895737
0.13015364 -0.10105333 1.1687145 3764149
-0.10462543 -0.091221146 1.1729476 3435438
-0.099175662 -0.091873802 1.1769004 3501231
0.12527868 -0.095562227 1.1740079 3961530
0.13056004 -0.091569513 1.1687407 3961528
0.13769589 -0.088190623 1.1657884 3895735
-0.10432035 -0.081972003 1.1735752 3501489
-0.09999612 -0.081765503 1.1763737 3501490
0.12530187 -0.077566162 1.1740723 4159679
0.13091294 -0.082232483 1.1692168 3962041
0.13769878 -0.085956357 1.1657964 3895735
-0.10479952 -0.074626453 1.1726109 3501747
-0.099935144 -0.071451791 1.1751938 3567541
0.12456039 -0.071191646 1.1741099 4225473
0.12817395 -0.071683928 1.1700362 4159424
-0.098169267 -0.061298233 1.1741288 3764919
0.12432192 -0.06231828 1.1741467 4422597
0.12818694 -0.061595429 1.1700723 4357059
-0.097667515 -0.051525686 1.1739827 3896505
-0.092826217 -0.051431227 1.1784601 3962298
0.12421064 -0.051695455 1.1741872 4685767
0.12819993 -0.051506933 1.1701084 4422851
-0.09623079 -0.042394873 1.1721585 4027836
-0.091110855 -0.040655706 1.1773741 4028094
0.12230797 -0.041091833 1.1721448 4948684
0.12810735 -0.042977545 1.1671405 4751818
-0.094555572 -0.034285318 1.1705544 4093632
-0.088865459 -0.030863397 1.1763021 4094399
0.11561619 -0.030689552 1.174432 5080784
0.11983238 -0.031744651 1.1695443 5211343
-0.085635856 -0.022419408 1.1747862 4094402
-0.079052821 -0.019373007 1.1773045 4226244
-0.072540969 -0.017713249 1.1781825 4620744
-0.018561445 -0.016654208 1.1771238 5412064
0.0039294204 -0.016681582 1.176681 6463211
0.011994729 -0.020528831 1.1765084 6397929
0.021681249 -0.019899867 1.17632 6397929
0.030916803 -0.01799988 1.1761451 6003432
0.11257543 -0.021397859 1.172025 5081042
0.11767325 -0.024489462 1.1664124 5081041
-0.077784061 -0.011544175 1.1721734 4160963
-0.069603726 -0.010636784 1.1772929 4752075
-0.054535244 -0.00761237 1.1778646 4949201
-0.047788706 -0.0081829727 1.1777297 5016022
-0.038223699 -0.0093118995 1.1768705 5213659
-0.028407142 -0.010225981 1.1761098 5411552
-0.018555466 -0.01102148 1.1763438 5740773
-0.0084333178 -0.011042766 1.1769447 6003172
0.0016785664 -0.011050604 1.1763456 6331366
0.011723753 -0.011027977 1.1735474 6989552
0.021831751 -0.011045918 1.1737484 6792432
0.031903483 -0.01104831 1.1729 5937640
0.040435389 -0.010151871 1.1749858 5806054
0.051170379 -0.0088658258 1.1757793 5674725
0.057919085 -0.0077492744 1.1756505 5674983
0.10374096 -0.010335766 1.1747392 5146841
0.10964288 -0.012384526 1.1689003 5080789
-0.074410632 -0.0030300096 1.1702707 4554184
-0.070904285 -0.0022186041 1.1732051 4751049
-0.055594776 -0.0019801408 1.1759052 4818129
-0.04816911 -0.00198403 1.1749589 5015507
-0.038697284 -0.0019696653 1.1713718 5147609
-0.028616823 -0.0019728169 1.1698732 5346018
-0.018926959 -0.002376236 1.1722926 5937898
-0.0084762685 -0.0031361952 1.1723064 6462952
0.0019616764 -0.0023979917 1.1712146 8303605
0.01131388 -0.002508752 1.170014 8501495
0.021152273 -0.0034958124 1.1690035 7252467
0.032476433 -0.0029698685 1.1696218 6069484
0.041641511 -0.0018964857 1.1703067 6135528
0.051812343 -0.0023036823 1.1732016 5741031
0.06123171 -0.0021249875 1.1746054 5543655
0.070730492 -0.00084329396 1.1754233 5477092
0.080795422 0.00047109276 1.1752299 5739747
0.09216547 0.00020729005 1.1750051 5280481
0.1013082 -0.0024158731 1.1711227 5015513
0.10674824 -0.0043862909 1.1687002 4949463
-0.067700446 0.0036646426 1.1701627 4818122
-0.058267344 0.0046461448 1.1699806 5147606
-0.049579185 0.005380325 1.1698122 4818639
-0.040894229 0.003632009 1.1696349 5344472
0.0037835222 0.0041361749 1.1687573 12971007
0.0082505057 0.003572166 1.1686674 12905215
0.032822866 0.0035422519 1.1681836 5807584
0.046225976 0.0035259351 1.1679198 6004710
0.052290522 0.0044761002 1.1678038 5807083
0.061126001 0.0069336668 1.1697725 5477863
0.06967777 0.0064787492 1.1721363 5542628
0.081548974 0.0034695119 1.1752259 5673698
0.092088982 0.0054208562 1.1735251 5804766
0.097604558 0.0034633875 1.1669081 5147865
0.064111173 0.014675528 1.1676079 5412324
-0.0052437037 -0.19731613 1.1802107 3039650
0.0012031915 -0.19796887 1.1800815 3039650
-0.025543865 -0.18939146 1.1806389 2842271
-0.018773753 -0.18939972 1.1805055 2973857
-0.0084269904 -0.19050829 1.1815614 2973857
0.0013458906 -0.19227757 1.1826259 3039395
0.011991546 -0.19035324 1.1816747 3171237
0.021284044 -0.1889438 1.1807855 3237030
0.031637833 -0.18840763 1.1810557 3302569
0.039971136 -0.18855822 1.1806859 3237546
-0.045195937 -0.17888801 1.1810635 2908065
-0.037621103 -0.17986457 1.1809109 2973857
-0.028923254 -0.18164259 1.1817335 2973857
-0.019159082 -0.18355963 1.1826522 2973858
-0.010832004 -0.18440562 1.184368 3105444
0.020868497 -0.18444422 1.1837438 3237030
0.032569434 -0.18294862 1.183519 3302825
0.041493997 -0.18250325 1.1830372 3171754
0.051315546 -0.18302746 1.1811494 3171752
0.061646253 -0.18261446 1.1803591 3171753
0.070078358 -0.1795055 1.1797925 3237546
0.078280509 -0.17710364 1.1786395 3303592
-0.056359809 -0.16941595 1.1813174 2908579
-0.048131023 -0.17160314 1.183148 2908579
-0.038282175 -0.17308837 1.183858 3105444
-0.029613622 -0.17487082 1.1847721 3105443
0.065034434 -0.175439 1.182907 3303339
0.073043048 -0.17317051 1.181424 3303082
0.081399754 -0.17106462 1.1791714 3237545
0.087318957 -0.16808614 1.1784942 3303850
-0.065372095 -0.15811935 1.1815356 3302822
-0.05872212 -0.16244106 1.1836395 3040165
-0.051566448 -0.16623804 1.1852354 3040167
0.076367706 -0.16639379 1.1827166 3303598
0.082415894 -0.16240263 1.1816705 3238061
0.090943322 -0.16034356 1.1795621 3303596
0.098615557 -0.15794279 1.1783084 3369131
-0.075137571 -0.14757419 1.1817659 3171751
-0.068690047 -0.15122022 1.1830379 3368615
-0.061741311 -0.15490191 1.1854765 3171751
0.10046794 -0.15137522 1.1797959 3369134
-0.077103093 -0.14051825 1.18183 3369130
-0.070928812 -0.14249659 1.1847019 3434922
0.10163654 -0.14171669 1.1813557 3435183
-0.078790784 -0.13192239 1.1832279 3434923
0.10440043 -0.13462561 1.1814792 3501232
0.1111517 -0.13149917 1.1807457 3435694
0.11783388 -0.12975205 1.1780318 3501232
-0.08700408 -0.12076743 1.1830964 3369646
-0.081258655 -0.1245345 1.1846367 3435182
0.11491805 -0.12227812 1.1821169 3567282
0.11898047 -0.12174062 1.1798567 3567027
-0.095397025 -0.10804973 1.1823072 3501231
-0.090763867 -0.11199591 1.1849524 3435439
0.11492826 -0.1143515 1.1821454 3829686
0.12000045 -0.11153852 1.1802775 3829431
-0.095392674 -0.10466404 1.1823194 3501231
-0.09096989 -0.1014351 1.183911 3567024
0.12232834 -0.10216279 1.1807101 3830201
-0.095374495 -0.090557002 1.1823699 3632818
-0.092107177 -0.091288611 1.1843033 3698612
0.12444612 -0.09155225 1.1800399 3896507
-0.095362142 -0.080964208 1.1824043 3633333
-0.091463104 -0.081174791 1.1851273 3764919
0.12428501 -0.081341743 1.1795797 4093886
-0.095802143 -0.07216087 1.1824447 3633334
-0.091700852 -0.0712438 1.1855679 3830201
0.12130843 -0.071715891 1.1803954 4291523
-0.091294467 -0.060936674 1.1840634 3896506
0.12082012 -0.061228476 1.1798205 4619975
-0.088001654 -0.051389813 1.1840807 4028348
0.11501139 -0.049806256 1.1823765 5146320
0.11941656 -0.052028976 1.1812816 4883148
-0.086300164 -0.041971587 1.1826524 3962814
-0.081268087 -0.040627886 1.18513 3963072
0.11400129 -0.040972322 1.180928 5146577
0.11772244 -0.042592064 1.1788485 5080527
-0.084919378 -0.03290005 1.1823721 4028607
-0.078697562 -0.031168468 1.1843896 4291526
-0.028746769 -0.029248498 1.1852803 5147865
-0.021274216 -0.02903112 1.1851341 5344731
-0.0049699359 -0.028145067 1.1848164 5345501
0.0018230267 -0.028153338 1.1846826 5739743
0.011971934 -0.030392654 1.1831411 5936862
0.021031961 -0.030413128 1.1832962 5871068
0.031257749 -0.029321536 1.184099 5739228
0.049373779 -0.028211221 1.1837465 5213656
0.1121347 -0.032087788 1.1808968 4949970
-0.076952651 -0.023711942 1.1822485 4422856
-0.068479896 -0.018966302 1.1839173 4686797
-0.058106754 -0.017851368 1.183899 4884690
-0.047684681 -0.019307762 1.1851889 4950486
-0.037248522 -0.020076543 1.1841472 5213659
-0.028718717 -0.021251783 1.182108 5279707
-0.018553331 -0.02240292 1.1823039 5345244
-0.0083896834 -0.020782679 1.1820208 5411808
0.0014624968 -0.021907747 1.1816207 5806052
0.01077513 -0.025041357 1.1805168 6068964
0.0228104 -0.025432192 1.1802785 6068963
0.03286675 -0.02306702 1.1810124 6003173
0.041341409 -0.021361992 1.1817288 5608417
0.051551711 -0.021385863 1.1821278 5411038
0.058439814 -0.021428011 1.1835924 5279709
0.10310754 -0.019722328 1.1817961 5212630
0.1087136 -0.023313627 1.1799289 5015248
-0.064809442 -0.013287507 1.182047 4949712
-0.058039319 -0.013295747 1.1819137 4949713
-0.047884155 -0.013308108 1.1817138 5016279
-0.038481709 -0.013695739 1.1815274 5213659
-0.029831976 -0.014458641 1.1813543 5345501
0.042947456 -0.013982967 1.1799235 5871590
0.05141082 -0.013428994 1.1797589 5871847
0.061708331 -0.011216052 1.1815646 5543139
0.068999581 -0.010096833 1.1817108 5280225
0.093551382 -0.01014702 1.182942 5411294
0.099360064 -0.011558466 1.1802766 5279196
0.071167886 -0.0049888045 1.1794004 5411556
0.08076106 -0.0033076331 1.1792177 5412066
0.092044577 -0.0033213645 1.1789955 5477344
0.09881179 -0.0055867434 1.1788541 5213404
0.0024535777 -0.187712 1.1880955 3105189
-0.01788291 -0.17922524 1.1895266 3039906
-0.0081780553 -0.18137309 1.1897564 3039908
0.0013907123 -0.18255264 1.191469 3105447
0.011948124 -0.18177946 1.1886801 3105702
0.021017015 -0.18053876 1.1877559 3171750
0.030002035 -0.18013653 1.1875805 3237289
0.041467391 -0.17829129 1.1873615 3237548
0.051691115 -0.17830375 1.1871603 3171752
0.060778875 -0.17831481 1.1869813 3171752
-0.04553441 -0.16773248 1.1891121 3039909
-0.037669733 -0.16847649 1.1898437 3105701
-0.029485658 -0.17114221 1.1913298 3105443
-0.019866448 -0.17655286 1.1925758 3040163
0.01090874 -0.17567834 1.1919732 3105960
0.022307958 -0.17457755 1.1917528 3105958
0.031390294 -0.17307431 1.1907792 3237545
0.041766431 -0.17202203 1.1894839 3237547
0.051798128 -0.17171952 1.1887821 3237544
0.061862402 -0.17150484 1.1886691 3237545
0.070495896 -0.16952351 1.1874886 3303339
-0.056768361 -0.15828846 1.1893673 3172009
-0.048304092 -0.16147164 1.1915896 3105961
-0.038941219 -0.16370472 1.1929976 3171752
0.045115598 -0.16523205 1.1913376 3303337
0.051954269 -0.16524038 1.1912029 3303593
0.062050704 -0.16427553 1.1910076 3303594
0.071235299 -0.16166747 1.189586 3303596
0.078004114 -0.16015682 1.1867077 3238062
-0.064141199 -0.14975812 1.1895431 3434409
-0.058347385 -0.15153825 1.1922468 3237547
-0.049989667 -0.1539236 1.1932503 3237805
0.072231025 -0.15437177 1.190843 3238318
0.0815081 -0.1514461 1.1895508 3238572
0.091597721 -0.15123791 1.1876726 3434926
0.098074391 -0.15063731 1.186347 3369134
-0.066445827 -0.14072761 1.1908522 3435179
-0.060460124 -0.14275369 1.1930522 3369388
0.086174041 -0.14476214 1.1906033 3500977
0.091779739 -0.14122635 1.1895055 3435186
0.097177714 -0.14124376 1.1863985 3500720
-0.074950591 -0.12997389 1.1908275 3566511
-0.069220096 -0.13286589 1.1923712 3566767
-0.061985377 -0.13546181 1.1935531 3500977
0.093263164 -0.1335969 1.1900039 3501234
0.10109983 -0.13115481 1.1871079 3501490
-0.084546208 -0.11678394 1.1900638 3566770
-0.077741772 -0.12138493 1.1925137 3632306
-0.071091875 -0.12633076 1.1937653 3632563
0.10294862 -0.12249942 1.1889414 3699127
0.11035107 -0.12121368 1.1866822 3633076
-0.085727662 -0.11119754 1.1911074 3566770
-0.079665765 -0.11211427 1.1939853 3763892
0.10388097 -0.11343387 1.1903677 3633335
0.11051172 -0.11123876 1.1878002 3764407
-0.085811049 -0.10112356 1.1929457 3698868
-0.081444874 -0.10174498 1.1940577 3699126
0.1044663 -0.10146464 1.1903993 3962811
0.11098178 -0.10155682 1.1891038 3830969
0.11864972 -0.10177398 1.1861182 3830714
-0.087008536 -0.091159336 1.1911279 3699126
-0.081685275 -0.091738075 1.1940986 3830712
0.11170463 -0.091619365 1.1896923 4028606
0.11979866 -0.091712035 1.186132 3962300
-0.086402848 -0.081676938 1.1918273 3830970
-0.081454828 -0.081369847 1.1941315 3962813
0.11199978 -0.082563341 1.1903193 4291522
0.11980918 -0.082147121 1.18653 4094399
-0.086689085 -0.071607992 1.1919836 3962044
-0.081768304 -0.0719238 1.1941717 4093630
0.11359209 -0.07181973 1.1900599 4554438
0.11836278 -0.072557464 1.1862293 4357059
-0.086059958 -0.061563686 1.1916263 4093886
-0.081428394 -0.060849987 1.1942049 4291009
0.11176117 -0.061270673 1.1895117 4686026
0.11772808 -0.061357167 1.1862823 4685769
-0.084465727 -0.054293912 1.1902876 4159935
-0.079405382 -0.051841743 1.1930546 4225985
0.1045309 -0.051305007 1.1905791 5015248
0.110563 -0.052577183 1.1877885 5014991
-0.076391742 -0.042024501 1.192291 4292037
-0.070986152 -0.044251371 1.1940593 4619977
-0.048181776 -0.037439175 1.193635 5279449
-0.040203337 -0.037448891 1.1934779 5016538
-0.027667239 -0.03860414 1.1932269 4950743
-0.018148884 -0.040292196 1.1930336 4950488
-0.0090528205 -0.040146798 1.192855 5147351
0.001396372 -0.039209522 1.1926527 5278422
0.011942891 -0.041533716 1.1915476 5212886
0.021276886 -0.04087935 1.190505 5278423
0.031258959 -0.040055923 1.1908116 5147094
0.04218258 -0.040480595 1.1918453 4885460
0.051655553 -0.038985468 1.1909368 4950741
0.060779851 -0.038483825 1.1914865 5016279
0.10302643 -0.041444696 1.1892439 5212370
0.11036843 -0.042601168 1.1864948 5212369
-0.074303523 -0.035059266 1.1921574 4423370
-0.072234362 -0.031865329 1.1917281 4554187
-0.047713991 -0.03241621 1.1933771 5147610
-0.037890505 -0.031692669 1.1914527 5081818
-0.028789014 -0.033978499 1.1912653 5016538
-0.017635666 -0.032555915 1.1911843 5278938
-0.0085303634 -0.03196054 1.1910073 5344730
0.0019157007 -0.032847889 1.1897316 5673948
0.012116566 -0.035096355 1.1884558 5805277
0.021204323 -0.035107419 1.1882769 5541848
0.031429514 -0.033983678 1.1880797 5475544
0.041656159 -0.031723768 1.1878865 5213397
0.052322146 -0.032362305 1.1883802 5082070
0.062045746 -0.031598523 1.1898861 5016536
0.071016952 -0.029441461 1.1913176 5213915
0.081764698 -0.028477423 1.1911095 5279453
0.092705965 -0.028946735 1.1908925 5213659
0.10210624 -0.031872235 1.1890966 5212628
0.10867837 -0.031805374 1.1865669 5146833
-0.071933463 -0.025904566 1.1901433 4554443
