# .PCD v0.7 - Point Cloud Data file format
VERSION 0.7
FIELDS x y z rgba
SIZE 4 4 4 4
TYPE F F F U
COUNT 1 1 1 1
WIDTH 174
HEIGHT 1
VIEWPOINT 0 0 0 1 0 0 0
POINTS 174
DATA ascii
0.0019573113 -0.12821645 1.1164726 5134174
0.0083936602 -0.12971964 1.1143854 5134176
0.0021440769 -0.12596312 1.1205982 4871515
-0.0089921327 -0.14172518 1.1053127 4936281
0.00096474588 -0.1440801 1.1020299 5199967
0.0057886597 -0.14462297 1.1015295 5397348
-0.01613931 -0.13738911 1.1118664 4673880
-0.0084773581 -0.13681729 1.1096942 4870232
0.00094827171 -0.13847339 1.1091244 5068382
0.010675229 -0.13986664 1.1087062 5068384
0.018593326 -0.14084741 1.1097078 4476504
-0.015112816 -0.13170308 1.1194885 4607822
-0.0080512026 -0.13131313 1.1181397 4673623
0.0027076351 -0.13288826 1.1163595 5134174
0.013150312 -0.13362843 1.1160687 4739419
0.02075799 -0.13573451 1.1156774 4081746
-0.01417684 -0.12920505 1.1276047 4410445
-0.0056191077 -0.12700242 1.1262423 4213839
0.0046517821 -0.12790921 1.1256306 4345429
0.014555063 -0.12922446 1.1242372 4016211
0.022500679 -0.13130365 1.1236546 3621193
-0.004231859 -0.12451325 1.1309193 3884109
0.0051929718 -0.1250966 1.1308113 3752784
0.015491568 -0.12628847 1.1296828 3621192
0.022544503 -0.12761211 1.1279852 3686459
-0.019549672 -0.15564713 1.1005752 4673626
-0.011509001 -0.15449272 1.0975823 4870741
-0.002628685 -0.15622199 1.0957147 5265754
0.0074199885 -0.15724184 1.0954306 5397604
0.016112952 -0.15949759 1.0983611 4608350
-0.019043181 -0.14785969 1.1066424 4673629
-0.010882549 -0.14761765 1.1034009 4870744
-0.0027367081 -0.14900306 1.1010078 5134174
0.0097237006 -0.15000936 1.101794 5397606
0.017828608 -0.15421072 1.1036291 4476760
0.024495594 -0.15491779 1.1075572 4015442
-0.024937369 -0.14714131 1.11672 3883351
-0.021239156 -0.14296913 1.1138757 4475995
0.011610543 -0.14647624 1.1070668 5068641
0.02103354 -0.1477958 1.1098889 4082513
0.026875582 -0.15181631 1.1124101 3752531
-0.020934513 -0.13708752 1.1221281 4079443
0.02434003 -0.14325348 1.117352 3621705
0.02831845 -0.14758526 1.1163127 3751503
0.023923095 -0.13819908 1.1233994 3490378
-0.011370284 -0.17565328 1.0890266 5002588
-0.0082101421 -0.17601901 1.0886804 5528419
-0.020467149 -0.16992968 1.0985358 4739163
-0.013590794 -0.16952851 1.0938357 5002333
-0.0042533251 -0.17070903 1.0925149 5397092
0.0050819684 -0.17199826 1.0939358 5332066
0.011133993 -0.17358692 1.095073 4740695
-0.021024745 -0.16330196 1.0996315 4082256
-0.014245497 -0.16310543 1.0970345 5068120
0.0083646774 -0.16722652 1.0959778 5200736
0.016876373 -0.16845843 1.0990415 4345175
0.024061959 -0.17037047 1.1010557 4278096
0.021107452 -0.16144213 1.1054324 4147028
0.025596131 -0.16578956 1.106464 3819087
0.026716258 -0.15896028 1.1112374 3687502
-0.0065918984 -0.19170311 1.0831546 5528423
-0.0022564204 -0.19194281 1.0831571 5397348
-0.015341333 -0.18216254 1.0885552 4804702
-0.0059768911 -0.18283513 1.0870719 5462626
0.0032830322 -0.18586856 1.087851 5003105
0.01176022 -0.18594363 1.0905159 4804440
-0.022951465 -0.17755908 1.0989487 3817824
-0.01742333 -0.17649473 1.0931236 4673622
-0.0015803939 -0.17832826 1.0913875 5660265
0.005949758 -0.17844284 1.0919417 5069150
0.015197251 -0.17990659 1.0943738 4475986
0.021215143 -0.17851603 1.097518 4014924
0.019031823 -0.17551005 1.0986123 4606547
0.025035866 -0.17546175 1.1003494 3620428
-0.014421638 -0.20028812 1.081284 4079956
-0.0079360921 -0.19950387 1.0786134 5266270
-0.0021942807 -0.20196687 1.0794637 5002845
-0.016242558 -0.19531286 1.0860043 4079963
-0.0090151578 -0.19565031 1.0819592 5330781
0.0016327705 -0.19725302 1.0835453 5002331
0.0058650412 -0.19337887 1.0876068 5001816
0.010356955 -0.19356892 1.0902131 4540755
0.015852137 -0.18980549 1.0951312 4213074
-0.010658576 -0.21648338 1.0771254 5265766
-0.011127856 -0.21173257 1.0797895 5068639
-0.0022588288 -0.2115334 1.0800601 4214103
-0.018013768 -0.20334941 1.0836661 1580089
0.0031528333 -0.20549597 1.0832865 4145996
0.0067550912 -0.20251173 1.0877028 4212054
-0.017306805 -0.21886978 1.0783461 3618132
-0.012049104 -0.22001253 1.0767963 5199718
-0.0053782915 -0.22025029 1.077039 4214875
-0.016653385 -0.26218581 1.0327708 528927
-0.011695865 -0.26308456 1.0316353 1517876
-0.0146333 -0.27813721 1.02888 4419983
-0.028451642 -0.27145484 1.0354954 1651559
-0.022803877 -0.2689648 1.0340647 1782104
-0.011120378 -0.26968241 1.0295553 4154236
-0.0057035689 -0.27201974 1.033798 3028033
-0.019109307 -0.27050501 1.0423357 2369321
-0.011226863 -0.26829398 1.0396715 2040105
-0.015956838 -0.25800809 1.0571052 4146252
-0.029379498 -0.28255683 1.0359808 5077683
-0.022969052 -0.28337961 1.032356 4617364
-0.013716678 -0.28463405 1.0310075 4549258
-0.0075482209 -0.28037485 1.0338448 6582660
-0.028487045 -0.27355877 1.044145 7695014
-0.020358972 -0.27326775 1.0468866 2040625
-0.012140734 -0.27303451 1.046757 2172202
-0.0061969194 -0.27613845 1.0417025 2760198
-0.026069921 -0.29570729 1.0290002 4683677
-0.020440955 -0.29635876 1.0283834 3831442
-0.032516252 -0.29060125 1.0352739 3299734
-0.02581697 -0.2912147 1.0319157 4683420
-0.017472437 -0.29325768 1.0310057 3960460
-0.044413943 -0.34047717 0.97260624 3829135
-0.036313608 -0.34118018 0.97214592 4223637
-0.030232567 -0.34210238 0.9710815 3960467
-0.043815624 -0.33598334 0.98085678 3498881
-0.035406638 -0.33638126 0.98015118 3895695
-0.02747236 -0.3370043 0.98065221 3631246
-0.041883912 -0.32812002 0.98913932 3499128
-0.03484761 -0.3293246 0.98765707 4025235
-0.026101204 -0.33150899 0.98842764 3499655
-0.039782587 -0.32203686 0.99627608 3826560
-0.033158649 -0.32326615 0.99574769 4156303
-0.025495155 -0.32662374 0.99560833 3630985
-0.038266569 -0.32022661 1.0059726 3893387
-0.031628449 -0.31947106 1.0047848 4157333
-0.024392743 -0.32187462 1.0054158 3762828
-0.035418108 -0.31819385 1.0141283 3762325
-0.029227888 -0.31442964 1.0139846 4420507
-0.023227567 -0.31726193 1.0142871 3828877
-0.034486398 -0.31157351 1.026288 4222878
-0.02748959 -0.30998719 1.0221181 4552347
-0.021579623 -0.31345874 1.0224953 3631755
-0.034757234 -0.30275667 1.030674 3627913
-0.026375324 -0.30273938 1.0272535 4683676
-0.019253563 -0.30552763 1.0290115 3892613
-0.016974814 -0.29906815 1.0342031 3563127
-0.047739312 -0.34966463 0.96682388 3033484
-0.039776899 -0.35317928 0.96620995 2897991
-0.029684868 -0.35352463 0.96558303 3891064
-0.022199428 -0.35549289 0.96622336 2638186
-0.050287057 -0.34368715 0.97448617 666715
-0.039857909 -0.34598708 0.97135156 4813457
-0.026000734 -0.3461563 0.9724474 3499654
-0.019078337 -0.35014766 0.97354263 3561592
-0.049233753 -0.33826405 0.98447627 6722
-0.024702849 -0.3416656 0.98076308 3694979
-0.018275185 -0.34404945 0.98123246 3233144
-0.02158846 -0.33696318 0.98964858 3104639
-0.017117716 -0.34027958 0.99067986 2640231
-0.020819934 -0.33232683 0.99817604 2907007
-0.01675579 -0.33686385 0.99977964 3099492
-0.041136172 -0.32401273 1.0112693 4089741
-0.019796439 -0.32809651 1.0067327 3496061
-0.015596345 -0.33212978 1.0094708 4278874
-0.037641276 -0.32047942 1.0180628 2972810
-0.018949175 -0.3240459 1.0162954 3757171
-0.015526525 -0.32818386 1.0166692 3748927
-0.035634257 -0.31789902 1.0229689 3630740
-0.017192747 -0.31947076 1.0219734 3953004
-0.04159379 -0.36056858 0.96333253 984897
-0.030660484 -0.35994494 0.96557719 4350584
-0.016929857 -0.35044232 0.98567426 4674411
-0.01582971 -0.34848106 0.99421644 6974583
-0.015900591 -0.34307617 1.0040594 3815753
-0.04553001 -0.33177772 1.0154039 5799072
-0.013497512 -0.33605158 1.010861 5064001
-0.018313862 -0.36406016 0.98638493 7039097
-0.017767606 -0.3621901 0.99192953 7565430
-0.017138645 -0.35775149 0.99938875 8223350
-0.015952583 -0.34975404 1.0043715 9076613
