# .PCD v0.7 - Point Cloud Data file format
VERSION 0.7
FIELDS x y z rgba
SIZE 4 4 4 4
TYPE F F F U
COUNT 1 1 1 1
WIDTH 174
HEIGHT 1
VIEWPOINT 0 0 0 1 0 0 0
POINTS 174
DATA ascii
-0.032536343 -0.11502349 1.1102535 5134174
-0.026091985 -0.11620742 1.1079926 5134176
-0.032351181 -0.11269593 1.1143377 4871515
-0.043053128 -0.12929073 1.0996344 4936281
-0.033083841 -0.13115257 1.0960836 5199967
-0.028254393 -0.13143963 1.0954437 5397348
-0.050229907 -0.12524398 1.106339 4673880
-0.042679034 -0.12429081 1.1039252 4870232
-0.033197697 -0.12543942 1.1030917 5068382
-0.02342557 -0.1263067 1.1023966 5068384
-0.015439218 -0.12683754 1.1031698 4476504
-0.049291499 -0.11938609 1.1138414 4607822
-0.042305291 -0.11863372 1.1122717 4673623
-0.031533822 -0.11964864 1.1101863 5134174
-0.021079514 -0.11982277 1.1095871 4739419
-0.013382504 -0.12151688 1.1089942 4081746
-0.048253339 -0.11670785 1.1218874 4410445
-0.039874077 -0.11406437 1.1202314 4213839
-0.029591609 -0.11441946 1.1193191 4345429
-0.019676808 -0.11521526 1.1176429 4016211
-0.011649685 -0.11686722 1.1168481 3621193
-0.038487356 -0.1114268 1.1248266 3884109
-0.029052095 -0.11149688 1.1244388 3752784
-0.018741664 -0.11214358 1.1230134 3621192
-0.011680212 -0.11310822 1.1211205 3686459
-0.052964978 -0.1438437 1.0954282 4673626
-0.045092598 -0.14230169 1.0921739 4870741
-0.036190089 -0.14357442 1.0900612 5265754
-0.026113428 -0.14404912 1.0894848 5397604
-0.017226199 -0.14577895 1.0921808 4608350
-0.052707434 -0.1359417 1.1013614 4673629
-0.044672523 -0.13530812 1.0978687 4870744
-0.036537603 -0.13628621 1.0952481 5134174
-0.024022838 -0.1365983 1.0956672 5397606
-0.015648056 -0.1403206 1.0973153 4476760
-0.0088383649 -0.14059842 1.1010474 4015442
-0.058329798 -0.1353806 1.111603 3883351
-0.054952987 -0.13106014 1.1085857 4475995
-0.02217721 -0.13288146 1.1008271 5068641
-0.012616107 -0.13363856 1.1033788 4082513
-0.006489303 -0.13729247 1.1057789 3752531
-0.054727029 -0.12503602 1.1167371 4079443
-0.0093439762 -0.12880075 1.1106693 3621705
-0.0051659346 -0.13292554 1.1095728 3751503
-0.009858273 -0.12367804 1.1166513 3490378
-0.044044465 -0.16356075 1.0839312 5002588
-0.040880695 -0.16375919 1.0834938 5528419
-0.05315553 -0.15818657 1.0936289 4739163
-0.046454538 -0.15748811 1.0887151 5002333
-0.037109695 -0.15817906 1.0871266 5397092
-0.027679473 -0.15893365 1.0882802 5332066
-0.021518061 -0.16017096 1.089255 4740695
-0.054044083 -0.15158205 1.0946432 4082256
-0.04736618 -0.15105867 1.0918373 5068120
-0.024604976 -0.1539571 1.09015 5200736
-0.015951023 -0.15467243 1.0929697 4345175
-0.0086143874 -0.15615636 1.0947911 4278096
-0.011924125 -0.14733183 1.0991238 4147028
-0.0071743578 -0.15141043 1.1000818 3819087
-0.0062901489 -0.1444528 1.1047173 3687502
-0.0385671 -0.17942023 1.0781533 5528423
-0.034226846 -0.17942303 1.0780265 5397348
-0.04766364 -0.17028379 1.0836776 4804702
-0.038324654 -0.17046884 1.0819186 5462626
-0.028892789 -0.17297943 1.0824586 5003105
-0.020348793 -0.17254825 1.0848635 4804440
-0.055202946 -0.16593231 1.0942302 3817824
-0.049917489 -0.16466376 1.0882235 4673622
-0.034056339 -0.16565862 1.0860306 5660265
-0.026518136 -0.16535316 1.0863558 5069150
-0.017135864 -0.16627021 1.0885251 4475986
-0.011112725 -0.16450204 1.0914626 4014924
-0.013424596 -0.16160208 1.0925789 4606547
-0.007383287 -0.16119784 1.0941305 3620428
-0.045964826 -0.1884491 1.0766501 4079956
-0.039614573 -0.18735619 1.073771 5266270
-0.033723202 -0.18948802 1.0744814 5002845
-0.047915485 -0.18350378 1.0813498 4079963
-0.040804006 -0.18351284 1.077091 5330781
-0.030041562 -0.1845061 1.0783739 5002331
-0.025909901 -0.18034072 1.0822463 5001816
-0.021338785 -0.18024266 1.0847164 4540755
-0.015915113 -0.17610487 1.089408 4213074
-0.041441817 -0.20448107 1.0726177 5265766
-0.042092301 -0.19971983 1.0752245 5068639
-0.033243544 -0.19903277 1.0752206 4214103
-0.049310632 -0.19166227 1.0791858 1580089
-0.028078662 -0.19265699 1.0781904 4145996
-0.024516264 -0.18940863 1.0824498 4212054
-0.047909416 -0.20720619 1.0740764 3618132
-0.042645246 -0.20808573 1.0723834 5199718
-0.035967194 -0.20795524 1.0724254 4214875
-0.046229959 -0.25116426 1.0291467 528927
-0.041266479 -0.25180978 1.0278733 1517876
-0.043451965 -0.26704341 1.0254316 4419983
-0.0574141 -0.26101708 1.0323676 1651559
-0.051956952 -0.25824651 1.030728 1782104
-0.040390994 -0.25839967 1.0258744 4154236
-0.03472998 -0.26036808 1.0299832 3028033
-0.047938813 -0.25944692 1.0389041 2369321
-0.040272709 -0.25685325 1.0359675 2040105
-0.045040689 -0.24655594 1.0533839 4146252
-0.057714887 -0.27214372 1.0330449 5077683
-0.051379561 -0.27267495 1.0292382 4617364
-0.0421164 -0.2734448 1.0276258 4549258
-0.036109943 -0.26880947 1.0302099 6582660
-0.057076354 -0.26297757 1.0410442 7695014
-0.048898645 -0.26219869 1.0435312 2040625
-0.040713187 -0.26151967 1.0431467 2172202
-0.034760606 -0.26437727 1.0379591 2760198
-0.053895947 -0.28520685 1.0261611 4683677
-0.04826051 -0.28556031 1.0253819 3831442
-0.06042394 -0.28035775 1.0325531 3299734
-0.053803928 -0.28065991 1.0290009 4683420
-0.045390401 -0.28225932 1.0278662 3960460
-0.071418598 -0.3318302 0.97102183 3829135
-0.063309141 -0.33209777 0.97032422 4223637
-0.057220928 -0.33270428 0.9690879 3960467
-0.070823237 -0.32717562 0.9791829 3498881
-0.062429816 -0.32712582 0.97822624 3895695
-0.054461889 -0.32730684 0.97849339 3631246
-0.06908153 -0.31908378 0.98728555 3499128
-0.062036831 -0.31992692 0.98560661 4025235
-0.053164441 -0.32161802 0.98614132 3499655
-0.067106694 -0.31277877 0.99426413 3826560
-0.060443804 -0.31365338 0.99355143 4156303
-0.052614734 -0.31658977 0.99322724 3630985
-0.065404773 -0.31072956 1.0038819 3893387
-0.058856554 -0.30963266 1.0024805 4157333
-0.051484004 -0.31162727 1.002925 3762828
-0.062431097 -0.30841091 1.0119157 3762325
-0.056464367 -0.30431753 1.0115271 4420507
-0.050310969 -0.30681294 1.0116876 3828877
-0.061503701 -0.30155089 1.0239422 4222878
-0.05473192 -0.29965395 1.0195372 4552347
-0.04863131 -0.3027913 1.0197845 3631755
-0.062128611 -0.2926912 1.0282037 3627913
-0.05386582 -0.29227287 1.0245285 4683676
-0.0465523 -0.29463923 1.0261086 3892613
-0.044478953 -0.28798077 1.0311322 3563127
-0.074404001 -0.34127906 0.96548015 3033484
-0.066282071 -0.34436378 0.96467477 2897991
-0.056209445 -0.34416837 0.96374446 3891064
-0.048611328 -0.34571457 0.96418434 2638186
-0.077047676 -0.33532453 0.97312778 666715
-0.066605665 -0.33710325 0.96970975 4813457
-0.052733708 -0.33649838 0.97038335 3499654
-0.045572683 -0.34008765 0.97132498 3561592
-0.075997606 -0.32968879 0.98299986 6722
-0.051438048 -0.33180767 0.97858822 3694979
-0.04487785 -0.33382931 0.97889578 3233144
-0.04832413 -0.32679719 0.98730391 3104639
-0.043648999 -0.32984737 0.98824674 2640231
-0.047558509 -0.32198647 0.99573451 2907007
-0.043204997 -0.32626811 0.99727976 3099492
-0.067902878 -0.31457913 1.0093193 4089741
-0.046515204 -0.31756675 1.0041925 3496061
-0.042019971 -0.3213194 1.00686 4278874
-0.06440711 -0.31074947 1.0159497 2972810
-0.045607969 -0.31331956 1.0136639 3757171
-0.04195324 -0.31725794 1.0139937 3748927
-0.062400043 -0.30798325 1.0207535 3630740
-0.04393778 -0.30856282 1.0192173 3953004
-0.06777446 -0.3518874 0.96196365 984897
-0.056830093 -0.35063154 0.96386319 4350584
-0.043051288 -0.34006554 0.98338819 4674411
-0.041807078 -0.33790725 0.99186283 6974583
-0.041882358 -0.33235344 1.0016226 3815753
-0.0717379 -0.32250336 1.0137005 5799072
-0.03966812 -0.32509756 1.0082431 5064001
-0.043662217 -0.35372508 0.9843418 7039097
-0.043054968 -0.35173726 0.98983896 7565430
-0.042449534 -0.34714913 0.99720901 8223350
-0.041557562 -0.33901817 1.0020347 9076613
