# .PCD v0.7 - Point Cloud Data file format
VERSION 0.7
FIELDS x y z rgba
SIZE 4 4 4 4
TYPE F F F U
COUNT 1 1 1 1
WIDTH 1126
HEIGHT 1
VIEWPOINT 0 0 0 1 0 0 0
POINTS 1126
DATA ascii
-0.052085817 -0.21923733 1.1474149 4422071
-0.042737816 -0.21997353 1.1487943 2778029
-0.032993793 -0.22188778 1.148723 2513574
-0.025407184 -0.22467683 1.1486988 2315684
0.0045184083 -0.22571313 1.1483634 2120102
0.016564557 -0.22583644 1.1482214 2185635
0.02971671 -0.22487609 1.1480399 2186146
0.035181336 -0.226027 1.1480018 2316696
0.050534595 -0.2239942 1.147768 4486314
0.058074161 -0.22372489 1.1456701 5997746
0.069262132 -0.22085978 1.1463239 6063288
0.077960156 -0.21945706 1.1473287 6589614
0.086061738 -0.21975899 1.1472385 8757678
-0.068307124 -0.20726623 1.1407937 1855898
-0.061572209 -0.20976508 1.144012 2249885
-0.053863913 -0.21205607 1.1480104 2381985
-0.045747448 -0.21424885 1.1486928 3039902
0.071992643 -0.21381161 1.1472648 2841504
0.078021161 -0.21332583 1.1471806 3302564
0.087593041 -0.21120101 1.1456804 4420011
0.097350813 -0.21057379 1.1411653 6984117
0.10678902 -0.2079712 1.1387025 6254993
-0.079338521 -0.19661649 1.1414707 2710418
-0.071602307 -0.1998724 1.145038 2775447
-0.064867631 -0.20210201 1.1478307 2906776
0.090130687 -0.20331331 1.1463938 3171492
0.098620877 -0.20209448 1.1434612 3237285
0.10691833 -0.2010676 1.1391065 3629215
-0.08210852 -0.1895442 1.1453354 2775191
-0.073976874 -0.19305719 1.1478562 2906012
0.10068837 -0.19287547 1.1447486 3040421
0.10760777 -0.19134551 1.1412412 3105703
0.11347622 -0.19172926 1.1382314 2777257
-0.097355492 -0.17543548 1.1403779 2710677
-0.090585642 -0.17930338 1.1439201 2709909
-0.084374644 -0.18291491 1.1464037 2709910
0.10888594 -0.18289477 1.1446029 3368100
0.11643338 -0.18124358 1.1400777 3302561
-0.098481163 -0.16880602 1.1433443 2710421
-0.093675584 -0.17160787 1.1474442 2644886
0.1110388 -0.17512067 1.1458642 3040936
0.1190869 -0.17215526 1.1436083 3237031
0.12548511 -0.16939077 1.1405506 3368615
-0.10803561 -0.1557537 1.1400332 2776209
-0.10259154 -0.16017501 1.1448257 2841240
0.12122901 -0.16364256 1.1454655 3237287
0.12764531 -0.16160652 1.1401945 3302822
-0.10891539 -0.14898431 1.144416 2710683
-0.10421912 -0.15225637 1.1472391 2841499
0.13002244 -0.15315384 1.1425182 3237541
0.13497537 -0.1505823 1.1385835 3237798
-0.11095159 -0.14039506 1.1448437 2907293
0.1318256 -0.14434563 1.1448739 3237797
0.13652417 -0.14197181 1.1397583 3303334
-0.1171909 -0.12873323 1.1406369 2907805
-0.11493553 -0.13024582 1.1467055 2907805
0.13848852 -0.13256918 1.142065 3434407
-0.117579 -0.11938734 1.1419412 3039392
-0.11490804 -0.12046797 1.1472703 3039391
0.14052577 -0.12302265 1.1416839 3500202
0.14463994 -0.12028261 1.136138 3631274
-0.12061475 -0.1101457 1.1436228 3170979
0.14260538 -0.11272754 1.1435391 3631791
0.14593364 -0.11233246 1.1377096 3566510
-0.12090169 -0.099766664 1.1445581 3105957
0.14187898 -0.10163812 1.1420585 3632305
0.1470343 -0.10293243 1.1360254 3501227
-0.1212109 -0.089795284 1.1420355 3237546
0.14150116 -0.092586398 1.1409662 3698099
0.14605348 -0.093134686 1.1358683 3698094
-0.12048797 -0.08005096 1.1420306 3434923
0.14283626 -0.083315127 1.1412729 3895479
0.14498617 -0.085490681 1.1352972 3895477
-0.11999753 -0.069586113 1.1423923 3566256
0.14322358 -0.071986884 1.1423296 4027579
0.14568289 -0.071516864 1.138954 4157882
-0.11892331 -0.060707543 1.1414093 3567024
0.1412728 -0.062443633 1.1416136 4159422
0.14554715 -0.062741011 1.1371441 4289724
-0.11653741 -0.050950333 1.138949 3567791
-0.11335084 -0.048920572 1.1441971 3764403
0.13964513 -0.052427772 1.1399016 4356797
-0.11159404 -0.040152378 1.1378676 3830196
0.1370668 -0.042843368 1.1387684 4619718
-0.10998458 -0.029213399 1.1399237 3896507
0.13310054 -0.030900948 1.1390181 4817095
0.13758318 -0.031601802 1.1357576 4948420
-0.11748773 -0.019938692 1.1408823 6916535
-0.11000833 -0.020552851 1.1404992 5210049
0.13234307 -0.024452381 1.1409841 5013440
0.13677953 -0.024137139 1.1385888 5998788
0.032716893 0.050525501 1.136236 5859448
0.040892135 0.050474316 1.134281 6122362
0.04648884 0.050618052 1.1372112 6319482
0.057660609 0.051866725 1.1410482 5330522
0.033324674 0.054928645 1.1345985 5792108
0.041151483 0.055680618 1.1339526 5527648
0.04653227 0.054982275 1.1371057 5067354
-0.019291308 -0.22755942 1.1516955 4354997
-0.011918764 -0.22861379 1.1536328 4684224
-0.0020369841 -0.22845609 1.1520429 4289976
0.0089575863 -0.22628023 1.1513246 2054307
0.019382756 -0.22693586 1.1512148 2777510
0.024861641 -0.22808978 1.1511766 4026798
0.041331057 -0.22825836 1.1509824 5604271
0.045190305 -0.22665112 1.1508973 4881326
-0.038167361 -0.21701518 1.1516691 3039902
-0.030221682 -0.21800208 1.1520975 2710943
-0.02173895 -0.21992974 1.154847 2645152
-0.011849743 -0.22280724 1.1581607 2514339
-0.0019148188 -0.22281821 1.1575078 2514851
0.0080087287 -0.2204518 1.1557976 2842787
0.017871089 -0.2201823 1.1534715 2908579
0.027551439 -0.21987472 1.1538366 3039651
0.037751142 -0.22065517 1.1548442 2908578
0.047106128 -0.21988529 1.1544629 2778020
0.057125807 -0.21838284 1.1519839 2646433
0.066656992 -0.22119872 1.1505077 5012145
0.07817284 -0.22259739 1.1504027 8955830
-0.05111029 -0.20845851 1.1519051 2841242
-0.041264165 -0.21058214 1.153886 2775960
-0.032245766 -0.21190269 1.1557431 2841500
-0.022815518 -0.21408068 1.1594167 2907551
0.0088850874 -0.21366821 1.1590251 3105184
0.018101916 -0.21339408 1.1589075 3170722
0.028052131 -0.21349593 1.1587901 3302053
0.038192105 -0.21304701 1.1586573 3170723
0.048704281 -0.21223339 1.1585112 3105188
0.058022778 -0.21157688 1.1566683 3170467
0.067584075 -0.21155906 1.1526656 3236258
0.077739418 -0.20826884 1.1505079 3171236
-0.067615688 -0.19695276 1.1515412 2906776
-0.061094105 -0.19922771 1.1526607 2907033
-0.052610271 -0.20021023 1.1562741 2841497
-0.043357681 -0.20428985 1.1594285 2775704
0.05908535 -0.20607543 1.1582381 3105443
0.067929983 -0.20616597 1.1581337 3105443
0.078745581 -0.20259023 1.156654 3105956
0.087097399 -0.19989093 1.1529504 3105956
-0.078486063 -0.18586317 1.1514055 2644884
-0.071416803 -0.18943059 1.1544071 2775705
-0.063042864 -0.19232374 1.1570436 2841497
0.082412519 -0.19525973 1.1576971 3172006
0.090081334 -0.19298074 1.1565496 3040421
0.095937245 -0.19075173 1.1539246 2974628
-0.087182365 -0.17699149 1.1512967 2645144
-0.080520935 -0.17875364 1.1543189 2710425
-0.075227082 -0.18149215 1.1558342 2776216
0.099493518 -0.18214428 1.1539249 3171493
0.10445639 -0.1800411 1.1506634 3237026
-0.090109982 -0.16888332 1.1537262 2710424
-0.083715484 -0.17106208 1.1576602 2710937
0.10251094 -0.17556739 1.1569816 3302823
0.10884433 -0.17162418 1.1536515 3172005
0.11466082 -0.1685641 1.1526654 3172006
-0.098700963 -0.15747854 1.1509662 2841498
-0.094272271 -0.15992489 1.1558965 2907290
0.11146557 -0.16460454 1.1566101 3303592
0.11773087 -0.16131948 1.1551219 3237544
0.12384468 -0.15719499 1.1482799 3303337
-0.10036121 -0.14896457 1.1524963 2973342
-0.09572608 -0.15198189 1.1588011 3038879
0.12144753 -0.15357946 1.1555579 3237544
0.12578359 -0.15070471 1.1509016 3303336
-0.10827997 -0.13735034 1.1515979 2973342
-0.10219243 -0.14046781 1.1561011 2973600
0.12929787 -0.14158824 1.1518404 3368872
-0.10976364 -0.12944132 1.152779 3039392
-0.1042757 -0.13018021 1.1583798 3236259
0.13071366 -0.13212247 1.1533464 3500460
0.13509737 -0.12986436 1.1474872 3434923
-0.1107613 -0.11977746 1.1530946 3170978
0.13185525 -0.12318498 1.1540347 3500719
0.1365342 -0.12081354 1.1505868 3500718
-0.11724803 -0.10861815 1.1500145 3237029
-0.11337711 -0.10988294 1.1560005 3237286
0.13699348 -0.11189637 1.1531398 3697329
-0.11716063 -0.099836379 1.1498022 3237543
-0.11450729 -0.099247187 1.1572589 3172263
0.1382962 -0.10281263 1.1524001 3697843
-0.11733146 -0.090127312 1.1525719 3303340
-0.11518565 -0.088956334 1.1575197 3303852
0.1381792 -0.09235847 1.1525503 3764149
-0.11733365 -0.080439575 1.1493379 3500716
-0.11450651 -0.078908965 1.15727 3501229
0.14120694 -0.081989676 1.1508354 3764661
-0.11688754 -0.072393373 1.1491389 3566512
-0.11363013 -0.068900019 1.153381 3632306
0.13832596 -0.071756519 1.1505232 3896764
-0.11293276 -0.059288681 1.1531414 3698357
0.13246804 -0.061605372 1.1525464 4291265
0.1362233 -0.062945805 1.1470076 4225217
-0.11123663 -0.050309137 1.1525413 3764408
0.133338 -0.052029517 1.1516387 4554434
0.13587296 -0.051926225 1.1456035 4488640
-0.10816506 -0.039611477 1.1530473 3895997
-0.10397406 -0.036378011 1.1561203 4027323
0.13304177 -0.041255374 1.1503829 4817354
-0.10656897 -0.030179873 1.1493334 3962044
-0.10251039 -0.028874703 1.1551219 4093118
0.12387428 -0.028761297 1.1531938 5014224
0.12919219 -0.031643964 1.1491977 4751563
-0.10538359 -0.019815184 1.1477361 4290235
-0.10044658 -0.019628026 1.1522071 4158908
-0.094201721 -0.01731693 1.1555443 4028609
0.12225921 -0.021750972 1.1512663 4817874
0.12888253 -0.021660104 1.1459602 5145287
-0.098022282 -0.013057977 1.1498858 4487616
-0.092564665 -0.010348223 1.1540232 4356800
0.11352793 -0.0091550648 1.1508462 5276623
0.11979409 -0.012320183 1.1471312 5604813
0.12916812 -0.013666943 1.1456535 6720449
-0.090377137 -0.0033537224 1.1551625 5671109
0.11174139 -0.0035381392 1.1521617 5802961
0.11805125 -0.0044704378 1.1480114 6787017
0.035834912 0.013041541 1.1532485 12972031
-0.019337133 0.023468912 1.1516614 5869264
0.013048606 0.019538991 1.1533667 7515376
0.020538311 0.019093826 1.1532872 8764660
0.030140169 0.018553384 1.1531845 10146554
0.036763377 0.017453827 1.1531312 10870005
-0.07704787 0.032224745 1.1461434 8028800
-0.07192041 0.03253822 1.1460742 7305855
-0.014911744 0.024615481 1.1535811 5671370
-0.011595006 0.024581529 1.153542 5869265
0.011622163 0.024343878 1.1532682 6988787
0.016044481 0.024298608 1.1532161 7185904
0.10236768 0.032258585 1.1519854 6314850
-0.070650689 0.037526444 1.1459389 8028802
0.099307254 0.035827354 1.1519364 6117979
0.07535933 0.046400279 1.1439675 5593178
0.077555254 0.046377793 1.1439416 5658970
-0.017322313 -0.21700525 1.1634223 2973083
-0.011786408 -0.21817118 1.1633837 2973595
-0.0023462055 -0.21782151 1.1639286 2973598
-0.037180938 -0.20570941 1.1633898 2842012
-0.030815747 -0.20716116 1.1633481 2776219
-0.021481898 -0.20969976 1.1648211 2907806
-0.011882017 -0.21113752 1.1663748 2907807
-0.0013281563 -0.21178177 1.1664387 2973599
0.0075425729 -0.20959821 1.1636118 3039136
0.018302945 -0.20870234 1.1641276 3170723
0.028273623 -0.20870116 1.1633406 3236770
0.038068134 -0.20835689 1.1625475 3170979
0.047116041 -0.20823619 1.1624357 3170980
0.053788926 -0.2066406 1.1623169 3171236
-0.048186522 -0.19672269 1.1633062 2842012
-0.041483194 -0.19902122 1.1647358 2842011
-0.031880379 -0.20135359 1.1656836 2842012
-0.023589138 -0.20285043 1.1671588 2907805
0.022873014 -0.20471737 1.1666443 3302309
0.028882276 -0.20365004 1.165403 3302308
0.037519801 -0.20365016 1.1639414 3171236
0.04826406 -0.20436552 1.1623287 3171236
0.058922675 -0.20306119 1.1638362 3105443
0.068755321 -0.20125559 1.1630076 3171492
0.075310692 -0.19946584 1.1618853 3040420
-0.069154531 -0.18541548 1.1632867 2841497
-0.060400218 -0.18824077 1.1637828 2907291
-0.051972844 -0.19094457 1.1650958 2907549
-0.045284968 -0.19214696 1.1671627 2907551
0.07196445 -0.1940892 1.1657977 3040420
0.078975968 -0.19236571 1.1637764 3106213
0.086796798 -0.1898959 1.1615169 3106214
-0.070569314 -0.17886743 1.1651469 2907290
-0.063993566 -0.18177721 1.1666383 2973340
0.083185032 -0.18529953 1.1654512 3302823
0.089224853 -0.18303497 1.1629232 3237030
0.095400244 -0.1796879 1.1629462 3237031
-0.087815464 -0.16525781 1.1630267 2841497
-0.079447359 -0.1688095 1.1635448 2842012
-0.073320605 -0.17104827 1.1659924 2907547
0.10065125 -0.17207956 1.161845 3368361
0.10575629 -0.16890314 1.1607838 3237285
-0.089235783 -0.15932724 1.1629012 2973085
-0.082424991 -0.15955558 1.1655624 3039135
0.10302144 -0.16499275 1.1607226 3368615
0.1095872 -0.1617128 1.1612922 3237799
0.11418156 -0.15845144 1.1604309 3303337
-0.096502945 -0.14631149 1.1626756 2973857
-0.091090903 -0.1498585 1.1642518 3039137
-0.085137673 -0.15074107 1.1666467 3104930
0.11166602 -0.15420502 1.1623598 3172264
0.11790099 -0.15141118 1.1608838 3238059
-0.097600579 -0.13807568 1.1634911 3039650
-0.093619592 -0.14163841 1.1665299 3105700
0.12125427 -0.1416682 1.1620967 3369132
0.12544098 -0.14192782 1.159898 3434410
-0.10026279 -0.12947002 1.1640308 3171236
0.12323919 -0.1335429 1.1629241 3500719
0.12661958 -0.13130291 1.161629 3435183
-0.10730986 -0.11736016 1.1621095 3302823
-0.10264672 -0.11932261 1.1647681 3171495
0.12747972 -0.12122097 1.1611943 3566514
-0.10895307 -0.10867485 1.1633755 3368873
-0.10526481 -0.1098467 1.1651052 3368875
0.13027433 -0.11208316 1.1599224 3697588
-0.10975228 -0.099573217 1.1643788 3303850
0.13196896 -0.10243949 1.1622995 3763892
0.1351594 -0.10187216 1.1588178 3698099
-0.11100714 -0.08938285 1.1630818 3435181
-0.10512823 -0.089874312 1.1654236 3435438
0.13309605 -0.092312843 1.1626141 3829942
0.13591358 -0.091862008 1.1597111 3764149
-0.10987013 -0.07971368 1.1632357 3501229
0.13322894 -0.078957401 1.1622913 3896505
0.1375695 -0.081936456 1.1601281 3830455
-0.10917939 -0.069873095 1.162529 3632563
-0.10489565 -0.066502303 1.1648587 3567542
0.13091019 -0.071838871 1.1595757 4027837
0.13608773 -0.075481325 1.1581719 3896505
-0.10832287 -0.059830502 1.1620719 3829940
-0.1048292 -0.059824575 1.1646974 3699127
0.12951928 -0.06218328 1.1605988 4291009
-0.10780986 -0.049709823 1.1612889 3895737
-0.10408391 -0.048860546 1.1644247 4027576
0.12990727 -0.052166715 1.1596863 4422849
-0.10657036 -0.043047447 1.1603135 4158911
-0.10202223 -0.039347328 1.1621704 4093372
0.129942 -0.042436969 1.1589518 4817355
-0.098186195 -0.030000776 1.1614377 4093630
-0.093364961 -0.026549928 1.1637591 4094397
0.12260562 -0.03159903 1.1595019 5080014
0.12706079 -0.034901008 1.1573046 4883149
-0.096010037 -0.022449389 1.159691 4028348
-0.091461197 -0.019902863 1.1610755 4028864
0.11820447 -0.021923222 1.1588776 4949202
-0.087799564 -0.010342062 1.1611197 4029123
-0.083532661 -0.008099474 1.163197 3963586
0.11222877 -0.011977948 1.1595995 5146069
0.11559434 -0.016480871 1.1569997 5080276
-0.08693625 -0.002575621 1.1591038 5342665
-0.079745054 -0.00040385127 1.1629664 4882633
-0.0162553 0.0027135536 1.162127 6070261
-0.009576113 0.0026451871 1.1620482 6528744
-0.0028969282 0.0025768131 1.1619694 8827627
0.012687837 0.0024172813 1.1617856 10340848
0.02142806 0.001691781 1.1616979 8895736
0.028927233 0.00091537833 1.1616262 6266608
0.10330636 0.00090898573 1.1597306 5475287
0.10773282 -0.0026936904 1.1580967 5475028
-0.076236606 0.0055015385 1.1607814 5999306
-0.06956543 0.0065425187 1.160676 5540557
-0.060972758 0.0097725764 1.1598281 5803727
-0.04820697 0.011450462 1.1623015 4950220
-0.03925636 0.01023455 1.1622231 5016280
-0.02954255 0.0095144808 1.1617233 5411294
-0.019517783 0.0093538612 1.1597658 5806569
-0.0095100747 0.009303838 1.1612871 7120874
9.2424452e-005 0.0099666566 1.1617557 12379901
0.010650566 0.0092733875 1.1591181 13891069
0.020454932 0.0089181438 1.1583347 12969723
0.030422203 0.0090744719 1.1590954 9946095
0.040495802 0.0087495744 1.1593848 10013177
0.05024733 0.010524079 1.1589838 7449069
0.056948047 0.012352847 1.1610138 5411552
0.10041639 0.0047904477 1.1581714 6526426
-0.046178728 0.016376659 1.1621587 6264275
-0.038606752 0.01704213 1.1595507 5803990
-0.029042009 0.017537899 1.157923 5345755
-0.019023206 0.018696852 1.1577746 5412839
-0.0094216736 0.019203603 1.158147 5676266
-0.00036554318 0.018246748 1.1604189 7253489
0.0094420267 0.017920017 1.1584508 8436213
0.019386578 0.01556316 1.1573875 12051453
0.033852775 0.019852124 1.1571101 10082302
0.041685097 0.019032449 1.1570356 10607102
0.050160874 0.01810053 1.156956 7515119
0.05720887 0.017447047 1.1582205 6068200
-0.0071504498 0.02470886 1.157487 6001365
-0.0027128952 0.024663433 1.1574347 6396124
0.1098365 0.0292795 1.1559685 6447199
-0.0083005065 -0.20724377 1.1710819 3039391
-0.00073410943 -0.20671298 1.1724786 3039135
0.010688609 -0.20743814 1.1708579 3104930
-0.03723155 -0.19577888 1.1711545 2776478
-0.030840259 -0.19669148 1.1731002 2842271
-0.020928163 -0.19837932 1.175204 2907807
-0.011714029 -0.20032017 1.1756538 2908063
-0.0016911952 -0.20124565 1.1766602 2973600
0.0086332262 -0.20038036 1.1760483 3105187
0.018553277 -0.20015302 1.1750034 3236773
0.02826287 -0.19892977 1.1741765 3237029
0.039209582 -0.19912583 1.174116 3171237
0.048823472 -0.20022932 1.171726 3171236
0.058351941 -0.19878154 1.1709993 3105444
0.067203015 -0.19740634 1.1699363 3171493
-0.049297974 -0.18670969 1.1742828 2841758
-0.041212078 -0.18908001 1.1750427 2907551
-0.03227938 -0.19020963 1.1777869 2842271
-0.021591842 -0.19147906 1.1788657 2908064
-0.014855285 -0.19267252 1.1788133 2973857
0.0065125884 -0.19289124 1.1785613 3105444
0.019393239 -0.19202355 1.1783854 3237030
0.02942902 -0.1925613 1.1774771 3302823
0.039096367 -0.19188198 1.1772213 3171495
0.048466116 -0.19058013 1.1766088 3105703
0.058170356 -0.19094309 1.1762919 3105703
0.067958832 -0.19059107 1.1742649 3105702
0.076283738 -0.18823972 1.1713214 3105958
-0.06051854 -0.17893593 1.1726775 2973598
-0.052488431 -0.18063353 1.1769761 2907551
-0.042591851 -0.1825493 1.1789038 2908065
0.06986472 -0.18212181 1.1775396 3237288
0.078662187 -0.18155736 1.1749747 3302823
0.087310009 -0.17967561 1.1718401 3237287
-0.069795832 -0.16754574 1.1737257 3105183
-0.062327594 -0.17091694 1.1769786 2974112
-0.054026939 -0.17315517 1.1788156 2842786
0.080251023 -0.17475459 1.1772374 3171750
0.088900112 -0.171266 1.1757154 3172008
0.096931256 -0.16969776 1.1712462 3303081
-0.077850357 -0.15783565 1.1713979 3104930
-0.071575016 -0.16007563 1.1773784 3170978
0.091487676 -0.16291785 1.1768174 3303337
0.099253289 -0.16153219 1.1744398 3368873
0.10616907 -0.16037415 1.1711229 3237543
-0.087532163 -0.14490303 1.1732042 3040164
-0.080833465 -0.14870057 1.1743381 3105701
-0.074447401 -0.15308011 1.1785786 3302822
0.10094298 -0.15247653 1.1764525 3303597
0.10831738 -0.1502305 1.1719444 3238059
0.11540109 -0.14728492 1.1701514 3303852
-0.089897275 -0.13851866 1.1741908 3106213
-0.082102031 -0.14053863 1.1783692 3172007
0.10935774 -0.14107291 1.1758769 3369387
0.11725228 -0.14100617 1.1719788 3435181
-0.096977726 -0.12826982 1.1715841 3237030
-0.090359606 -0.12890652 1.1758547 3237800
-0.083989009 -0.13236675 1.1781954 3303594
0.11123915 -0.13503985 1.1759092 3500972
0.11965134 -0.13092695 1.1724578 3500976
0.12430642 -0.12818614 1.1675841 3500977
-0.098003574 -0.11896101 1.173151 3237545
-0.093308866 -0.12057742 1.1771349 3303852
0.12157301 -0.12135185 1.1754556 3566772
0.12484369 -0.12181269 1.1714258 3566515
-0.1004174 -0.10922543 1.173085 3369389
0.1225247 -0.11183017 1.1752151 3763639
0.12583853 -0.11104673 1.1702657 3763639
-0.10708695 -0.095369123 1.1709146 3435181
-0.1017127 -0.099032626 1.1741773 3435438
0.12327763 -0.1007536 1.1749398 3895737
0.1282008 -0.10080905 1.1697034 3764149
-0.10650942 -0.088874117 1.1718185 3435438
-0.10109577 -0.089462712 1.1758305 3501231
0.12333357 -0.09513171 1.1748039 3961530
0.12868935 -0.091331951 1.1694696 3961528
0.13587658 -0.088097073 1.1664808 3895735
-0.10612876 -0.079614013 1.1721915 3501489
-0.10182436 -0.079366378 1.1750171 3501490
0.1235126 -0.077141665 1.174369 4159679
0.12911972 -0.081988618 1.1696891 3962041
0.1358988 -0.08586356 1.1664268 3895735
-0.10653677 -0.072294332 1.17102 3501747
-0.1016648 -0.069090374 1.1735519 3567541
0.12282626 -0.070762515 1.1742239 4225473
0.1264663 -0.071398526 1.1701938 4159424
-0.099802718 -0.058985695 1.1722195 3764919
0.12266461 -0.061889861 1.1740124 4422597
0.12656666 -0.061313398 1.1699501 4357059
-0.099214986 -0.049225599 1.1718062 3896505
-0.094407275 -0.049047653 1.1763171 3962298
0.12264533 -0.05126946 1.1737573 4685767
0.12666702 -0.051228274 1.1697063 4422851
-0.097685143 -0.040161569 1.1697406 4027836
-0.092590153 -0.038321424 1.174946 4028094
0.12085044 -0.040711015 1.1714065 4948684
0.12667115 -0.042784274 1.1665022 4751818
-0.095927387 -0.032114252 1.1679252 4093632
-0.090251677 -0.028582096 1.1736203 4094399
0.11423206 -0.030192807 1.1733518 5080784
0.11847603 -0.031419151 1.1685283 5211343
-0.08693739 -0.02021122 1.171896 4094402
-0.080347501 -0.017151825 1.1743804 4226244
-0.073828369 -0.015523531 1.1752632 4620744
-0.019835178 -0.014951721 1.1745993 5412064
0.0026573185 -0.015181951 1.174334 6463211
0.010689979 -0.019100703 1.1743315 6397929
0.020382751 -0.018559329 1.1742018 6397929
0.029635526 -0.01674325 1.1740468 6003432
0.11129055 -0.020946242 1.1706638 5081042
0.1164039 -0.024235852 1.1651794 5081041
-0.078971773 -0.0094797984 1.1690441 4160963
-0.070823058 -0.0084996819 1.1742005 4752075
-0.055733666 -0.0055883154 1.1748064 4949201
-0.048991516 -0.0062195808 1.1747404 5016022
-0.03943041 -0.0074529722 1.173988 5213659
-0.029616658 -0.0084709898 1.1733301 5411552
-0.019774329 -0.00934311 1.1736634 5740773
-0.0096576167 -0.0094334409 1.1743441 6003172
0.00045808498 -0.0095436126 1.1738248 6331366
0.010524102 -0.0096839443 1.171106 6989552
0.020629738 -0.009781912 1.1713868 6792432
0.030707233 -0.0098932385 1.1706179 5937640
0.039230481 -0.0090114474 1.172745 5806054
0.049969885 -0.0077948272 1.1735867 5674725
0.056728821 -0.0067395121 1.17348 5674983
0.10253211 -0.0097384751 1.1730007 5146841
0.10846028 -0.011998795 1.1672673 5080789
-0.0755101 -0.001050733 1.1669325 4554184
-0.072019286 -0.00018776208 1.1698707 4751049
-0.056729272 -3.9860606e-006 1.1726834 4818129
-0.049296938 -9.7103417e-005 1.1717957 5015507
-0.039798319 -0.00026278943 1.1682842 5147609
-0.029707145 -0.00039302558 1.1668653 5346018
-0.020039849 -0.00081107765 1.169371 5937898
-0.0095965648 -0.0016588718 1.169488 6462952
0.00085540675 -0.0010397956 1.1684581 8303605
0.010215164 -0.0012631342 1.1673346 8501495
0.02005202 -0.0023612455 1.166429 7252467
0.031375282 -0.0019142553 1.1671214 6069484
0.040543862 -0.00089993328 1.1678481 6135528
0.050688438 -0.001312606 1.170833 5741031
0.060098041 -0.001174733 1.1723052 5543655
0.069601096 4.8682094e-005 1.1731617 5477092
0.079678252 0.0012718588 1.1730111 5739747
0.091046952 0.00090558082 1.172883 5280481
0.10019583 -0.0019019246 1.1691467 5015513
0.10563685 -0.0039849803 1.1668227 4949463
-0.068741389 0.0055812374 1.1666914 4818122
-0.059299 0.0064773336 1.1665562 5147606
-0.050603762 0.0071329102 1.1664357 4818639
-0.041933227 0.0053068176 1.1663753 5344472
0.002752604 0.00540784 1.1658349 12971007
0.0072150733 0.0048037171 1.1657957 12905215
0.031789217 0.0045521706 1.1655059 5807584
0.0451933 0.0044149607 1.1653478 6004710
0.051266577 0.0053101182 1.1652532 5807083
0.060107831 0.00774654 1.1672221 5477863
0.06863708 0.0072851181 1.1696647 5542628
0.080457829 0.0042625144 1.1729298 5673698
0.091027021 0.0060764179 1.1712583 5804766
0.096575603 0.0038890019 1.1647418 5147865
0.063176535 0.015399635 1.164867 5412324
-0.0081112972 -0.19556418 1.182803 3039650
-0.0016695196 -0.19627486 1.1827426 3039650
-0.028344516 -0.18745899 1.1828518 2842271
-0.021573912 -0.1875283 1.1827719 2973857
-0.011245511 -0.18869469 1.1839392 2973857
-0.0014967574 -0.1905164 1.1851292 3039395
0.0091721471 -0.18870956 1.1842085 3171237
0.018483037 -0.18740416 1.1833537 3237030
0.028838735 -0.18694842 1.18369 3302569
0.037172992 -0.18717986 1.18339 3237546
-0.047907263 -0.17678165 1.1828305 2908065
-0.040340256 -0.17782623 1.1827645 2973857
-0.031664699 -0.1796543 1.1837044 2973857
-0.021924827 -0.18162769 1.1847526 2973858
-0.013618716 -0.18249616 1.1865565 3105444
0.018084085 -0.18282068 1.1861826 3237030
0.029798947 -0.1814311 1.1860081 3302825
0.03873045 -0.18107493 1.1855842 3171754
0.04856116 -0.18173465 1.1837889 3171752
0.058900788 -0.18143132 1.1830686 3171753
0.06736365 -0.17841087 1.1824821 3237546
0.075594895 -0.17611161 1.1813275 3303592
-0.058990031 -0.16721195 1.1827338 2908579
-0.050794728 -0.16941701 1.1846888 2908579
-0.040964853 -0.17096528 1.1855172 3105444
-0.032319322 -0.17279501 1.1865484 3105443
0.062331673 -0.17421672 1.1854429 3303339
0.070370756 -0.1720583 1.1839604 3303082
0.078762345 -0.17008679 1.1817161 3237545
0.084712178 -0.16717854 1.1810029 3303850
-0.067905247 -0.15583768 1.1825676 3302822
-0.061309285 -0.16015539 1.1848428 3040165
-0.054199211 -0.163967 1.1865995 3040167
0.073744215 -0.16527666 1.1850905 3303598
0.07983464 -0.16136754 1.1839817 3238061
0.088395447 -0.15944023 1.1818839 3303596
0.096097566 -0.15714036 1.1806244 3369131
-0.077580206 -0.14520785 1.1824285 3171751
-0.071174495 -0.1488716 1.1838517 3368615
-0.064276762 -0.15254276 1.1864461 3171751
0.097995557 -0.15054989 1.1819435 3369134
-0.079484798 -0.13813645 1.1822814 3369130
-0.073349968 -0.14008638 1.1852554 3434922
0.099236116 -0.14086196 1.1832438 3435183
-0.081108324 -0.12949106 1.1834267 3434923
0.10206047 -0.13379386 1.1831923 3501232
0.10884403 -0.13074633 1.1824253 3435694
0.11556161 -0.12913206 1.1797165 3501232
-0.089223176 -0.11827488 1.1829213 3369646
-0.083522588 -0.12204619 1.1846106 3435182
0.1126798 -0.12152295 1.1835696 3567282
0.11676383 -0.12108298 1.1813272 3567027
-0.09749908 -0.10551341 1.1817137 3501231
-0.092920639 -0.10942359 1.1845036 3435439
0.11275867 -0.11359899 1.1833781 3829686
0.11786918 -0.11088213 1.1814728 3829431
-0.097465403 -0.10212885 1.1816319 3501231
-0.093026981 -0.098894469 1.1831679 3567024
0.12027505 -0.10151805 1.1816633 3830201
-0.097325064 -0.088026524 1.181291 3632818
-0.094079025 -0.088731728 1.1832696 3698612
0.12249 -0.090948582 1.1807154 3896507
-0.097229637 -0.078436941 1.1810592 3633333
-0.093353413 -0.078604721 1.1838176 3764919
0.12242108 -0.080753833 1.179971 4093886
-0.097593449 -0.069632471 1.1808519 3633334
-0.093508229 -0.068663657 1.1839806 3830201
0.11952212 -0.071084142 1.1804957 4291523
-0.093000881 -0.058406182 1.1821939 3896506
0.11912932 -0.06061301 1.1796262 4619975
-0.089625478 -0.048890784 1.181972 4028348
0.11340074 -0.049075309 1.1818186 5146320
0.11779465 -0.051364873 1.1808205 4883148
-0.0878314 -0.03953068 1.1802963 3962814
-0.082806848 -0.038161259 1.1827751 3963072
0.11247849 -0.040276848 1.1801176 5146577
0.11620115 -0.041985281 1.1781132 5080527
-0.086369783 -0.030482478 1.1797752 4028607
-0.080148689 -0.028748229 1.1817927 4291526
-0.030191328 -0.027227491 1.183022 5147865
-0.022716273 -0.027077578 1.1829284 5344731
-0.0064029684 -0.026338883 1.1827142 5345501
0.00039048959 -0.026408419 1.1826341 5739743
0.010531 -0.028775655 1.1812352 5936862
0.019589065 -0.028868571 1.1814618 5871068
0.02981754 -0.027841747 1.1823143 5739228
0.047944695 -0.026895195 1.1820732 5213656
0.11068944 -0.031381123 1.1798252 4949970
-0.07832282 -0.021369196 1.1794592 4422856
-0.069822095 -0.016650923 1.1810622 4686797
-0.059439823 -0.015624858 1.1810944 4884690
-0.049040914 -0.01713305 1.1825061 4950486
-0.038604207 -0.018018901 1.181568 5213659
-0.030069657 -0.019322641 1.1796293 5279707
-0.019916441 -0.020553969 1.1799369 5345244
-0.0097372429 -0.019028395 1.1796887 5411808
0.00010755006 -0.020247586 1.1793973 5806052
0.009400744 -0.023489483 1.178454 6068964
0.021433629 -0.023988754 1.1783212 6068963
0.03150427 -0.021689363 1.1790681 6003173
0.039987717 -0.020036928 1.1798034 5608417
0.050194096 -0.020136192 1.1802831 5411038
0.057070222 -0.020195946 1.1818023 5279709
0.10176345 -0.018919393 1.1803101 5212630
0.10735217 -0.022608623 1.1785873 5015248
-0.066088319 -0.011057645 1.1790639 4949712
-0.059317715 -0.01112695 1.1789842 4949713
-0.049161807 -0.011230908 1.1788644 5016279
-0.039761931 -0.01170323 1.1787626 5213659
-0.031118087 -0.012543909 1.1786786 5345501
0.041671503 -0.012724862 1.1778066 5871590
0.050140373 -0.012247391 1.1776932 5871847
0.060442671 -0.01007241 1.1795175 5543139
0.067742042 -0.0090113729 1.17969 5280225
0.0922824 -0.0092353001 1.1811148 5411294
0.09809871 -0.010769501 1.1785353 5279196
0.069972165 -0.0039881393 1.1772557 5411556
0.079580702 -0.0023940429 1.1771017 5412066
0.090865046 -0.0025095567 1.1769687 5477344
0.097613186 -0.0048352331 1.1769434 5213404
-0.00039112195 -0.18581 1.1904784 3105189
-0.020663418 -0.17711473 1.1915138 3039906
-0.010979624 -0.1793375 1.1918793 3039908
-0.001434776 -0.18054998 1.193699 3105447
0.0091498774 -0.17994414 1.1909728 3105702
0.018235978 -0.17880651 1.1900858 3171750
0.027225228 -0.17848547 1.1899698 3237289
0.038707517 -0.17674424 1.1897897 3237548
0.048931986 -0.1768489 1.1896691 3171752
0.058020405 -0.17694193 1.1895618 3171752
-0.048210077 -0.16540408 1.1905634 3039909
-0.040357962 -0.16619405 1.191377 3105701
-0.032208901 -0.16888663 1.1930009 3105443
-0.022646822 -0.17434186 1.194472 3040163
0.0081384946 -0.17374519 1.194087 3105960
0.019548194 -0.17274758 1.1939256 3105958
0.028650396 -0.17134902 1.1929821 3237545
0.039044842 -0.17042112 1.1917396 3237547
0.04908384 -0.17022325 1.1911085 3237544
0.059150174 -0.17009708 1.1910685 3237545
0.067809284 -0.16822258 1.1899012 3303339
-0.059363179 -0.15586178 1.1904682 3172009
-0.050944045 -0.1590535 1.1928445 3105961
-0.041611917 -0.1613258 1.1943873 3171752
0.042438656 -0.16361082 1.1934303 3303337
0.049277827 -0.16368082 1.1933496 3303593
0.059383456 -0.16280738 1.193207 3303594
0.068600915 -0.16031778 1.1917857 3303596
0.075404316 -0.15894517 1.1889198 3238062
-0.066662751 -0.14726768 1.1903495 3434409
-0.060905382 -0.14902094 1.1931468 3237547
-0.052576579 -0.15144818 1.1942818 3237805
0.069650382 -0.15299864 1.1928475 3238318
0.078962095 -0.15018876 1.1915474 3238572
0.089067146 -0.15011837 1.1897435 3434926
0.095558695 -0.14960977 1.1884526 3369134
-0.068898745 -0.13818505 1.1913891 3435179
-0.062947795 -0.1401998 1.1936915 3369388
0.083677784 -0.14351787 1.1924506 3500977
0.08932218 -0.1400616 1.1912992 3435186
0.094743289 -0.14021116 1.1882365 3500720
-0.07730934 -0.12736452 1.1909994 3566511
-0.071616106 -0.1302609 1.1926677 3566767
-0.064413421 -0.13288414 1.1939778 3500977
0.090867996 -0.13243407 1.1915973 3501234
0.098747395 -0.13013998 1.1886963 3501490
-0.086783901 -0.11412009 1.1897945 3566770
-0.080038548 -0.11870864 1.1924245 3632306
-0.073441587 -0.1236739 1.1938651 3632563
0.10065731 -0.12145291 1.1903033 3699127
0.10808761 -0.12029328 1.1880676 3633076
-0.087924704 -0.10849701 1.1906734 3566770
-0.081893079 -0.10938466 1.1936232 3763892
0.10165748 -0.11235941 1.1914848 3633335
0.10832641 -0.11029283 1.1889095 3764407
-0.087934546 -0.098375447 1.1922307 3698868
-0.083582543 -0.099002659 1.1933938 3699126
0.1023465 -0.10039934 1.1911889 3962811
0.10887062 -0.1005827 1.1899477 3830969
0.11655889 -0.1009478 1.1870296 3830714
-0.08903157 -0.088455856 1.1901278 3699126
-0.083736308 -0.08899682 1.1931551 3830712
0.10967527 -0.090639219 1.1902658 4028606
0.11779506 -0.09089946 1.1867731 3962300
-0.088348866 -0.078963146 1.1905684 3830970
-0.083416052 -0.078634009 1.192902 3962813
0.11004429 -0.081572078 1.1906434 4291522
0.11788563 -0.081327602 1.1869055 4094399
-0.088548802 -0.068891682 1.190443 3962044
-0.08364775 -0.069188192 1.1926776 4093630
0.1117318 -0.070853718 1.1900986 4554438
0.11652494 -0.071738116 1.1863276 4357059
-0.087829731 -0.058866896 1.1898122 4093886
-0.083211921 -0.058121014 1.1924062 4291009
0.10999683 -0.060308862 1.1892434 4686026
0.11598717 -0.060535703 1.1860646 4685769
-0.086162262 -0.051650941 1.1882848 4159935
-0.081102028 -0.049165718 1.1910223 4225985
0.10284549 -0.050256465 1.189977 5015248
0.10888738 -0.051656831 1.1872704 5014991
-0.077997468 -0.039399404 1.1900102 4292037
-0.072625071 -0.041621938 1.191882 4619977
-0.049759805 -0.035017636 1.1914479 5279449
-0.041780777 -0.035099309 1.1913538 5016538
-0.029253647 -0.036367267 1.1912334 4950743
-0.019749124 -0.038140632 1.1911616 4950488
-0.01065104 -0.038077328 1.1910506 5147351
-0.000192862 -0.037234608 1.1909044 5278422
0.010341174 -0.039677911 1.1899471 5212886
0.019688167 -0.039131906 1.1889601 5278423
0.029674392 -0.03838487 1.189322 5147094
0.040585723 -0.038873162 1.1904528 4885460
0.050077971 -0.037484195 1.1895776 4950741
0.059201837 -0.037044782 1.1901847 5016279
0.10143695 -0.040424716 1.188357 5212370
0.10878933 -0.041719377 1.1856987 5212369
-0.075847887 -0.032458521 1.1896998 4423370
-0.073747836 -0.029295392 1.1891983 4554187
-0.049246438 -0.030007929 1.1910545 5147610
-0.039402679 -0.029421449 1.1891879 5081818
-0.030320223 -0.03178864 1.1891354 5016538
-0.019154646 -0.03046342 1.1891025 5278938
-0.010043436 -0.029950365 1.1889806 5344730
0.00040393509 -0.03096132 1.187812 5673948
0.010594299 -0.033330753 1.1866792 5805277
0.019682715 -0.033423785 1.1865721 5541848
0.029918488 -0.032392628 1.186424 5475544
0.040165555 -0.030225694 1.1862485 5213397
0.05082152 -0.030940592 1.1868436 5082070
0.06053964 -0.030217633 1.1884038 5016536
0.069518097 -0.028097682 1.1898453 5213915
0.080275081 -0.027230896 1.189695 5279453
0.091213197 -0.027798742 1.189577 5213659
0.1006011 -0.030852601 1.1879368 5212628
0.10719263 -0.030911811 1.1854581 5146833
-0.073383123 -0.023383796 1.1874511 4554443
-0.048144691 -0.02182468 1.1871097 5016281
-0.040882993 -0.02280774 1.1870459 5147611
-0.009764214 -0.024035014 1.1867008 5411294
0.061094902 -0.020216681 1.1857558 5148123
0.069818787 -0.020305723 1.185853 5213915
0.079869926 -0.020601153 1.1872787 5213917
0.090632759 -0.020631567 1.1877269 5213659
0.098596372 -0.022493295 1.1856925 5212887
0.091457441 -0.013711967 1.1852338 5279708
0.096001647 -0.013758481 1.1851803 5411037
-0.016961392 -0.17502192 1.1994216 3106213
-0.011238278 -0.17508049 1.1993542 3105959
3.7917867e-005 -0.17584991 1.199237 3105706
0.010509545 -0.1753031 1.1990978 3105960
-0.02776698 -0.16804437 1.199384 3105700
-0.020341769 -0.16935244 1.2000763 3105957
-0.011180029 -0.16944623 1.1999683 3106216
-0.00086159166 -0.16965222 1.2006993 3106217
0.0097820219 -0.16925007 1.20039 3171752
0.017679872 -0.16884506 1.1999474 3303337
0.028914608 -0.1663356 1.1986605 3369130
0.035782337 -0.1664059 1.1985794 3369132
-0.040252421 -0.1566982 1.199595 3171753
-0.030574098 -0.15915476 1.201925 3171752
-0.020260267 -0.15949337 1.2038897 3172010
-0.011077349 -0.16084421 1.204762 3172012
-0.0010266909 -0.16051295 1.2054288 3237802
0.0096407253 -0.15993309 1.2047408 3303338
0.01884592 -0.16005066 1.2048328 3369133
0.029141499 -0.15996242 1.2029861 3369388
0.039270684 -0.15974653 1.2021682 3303853
0.048542604 -0.15871419 1.1999915 3369643
0.058639146 -0.1580478 1.1983386 3303851
-0.057871707 -0.14484647 1.1991886 3303598
-0.049770825 -0.14771667 1.2008749 3303341
-0.041183341 -0.14946663 1.2042435 3303340
-0.031819429 -0.15093744 1.2070243 3369132
-0.023667753 -0.15290615 1.2069736 3303600
0.0097472202 -0.15324819 1.2065794 3303598
0.022421867 -0.15337792 1.20643 3435186
0.029911429 -0.1534546 1.2063416 3369391
0.03970547 -0.15355486 1.2062261 3369392
0.049539067 -0.15075475 1.2054248 3369390
0.059074357 -0.14986472 1.2017027 3435184
0.0684302 -0.14842831 1.197754 3369392
-0.058744684 -0.13781606 1.1998303 3369646
-0.051579505 -0.14010087 1.2046007 3303853
-0.044316374 -0.14347795 1.2069954 3173034
0.051568374 -0.14261606 1.2058202 3566773
0.059758421 -0.14140587 1.2050256 3566516
0.069552369 -0.13969021 1.2019321 3500977
0.079429299 -0.1405057 1.199116 3500975
-0.068802193 -0.12576878 1.1988614 3632562
-0.059919149 -0.12886602 1.20183 3501236
-0.052352801 -0.12901834 1.2062998 3501494
0.071912289 -0.13055441 1.2052852 3698612
0.079446465 -0.13102393 1.2028413 3567283
0.088299483 -0.12873419 1.1999756 3567283
0.095712662 -0.12581782 1.1968819 3501747
-0.075900972 -0.11604972 1.1987131 3895478
-0.07031446 -0.11858827 1.2012079 3698613
-0.061386004 -0.11954127 1.2052914 3633080
0.073418491 -0.12394522 1.2051082 3699128
0.080009162 -0.12082224 1.2049537 3830713
0.089478493 -0.1205589 1.203633 3699126
0.096234292 -0.11941402 1.1967216 3633333
-0.077129409 -0.10802573 1.198535 3961271
-0.070327491 -0.10843843 1.2034649 3896247
-0.063583478 -0.11102179 1.2064468 3764921
0.079971932 -0.11387378 1.204787 3962300
0.090853363 -0.11148442 1.2041278 3896506
0.098346829 -0.10979403 1.1984656 3764920
-0.078381136 -0.098660812 1.1998254 3830712
-0.071456723 -0.098187268 1.2048992 4093627
0.093931794 -0.10065226 1.204301 4028352
0.099266805 -0.1002256 1.1988913 3962812
-0.078672513 -0.088331759 1.2000806 3962556
-0.07218124 -0.089403011 1.2055858 4028606
0.093508556 -0.090246066 1.2040558 4357317
0.099869817 -0.090594523 1.1999862 4225985
0.10525683 -0.087002933 1.1958334 4225985
-0.078091271 -0.079331152 1.1998572 4028606
-0.073256224 -0.079431906 1.2058036 4094655
0.094115213 -0.082220465 1.2038555 4554695
0.099916436 -0.08023075 1.1991361 4554182
0.10610341 -0.078618683 1.1956216 4619462
-0.078686126 -0.068711028 1.198079 4159424
-0.070626698 -0.067658521 1.2042576 4160448
-0.064288631 -0.066082478 1.2053746 4554440
0.094709083 -0.068862125 1.2035271 4620747
0.10024314 -0.069989562 1.2012368 4686026
0.1065609 -0.070993453 1.1954328 4619977
-0.077975638 -0.05906821 1.1973678 4291265
-0.069849886 -0.059036069 1.2025211 4357573
-0.064219855 -0.059170552 1.2052076 4751563
0.0099343676 -0.057241365 1.2042683 4818903
0.017623613 -0.056552008 1.2041591 4819160
0.092950337 -0.060318545 1.2033428 4752590
0.10033229 -0.060790773 1.2010145 4817869
0.10549597 -0.062971145 1.1952527 4752076
-0.075892918 -0.04950602 1.1971128 4291778
-0.069850489 -0.048780836 1.2006029 4554440
-0.064139605 -0.051106639 1.2050127 4883149
-0.045529164 -0.044321198 1.200624 5674209
-0.039787006 -0.044379976 1.2005563 5082331
-0.028430235 -0.047289807 1.2023568 4950745
-0.019158829 -0.04917977 1.1998231 4884953
-0.0099744583 -0.049269475 1.1995146 4753366
0.00037877541 -0.04824996 1.2005658 4884692
0.010938523 -0.050000794 1.1996361 4884692
0.019712768 -0.049352616 1.20017 4884692
0.029950567 -0.04820789 1.2024763 4950484
0.040857643 -0.049312536 1.2005931 4950488
0.049651008 -0.049118657 1.2014765 4950489
0.060284007 -0.047754966 1.2023669 5411037
0.069280945 -0.047575913 1.2033213 5542623
0.083415955 -0.045704424 1.2031062 5213404
0.091164917 -0.048664011 1.2030841 5081558
0.099421538 -0.051046543 1.200641 5015248
-0.070556246 -0.039096758 1.1967982 4685772
-0.048314013 -0.038834266 1.1976154 5542365
-0.039345916 -0.039105151 1.1975659 4951002
-0.030605908 -0.040248875 1.1963449 4884951
-0.021363504 -0.042216282 1.196281 4753366
-0.0076166494 -0.041212514 1.1960913 4950484
0.001251325 -0.041589405 1.1959935 5015763
0.031289123 -0.04275525 1.19566 5015764
0.038156852 -0.04282555 1.1955789 4885461
0.050103392 -0.041966848 1.1954144 4884950
0.060924415 -0.040969644 1.1971071 5082072
0.070346639 -0.03985608 1.1999217 5542624
0.079943165 -0.041053887 1.2022358 5279197
0.090072639 -0.039976772 1.1992871 5213144
0.097303271 -0.042667992 1.1948631 5212627
0.064574271 -0.033940062 1.1950473 5016538
0.07031446 -0.032282084 1.1949382 5213917
0.079877652 -0.029900253 1.1947658 5345245
0.090211928 -0.032299221 1.195366 5213917
0.18147103 -0.035187095 1.2016727 13158081
-0.011007403 -0.1557689 1.2108915 3303598
0.0017091399 -0.15589906 1.2107414 3303850
-0.039340407 -0.14484446 1.2109698 3303853
-0.029582597 -0.14653146 1.2112502 3304111
-0.020013157 -0.1487056 1.212936 3303857
-0.010931532 -0.14910766 1.2134813 3303856
-0.00050153863 -0.14923979 1.213609 3369903
0.0098819993 -0.14789131 1.2104505 3435441
0.018938782 -0.1488966 1.2103657 3435187
0.029422004 -0.14836654 1.2102267 3500978
0.039939288 -0.14819899 1.210096 3369649
0.046660475 -0.14664952 1.2099779 3435441
-0.047435455 -0.13728669 1.2108855 3370159
-0.040892169 -0.13812429 1.2108269 3370416
-0.030513249 -0.13843895 1.2129604 3436469
-0.02010987 -0.13880177 1.2155948 3502005
-0.010823383 -0.13889682 1.2154852 3501749
-0.00041073188 -0.14248544 1.2154462 3501493
0.010046949 -0.1389907 1.2139858 3567542
0.019350149 -0.13917576 1.2148161 3567541
0.029748727 -0.13916986 1.2135028 3633333
0.040071871 -0.13903752 1.2108119 3567541
0.0486634 -0.13841859 1.2097558 3633079
0.058721185 -0.13633673 1.2095846 3632566
-0.047736451 -0.1288069 1.2106853 3501750
-0.040853113 -0.12908775 1.21311 3567798
-0.032431886 -0.1296581 1.2155232 3633848
-0.01889132 -0.13301088 1.2154409 3633591
-0.011926449 -0.13308218 1.2153587 3699128
0.010140508 -0.13214739 1.2150706 3830714
0.020587806 -0.13225433 1.2149473 3764921
0.030094802 -0.13140199 1.2148124 3830712
0.040654577 -0.13060431 1.2143087 3830713
0.049363397 -0.13040087 1.2138894 3830458
0.059670191 -0.13028772 1.211797 3764409
0.067787267 -0.12887935 1.2098519 3764407
-0.05664552 -0.11785013 1.210529 3698874
-0.050010636 -0.1185479 1.2127167 3764923
-0.041426759 -0.11926176 1.2153815 3765435
-0.035050273 -0.12356007 1.2154081 3699641
0.058588475 -0.12451858 1.2143037 3896252
0.068729147 -0.12021808 1.2114583 3831226
0.076064363 -0.11967095 1.208975 3830458
-0.059182309 -0.10836226 1.2111211 3896508
-0.049990676 -0.10831837 1.2152214 4028352
-0.042104095 -0.10909551 1.2151452 4094143
0.07008709 -0.11035115 1.2102519 4159936
0.079405583 -0.10922487 1.2086836 4028352
0.087453745 -0.10793942 1.2085557 3962559
-0.067090251 -0.098555051 1.2101908 4093628
-0.060179867 -0.098671935 1.2108606 4028352
-0.049888104 -0.099015988 1.2146839 4094401
-0.043149415 -0.097478062 1.2148784 4225986
0.071670614 -0.10114148 1.21222 4357317
0.079941675 -0.10022781 1.2112743 4225732
0.088747539 -0.099919066 1.2083473 4159938
-0.067984208 -0.088803202 1.209967 4028609
-0.05978924 -0.088926688 1.2112354 3963330
-0.050412968 -0.088992238 1.2147617 4160708
-0.044024937 -0.092129998 1.2147603 4292035
0.074435517 -0.087539218 1.2132237 4620236
0.079843029 -0.09035901 1.2118371 4488649
0.088265464 -0.091164753 1.2081425 4357318
-0.069038391 -0.078554317 1.2097332 4160449
-0.060394943 -0.078730918 1.2133304 4160708
-0.051090308 -0.078825988 1.2145255 4489161
0.081048168 -0.081089333 1.2119172 4555212
0.089292169 -0.080042928 1.2078627 4620489
-0.16104741 -0.068879314 1.2156101 14082013
-0.067588747 -0.071193323 1.2095387 4226242
-0.059433073 -0.06892743 1.211887 4620234
-0.052287318 -0.066897482 1.2142529 5079759
-0.01823302 -0.066859171 1.213842 6791922
-0.010095798 -0.065781794 1.2137182 5608162
0.0003515007 -0.06588874 1.213595 5016279
0.01043519 -0.068057321 1.2121615 5608413
0.018918701 -0.066659138 1.21339 4950485
0.025889341 -0.066150151 1.2132938 5016277
0.083895236 -0.070225939 1.2126935 4752847
0.089759119 -0.070375174 1.2093899 4620747
-0.06003619 -0.060050808 1.2101802 4948687
-0.049540259 -0.063056685 1.2141275 5408980
-0.027969386 -0.060191672 1.2118752 6134248
-0.0193129 -0.059818327 1.2111849 5344990
-0.010376363 -0.060085688 1.2114409 4884696
0.00079147425 -0.06024139 1.2113943 4818902
0.011202438 -0.06167369 1.2083611 4818646
0.020349655 -0.060666628 1.2089413 4818646
0.030474786 -0.060305625 1.2098469 4884696
0.040565703 -0.059914023 1.2097517 5344733
0.049811352 -0.059998255 1.2092851 5936870
0.059573647 -0.059509784 1.2118949 5608416
0.068685718 -0.058695644 1.2125993 5082072
0.081440158 -0.059672974 1.2094681 5016278
0.08774443 -0.061301284 1.2074306 4884178
-0.028492056 -0.053869519 1.2086514 5082331
0.0004091803 -0.05416536 1.2083106 4687574
0.023530174 -0.054402035 1.2080379 4687574
0.031463943 -0.053822722 1.2079284 4819159
0.038558818 -0.054555871 1.2078606 4950233
0.051275365 -0.05468604 1.2077106 5542369
0.060022742 -0.053491235 1.2075766 5805540
0.072889462 -0.051439546 1.2073723 5213659
0.08021111 -0.051514495 1.207286 5147866
0.089054994 -0.053531546 1.2072281 5081557
-0.00032101758 -0.13821165 1.2193438 3633335
-0.027743064 -0.12734474 1.2194126 3699641
-0.020224199 -0.12787008 1.2193346 3765177
-0.010490217 -0.12810467 1.2208707 3830714
-0.00019672979 -0.12913643 1.2220051 3962299
0.010288203 -0.12672915 1.2196068 4028092
0.019093486 -0.12762037 1.2191411 3962300
0.028615206 -0.12734509 1.2194616 3962299
0.038204581 -0.12610516 1.2208118 3962299
0.050590817 -0.1252248 1.2184185 3896509
0.060378257 -0.12485918 1.2182918 3830714
-0.037380293 -0.11687161 1.2192767 3962813
-0.03081765 -0.11862537 1.2210183 3962813
-0.019850686 -0.1198995 1.22314 4028350
-0.010630614 -0.12211803 1.2230823 4093886
-0.0036200406 -0.1221898 1.2229997 4093886
0.010435984 -0.11882882 1.2227496 4291263
0.019783417 -0.1189245 1.2226393 4291265
0.029130846 -0.11902018 1.2225292 4291265
0.039646707 -0.11912782 1.2224051 4225471
0.05002927 -0.11904362 1.2197771 4159424
0.059271567 -0.11902545 1.2181648 4028351
-0.038452215 -0.10754478 1.2190653 4159681
-0.032899462 -0.10928277 1.2219504 4159937
0.010517357 -0.1106516 1.2225519 4685507
0.020107776 -0.10981515 1.2224164 4685766
0.028987834 -0.10990604 1.2223116 4685768
0.041011184 -0.11011408 1.2221719 4685254
0.050241847 -0.10987218 1.2218049 4553924
0.059378475 -0.10972702 1.2181901 4357059
0.065210551 -0.10744142 1.2178148 4291524
-0.039349966 -0.099596895 1.2192185 4291267
-0.033521432 -0.098703094 1.2219945 4291525
0.021102967 -0.10375021 1.2222586 5080013
0.028113542 -0.10382198 1.2221758 5013964
0.043349616 -0.099304773 1.2218838 5014215
0.050360195 -0.099376537 1.2218012 4948424
0.059658688 -0.099421352 1.2208899 4686025
0.067263715 -0.098937616 1.2191862 4554696
-0.046395991 -0.086502776 1.218655 4423366
-0.040865265 -0.08867237 1.2205079 4489158
-0.034865379 -0.091494389 1.2226377 4554697
0.043454237 -0.088791221 1.2216297 6725605
0.050696176 -0.089099005 1.2215499 5541334
0.059812244 -0.088958666 1.2214367 4949456
0.069764592 -0.09025649 1.2198238 4752076
-0.047467917 -0.07717593 1.2184435 4751821
-0.041714985 -0.07851515 1.2210742 4817612
-0.016007766 -0.075331345 1.2220219 6133729
-0.013670909 -0.075355262 1.2219944 5804510
0.01085835 -0.076385215 1.2217238 6726116
0.019045103 -0.07569015 1.2216085 6791913
0.031897821 -0.07582172 1.221457 5673696
0.040565122 -0.07902588 1.2214297 5344728
0.051726244 -0.079529561 1.2213074 5475805
0.059905246 -0.079613283 1.221211 5147095
0.07033547 -0.079669066 1.2198863 4949712
0.078910731 -0.07672286 1.2169111 4621777
0.18729889 -0.077412441 1.2196242 11781308
-0.049739212 -0.071330279 1.2183303 4883150
-0.040791161 -0.069481067 1.2181782 6001884
-0.029905926 -0.068039849 1.2180125 6133474
-0.018292129 -0.071015373 1.2195448 6067939
-0.01044402 -0.070398502 1.2189261 6594284
0.00059204083 -0.069241121 1.2187654 6002915
0.011512833 -0.072655953 1.2176248 6857704
0.020559365 -0.070717096 1.2181361 6397928
0.029775228 -0.070118815 1.2192112 6397674
0.038817659 -0.070386253 1.2196423 6002659
0.050827816 -0.070216753 1.2200272 5476060
0.059893906 -0.070207715 1.2192342 5213402
0.070446119 -0.0715122 1.2200888 5081814
0.08049567 -0.070625201 1.217361 4818898
0.19026935 -0.072477609 1.2194698 12896707
0.043511476 -0.064133435 1.2170346 6331369
0.052828442 -0.064228803 1.2169247 5805025
0.059816156 -0.064300328 1.2168422 5213658
0.070825644 -0.063377947 1.2166874 5213658
0.079158127 -0.063566737 1.2165917 5082070
-0.026973031 -0.1153058 1.2281171 4160192
-0.020173203 -0.11584462 1.2280482 4159936
-0.010571719 -0.11781979 1.2279801 4225472
0.00037027989 -0.11871383 1.2278699 4225471
-0.027483758 -0.10767572 1.2279397 4160194
-0.019863859 -0.10834025 1.227864 4291265
-0.010478337 -0.10843632 1.2277533 4422851
0.00010085851 -0.10867037 1.2295523 4685254
0.010674104 -0.10513369 1.2274191 4882628
0.016540056 -0.10519373 1.22735 4817092
0.032964721 -0.10536186 1.2271563 4948684
0.038214896 -0.10834824 1.2271649 4816582
-0.028164726 -0.097502306 1.2277033 4291525
-0.019759327 -0.097797811 1.2278593 4422855
-0.010366072 -0.097994491 1.2295015 4619977
0.00022541452 -0.098198503 1.2309794 4883149
0.010744138 -0.098096095 1.2272491 5146063
0.02012966 -0.09819217 1.2271384 5211603
0.029515184 -0.098288238 1.2270278 5145806
0.037727512 -0.098372303 1.2269309 5014214
-0.035839118 -0.086592562 1.2275333 4555210
-0.029050954 -0.088304326 1.2274928 4686540
-0.020010784 -0.088988751 1.2291152 4883407
-0.010280755 -0.089877546 1.231306 5014738
0.000312238 -0.089985982 1.231181 5541336
0.010862581 -0.088775992 1.228274 5672923
0.020229194 -0.088821292 1.227162 5935587
0.029608561 -0.088904776 1.2268009 6132702
0.037820891 -0.088988841 1.2267041 7120103
0.047241431 -0.085566118 1.2265084 8699647
-0.036031734 -0.082367606 1.227434 4818381
-0.028992593 -0.082439661 1.2273511 4752589
