# .PCD v0.7 - Point Cloud Data file format
VERSION 0.7
FIELDS x y z rgba
SIZE 4 4 4 4
TYPE F F F U
COUNT 1 1 1 1
WIDTH 174
HEIGHT 1
VIEWPOINT 0 0 0 1 0 0 0
POINTS 174
DATA ascii
-0.053990062 -0.1057523 1.0909461 5134174
-0.047609918 -0.10675071 1.0884283 5134176
-0.053721327 -0.10325751 1.0949256 4871515
-0.064339571 -0.12086692 1.081388 4936281
-0.054470718 -0.12244385 1.0774409 5199967
-0.049667686 -0.12255074 1.0765836 5397348
-0.07137394 -0.11686399 1.0882676 4673880
-0.063991271 -0.11568803 1.0854634 4870232
-0.054516498 -0.11646502 1.0842245 5068382
-0.044757649 -0.11694324 1.0830994 5068384
-0.036728591 -0.11710279 1.0835118 4476504
-0.070353366 -0.11067617 1.0954891 4607822
-0.063486643 -0.1096909 1.0935618 4673623
-0.052787639 -0.11032964 1.091007 5134174
-0.042374335 -0.11008307 1.0899189 4739419
-0.034645051 -0.11147085 1.0890257 4081746
-0.069067389 -0.10763658 1.1033692 4410445
-0.060898226 -0.10470766 1.1012179 4213839
-0.05066273 -0.10466158 1.0998322 4345429
-0.040809624 -0.10510162 1.0977181 4016211
-0.032762017 -0.10644136 1.0966061 3621193
-0.059420701 -0.10183187 1.1056385 3884109
-0.050019298 -0.10151629 1.1048057 3752784
-0.039766483 -0.10178065 1.1029177 3621192
-0.032763362 -0.10251919 1.1007293 3686459
-0.073778883 -0.13598461 1.0782131 4673626
-0.066139974 -0.13424076 1.0745323 4870741
-0.057295959 -0.1352174 1.0720487 5265754
-0.04724516 -0.13528605 1.0710126 5397604
-0.038175803 -0.13652734 1.0733472 4608350
-0.073600292 -0.12784785 1.0838231 4673629
-0.065769844 -0.1270135 1.0799309 4870744
-0.057728179 -0.12774897 1.0769658 5134174
-0.045205832 -0.12751181 1.0768014 5397606
-0.036607578 -0.13080588 1.0781898 4476760
-0.029628428 -0.13064452 1.0816021 4015442
-0.078766853 -0.1271171 1.0942916 3883351
-0.075726666 -0.12278114 1.0909553 4475995
-0.043292303 -0.1235165 1.081723 5068641
-0.033600181 -0.12376386 1.0838444 4082513
-0.027213905 -0.12705514 1.0860877 3752531
-0.075394727 -0.11643168 1.0988523 4079443
-0.030215118 -0.11850365 1.0907823 3621705
-0.025912981 -0.12248768 1.0896459 3751503
-0.030681368 -0.11317231 1.0965831 3490378
-0.064529285 -0.15574868 1.067062 5002588
-0.061383188 -0.1558298 1.0664827 5528419
-0.073415719 -0.1503831 1.0769706 4739163
-0.066984452 -0.14959751 1.071721 5002333
-0.057700764 -0.1499536 1.0697178 5397092
-0.048203427 -0.15025994 1.0704497 5332066
-0.041955043 -0.15119427 1.0711769 4740695
-0.074548744 -0.14378703 1.0777745 4082256
-0.068036184 -0.14309292 1.0746367 5068120
-0.045270108 -0.14508641 1.0719811 5200736
-0.036472861 -0.14531991 1.0744116 4345175
-0.02900192 -0.14641663 1.0759373 4278096
-0.032497574 -0.13757455 1.0800843 4147028
-0.027532786 -0.141406 1.0809696 3819087
-0.026746403 -0.13423724 1.0852904 3687502
-0.058624785 -0.17157939 1.0616366 5528423
-0.054299042 -0.17140277 1.0613041 5397348
-0.067854702 -0.16262424 1.0672362 4804702
-0.058607105 -0.16248235 1.0650436 5462626
-0.049058396 -0.16456617 1.0652299 5003105
-0.040440708 -0.16367638 1.0672081 4804440
-0.075088076 -0.15817863 1.077962 3817824
-0.07014481 -0.15692779 1.0716672 4673622
-0.054372292 -0.15733448 1.0687627 5660265
-0.046848066 -0.15669611 1.0687175 5069150
-0.037344843 -0.15712604 1.0704718 4475986
-0.031277735 -0.15498739 1.0730506 4014924
-0.033662304 -0.15214598 1.0741645 4606547
-0.027580112 -0.1514236 1.075411 3620428
-0.065676115 -0.18096742 1.0608305 4079956
-0.059519138 -0.17972161 1.0576135 5266270
-0.053512704 -0.18157099 1.0581236 5002845
-0.067626685 -0.17592548 1.0654265 4079963
-0.060724404 -0.17580259 1.060838 5330781
-0.049881041 -0.17628539 1.0616449 5002331
-0.045765001 -0.17179662 1.0651556 5001816
-0.041094355 -0.17140564 1.0674003 4540755
-0.035650179 -0.16685675 1.0716684 4213074
-0.060636412 -0.19694108 1.0571992 5265766
-0.061377186 -0.19211136 1.0596514 5068639
-0.052577063 -0.1910495 1.059201 4214103
-0.068756506 -0.18421592 1.0636425 1580089
-0.047569238 -0.18434629 1.0616779 4145996
-0.043962926 -0.18078169 1.0656369 4212054
-0.066903226 -0.19987814 1.0590661 3618132
-0.061688345 -0.20060013 1.0571594 5199718
-0.055027738 -0.20018433 1.056879 4214875
-0.065337211 -0.24548674 1.0158085 528927
-0.060413562 -0.24597111 1.0143261 1517876
-0.062031209 -0.26136935 1.0125712 4419983
-0.075914286 -0.25566936 1.0199288 1651559
-0.070666172 -0.2527371 1.0179279 1782104
-0.059339333 -0.2525925 1.0125395 4154236
-0.053414322 -0.25415263 1.0164465 3028033
-0.066228397 -0.2534377 1.0259434 2369321
-0.0588274 -0.25064006 1.0225495 2040105
-0.063244149 -0.23986642 1.0397695 4146252
-0.075690217 -0.2667627 1.0210416 5077683
-0.069518648 -0.267176 1.0169611 4617364
-0.060314082 -0.26761529 1.0149409 4549258
-0.054406915 -0.26262921 1.0170587 6582660
-0.075092785 -0.25726515 1.0286479 7695014
-0.066852294 -0.25604051 1.030712 2040625
-0.058731202 -0.2550301 1.0299135 2172202
-0.052901741 -0.2578373 1.0245613 2760198
-0.071615398 -0.27991658 1.014485 4683677
-0.066011459 -0.28006107 1.013453 3831442
-0.078052193 -0.27509755 1.0209913 3299734
-0.071595006 -0.27525988 1.0171425 4683420
-0.063179687 -0.27654433 1.015671 3960460
-0.089562058 -0.32941043 0.96205038 3829135
-0.081489198 -0.32936075 0.96097893 4223637
-0.075443134 -0.32975686 0.95947868 3960467
-0.088800319 -0.32441208 0.96999133 3498881
-0.080470003 -0.32404387 0.9686358 3895695
-0.072498024 -0.32387519 0.96853077 3631246
-0.087049603 -0.31593597 0.97768903 3499128
-0.080058776 -0.31654537 0.97571051 4025235
-0.071104981 -0.31783506 0.97588688 3499655
-0.08503852 -0.30927864 0.98432148 3826560
-0.078383073 -0.30989707 0.98332679 4156303
-0.07045462 -0.31250864 0.98274267 3630985
-0.082990237 -0.30677599 0.99376285 3893387
-0.076568171 -0.30545864 0.99201125 4157333
-0.069101833 -0.30711871 0.99218047 3762828
-0.079757303 -0.30401355 1.0015525 3762325
-0.074001968 -0.29968908 1.0007256 4420507
-0.067743115 -0.30191228 1.0006882 3828877
-0.078584857 -0.29664487 1.0132523 4222878
-0.072112761 -0.2946395 1.0084616 4552347
-0.065874159 -0.29750228 1.0085377 3631755
-0.079405971 -0.28765637 1.0171993 3627913
-0.071346916 -0.28703451 1.0131223 4683676
-0.063870981 -0.28902283 1.014442 3892613
-0.061866842 -0.28208667 1.0191048 3563127
-0.092376456 -0.3391917 0.95701951 3033484
-0.084171213 -0.34195814 0.9559468 2897991
-0.074170366 -0.34137213 0.95453227 3891064
-0.06649901 -0.34257513 0.95466906 2638186
-0.094928309 -0.33305383 0.96455252 666715
-0.084585294 -0.33452237 0.96071219 4813457
-0.070737511 -0.33330196 0.96070254 3499654
-0.06338881 -0.33654308 0.96143848 3561592
-0.093677878 -0.32698825 0.97414249 6722
-0.069276482 -0.32823604 0.96865261 3694979
-0.062625922 -0.32996309 0.96872467 3233144
-0.06599167 -0.32275319 0.97701395 3104639
-0.061147649 -0.32556173 0.97784871 2640231
-0.065054581 -0.31758094 0.98521 2907007
-0.060449336 -0.32160842 0.98670805 3099492
-0.085063487 -0.31050771 0.99945503 4089741
-0.063821793 -0.31278616 0.99343491 3496061
-0.059047144 -0.31623465 0.9960264 4278874
-0.081440814 -0.30627078 1.0057617 2972810
-0.062670715 -0.30812883 1.0026845 3757171
-0.058833729 -0.31189203 1.0029896 3748927
-0.079340346 -0.30323187 1.0103562 3630740
-0.060960338 -0.30308715 1.0079677 3953004
-0.085451283 -0.34964079 0.95359731 984897
-0.074497819 -0.34784588 0.95492566 4350584
-0.060320817 -0.33593136 0.97335875 4674411
-0.058786523 -0.33338496 0.98167658 6974583
-0.058660675 -0.32745352 0.991211 3815753
-0.088338725 -0.31840622 1.0043112 5799072
-0.056469232 -0.3198511 0.99743855 5064001
-0.060281329 -0.34955546 0.97485811 7039097
-0.059511565 -0.34732538 0.98024076 7565430
-0.058773059 -0.3424246 0.98739433 8223350
-0.058022227 -0.33407661 0.99185991 9076613
