# .PCD v0.7 - Point Cloud Data file format
VERSION 0.7
FIELDS x y z rgba
SIZE 4 4 4 4
TYPE F F F U
COUNT 1 1 1 1
WIDTH 1132
HEIGHT 1
VIEWPOINT 0 0 0 1 0 0 0
POINTS 1132
DATA ascii
0.023303777 0.039800502 1.0094627 5137530
0.033610616 0.039531 1.0129515 5137788
0.042722389 0.036616035 1.0102539 5268347
0.11301249 -0.00419195 1.0153562 7374502
-0.1031047 -0.0068342835 1.0227718 9214113
-0.094475336 -0.0025760382 1.0207673 6978442
0.10903987 -0.0024030432 1.015409 7112109
0.11335723 0.0019807667 1.0159581 8686741
-0.092832036 0.0032732412 1.0213336 7636109
-0.087663636 0.0075835437 1.0203383 7437970
0.11308112 0.010112055 1.0152981 9277068
0.07812532 0.024968848 1.0167667 5992060
0.08480607 0.023183547 1.0192567 6451580
0.091717072 0.022298276 1.0179057 6516347
-0.063686199 0.02441863 1.0189092 6254982
-0.060198724 0.028985903 1.0248392 6648965
-0.044309482 0.028425381 1.0176007 5270660
0.059018672 0.034671418 1.0190167 5662844
0.064938657 0.033546366 1.0190319 5794679
0.073630944 0.031106688 1.0178102 5926261
0.081988908 0.027832769 1.0206975 6253428
-0.054336414 0.033931457 1.0194803 7043204
-0.045271814 0.034973271 1.0197561 6188928
-0.035011619 0.03848917 1.0205207 5991293
-0.025338454 0.041035317 1.0204645 5794427
-0.015571369 0.041397072 1.0195156 5597052
-0.0073782578 0.041287504 1.0181923 5399930
0.001937543 0.042003594 1.0168487 5203324
0.012644625 0.042438217 1.0166852 5269365
0.025344267 0.042997129 1.0174916 5334394
0.034584321 0.042375572 1.0193548 5466234
0.041217163 0.040830903 1.0200943 5597049
0.058899626 0.03760042 1.0190068 5991033
0.063553862 0.037733577 1.0212221 6055795
-0.023460446 0.043058746 1.0202281 6056827
-0.014449975 0.044564836 1.0235866 5859449
-0.0061045662 0.045048572 1.0223587 5728377
0.0031026946 0.04487925 1.0238205 5532027
0.013765801 0.044751056 1.0236602 5532021
-0.1002797 -0.0050345734 1.0285798 7306630
-0.09835387 -0.0039717928 1.0285466 7438985
-0.081492603 0.014553122 1.0342191 7044228
-0.077617444 0.014651708 1.0311599 6255491
0.08700408 0.02570603 1.0256308 6187632
0.092389986 0.026416957 1.0255468 6119529
-0.063799351 0.027560033 1.0278995 6780808
0.0546408 0.034730785 1.0260834 5465215
0.078587316 0.03059613 1.0307391 6056820
0.08469373 0.030139349 1.0289485 5988198
-0.051750585 0.036319859 1.0276828 7108737
-0.045457087 0.039474331 1.0308757 7108222
-0.03716711 0.040850304 1.0274446 6582396
0.04581254 0.041526012 1.0284399 5859705
0.05121918 0.039885633 1.0271146 5728122
-0.032745853 0.044429861 1.029864 6713719
-0.026351308 0.045612283 1.031163 6450807
-0.018179325 0.046160899 1.0293872 6122104
-0.0063961595 0.047625236 1.0292035 6122617
0.0059064059 0.048640572 1.0294305 6057083
0.012249565 0.048745535 1.0302678 6057334
-0.086399645 0.013135694 1.0372992 7832202
0.078171797 0.034004413 1.0347322 5792617
0.081146143 0.034125142 1.0346869 5724767
-0.044340678 0.042936109 1.0365458 7764863
-0.024672898 0.047707237 1.03623 6384242
-0.015749855 0.04806944 1.0360938 6121843
0.16317096 -0.072170004 1.0528746 13950701
0.16619955 -0.07204707 1.0528283 13160147
0.16506693 -0.069059141 1.0528336 13423577
0.16474873 -0.081771255 1.0598898 12898285
0.16876669 -0.08258874 1.0593323 12832198
0.16303246 -0.075883389 1.0580348 10136266
0.16981335 -0.076086603 1.0580404 13159885
0.16314793 -0.069585994 1.0593653 12175571
0.16839093 -0.068320088 1.0557806 13093836
-0.13900912 -0.11440161 1.0764056 1720740
-0.14006273 -0.10754348 1.0761825 3628972
-0.14132336 -0.10142407 1.077589 4745397
0.16429472 -0.083543673 1.0689048 6256041
0.16894872 -0.086038955 1.0690445 12767188
0.1622072 -0.074530438 1.0709007 7312841
-0.13578194 -0.13845783 1.0876541 2903988
-0.13266774 -0.13833143 1.0876067 1324707
-0.13774192 -0.12649816 1.0868859 2904505
-0.13680546 -0.11769745 1.0854867 2644141
0.16536878 -0.10335585 1.0829692 5801403
0.16981196 -0.10352213 1.0829028 11779799
-0.13697326 -0.10660627 1.0835447 3039906
0.16414186 -0.094304122 1.0819515 3630254
0.1703817 -0.094873689 1.0812713 11516624
0.17748809 -0.094544731 1.0827512 13685195
-0.13979988 -0.097738914 1.085916 2708908
0.16356668 -0.085854761 1.0810515 3762605
0.16845392 -0.089453265 1.0798669 10465738
0.16338623 -0.079058498 1.0769016 6721740
-0.13814487 -0.080319487 1.0874583 1588628
-0.13503066 -0.080193073 1.0874108 3826867
-0.12851931 -0.15352014 1.0936052 3694011
-0.13378526 -0.14720482 1.0916593 7178192
-0.12854452 -0.14673634 1.0927323 2114980
-0.13445951 -0.13575137 1.0916238 1063065
-0.12985502 -0.13838375 1.0924649 2447769
-0.13429767 -0.12817791 1.0915912 2578847
-0.13177069 -0.12761986 1.0945512 2907546
0.16568071 -0.11433699 1.0885088 6851775
0.17122132 -0.11365166 1.0869223 13029078
-0.13400756 -0.1180632 1.0922967 3104917
-0.13228026 -0.11508171 1.094509 3170462
0.1638514 -0.10361052 1.0884937 3040417
0.17367558 -0.10654426 1.086857 13422807
0.17646579 -0.10329987 1.0868019 13619661
-0.13660127 -0.10563539 1.0922863 3104162
0.16227189 -0.095456876 1.0878421 2973607
-0.13627051 -0.097289078 1.0924982 3169952
0.1623089 -0.08533214 1.0899444 2843043
-0.13847303 -0.087695703 1.091651 3301299
-0.12276497 -0.16516833 1.1035659 4750553
-0.11900369 -0.16723661 1.1055176 1196192
-0.12512153 -0.1580036 1.1003726 3036848
-0.12105543 -0.16009669 1.1055202 1789334
0.16262308 -0.14454775 1.0986764 12898004
-0.12449317 -0.14707014 1.1017419 2776475
0.16273472 -0.1354403 1.0975384 9087435
0.16829948 -0.13058124 1.0940346 13488846
-0.12717797 -0.1364328 1.1015179 3038106
0.16214074 -0.12480872 1.0965049 4354994
0.16986294 -0.12253489 1.093979 13752800
-0.12942272 -0.12680179 1.102958 2973083
0.1617298 -0.11504249 1.09738 2121388
-0.13487296 -0.11347685 1.0985422 3301280
-0.13123819 -0.11827298 1.1021433 3039132
0.16209787 -0.10696654 1.095201 2646946
0.17812838 -0.10105885 1.0967691 13817039
-0.13512869 -0.10718493 1.098521 3366820
-0.13249096 -0.10752808 1.1034832 3105183
0.16002704 -0.09478046 1.0987175 3631271
0.17909428 -0.098913163 1.096746 13817037
-0.13558331 -0.095999315 1.0984833 3499424
-0.13279513 -0.096893474 1.1022453 3302563
0.15926506 -0.08455383 1.0979294 3369127
-0.13314898 -0.08739908 1.1019129 3434147
0.16080397 -0.074895613 1.0988357 2908578
0.16641782 -0.072043449 1.0968302 8233160
-0.13827132 -0.076453105 1.0993034 3365295
-0.13286087 -0.077436075 1.1022149 3499689
0.16120221 -0.065294348 1.0985295 4024485
0.16607593 -0.063631386 1.096802 11192030
-0.13706714 -0.06751056 1.1013926 2181536
-0.13183199 -0.067151994 1.1025124 3433908
0.1602454 -0.059885636 1.1008756 2708114
-0.13572499 -0.059214935 1.1053399 8233201
-0.13188209 -0.060184542 1.1035713 3564980
0.0034146337 0.11844664 1.098532 9935247
0.0090855667 0.11957958 1.0984418 9934992
-0.11289651 -0.17587981 1.1141533 929696
-0.10866707 -0.17605406 1.1163981 1984411
0.15331331 -0.16114967 1.1123847 13424882
-0.11433101 -0.16637492 1.1118444 2512540
-0.10958622 -0.16807151 1.1150466 2906513
0.15435843 -0.15518746 1.1099005 8955594
0.15990014 -0.1536299 1.1062546 14080986
-0.12204095 -0.15259077 1.112506 2381461
-0.11869053 -0.1576339 1.1144133 2776212
0.15416925 -0.14559026 1.1086293 3697834
-0.12271541 -0.14668922 1.1133261 2841752
-0.12036332 -0.15090789 1.1164744 2906774
0.15562624 -0.13560447 1.1090477 2646183
-0.12501615 -0.1362088 1.114343 2907034
-0.12079648 -0.14025009 1.1164385 2775704
0.15586469 -0.1268492 1.1101093 3696546
0.15772453 -0.12223554 1.1094962 3761571
-0.1264392 -0.12681177 1.1129142 2973083
0.15914391 -0.11607486 1.1087835 3368880
-0.12795518 -0.11665837 1.1123521 3039134
0.15896264 -0.10446563 1.108346 3500454
-0.12856106 -0.10622553 1.1120198 3171232
0.1575647 -0.096073322 1.1093467 3631529
-0.12948455 -0.097489059 1.1112988 3302564
0.15557326 -0.085766621 1.1050496 3697839
0.15604548 -0.085988976 1.1080438 3763633
-0.12999396 -0.086943552 1.1120646 3368355
0.15614957 -0.074721001 1.1077116 3436468
0.17030725 -0.070517905 1.1077669 10992842
-0.12807998 -0.076439813 1.1119939 3697068
0.1535475 -0.061859015 1.1119858 3765679
0.15677437 -0.064246222 1.1071279 3830452
0.16978066 -0.066284373 1.1077579 11387079
-0.12733167 -0.068634681 1.1097512 3631022
-0.12529542 -0.065341562 1.1092074 3500456
0.15258744 -0.054985449 1.1090837 3830449
0.15928042 -0.05521588 1.1065037 5207985
0.16589771 -0.055945698 1.1104424 10334913
-0.12802616 -0.056622248 1.1117857 3434161
0.1513616 -0.04609748 1.1088128 3893939
0.1584572 -0.046296421 1.1079048 8428221
-0.12863512 -0.046596672 1.1153268 6194370
-0.12416216 -0.044308186 1.1161073 4421311
0.1487743 -0.03436004 1.1108574 5734064
0.15523703 -0.037770808 1.1118643 10203587
-0.12310081 -0.037592981 1.1160645 6852289
0.14701822 -0.028511927 1.1087512 8955077
0.011580576 0.095711775 1.1135011 9737616
-0.080705419 -0.21131185 1.1244508 7635861
-0.077263579 -0.21165624 1.1270672 8100012
-0.091317423 -0.20180583 1.1272401 10535920
-0.084223144 -0.20420468 1.1247894 5996227
-0.077409387 -0.20806876 1.1270552 6394567
-0.10188641 -0.19121751 1.1193565 8431615
-0.094752386 -0.19336458 1.1220269 1526185
-0.088416018 -0.1954886 1.1260282 1262491
0.13502312 -0.18363474 1.1237516 11717846
-0.11078203 -0.18301542 1.1194581 7571711
-0.10368884 -0.18499321 1.1209147 1917611
-0.096557751 -0.18721417 1.1245941 2379673
-0.089646317 -0.18987972 1.1271673 2644619
0.13633257 -0.17670277 1.1237043 5010097
0.14346266 -0.17345661 1.1204405 10599906
0.15049717 -0.17196248 1.1194712 14081762
-0.10407266 -0.17616193 1.1235405 2709143
0.13694406 -0.16606882 1.1236527 2909858
0.14351162 -0.1653396 1.119732 4026283
0.15105467 -0.16523829 1.1159356 12307424
-0.11160726 -0.16271135 1.1193897 2775446
-0.10701332 -0.16673228 1.1222458 2775442
0.14441055 -0.15634532 1.1205009 3105445
0.14924185 -0.15533423 1.1154233 2578854
-0.1138979 -0.1555917 1.1215501 2775449
-0.10951922 -0.15780658 1.1260061 2906778
0.14636178 -0.14645271 1.1218323 3564451
0.14961208 -0.14535555 1.1177784 3433893
-0.11808271 -0.1470724 1.1227196 2840984
0.14754894 -0.13820863 1.1233817 3565217
0.15116104 -0.13596141 1.1179843 3499430
-0.12342171 -0.13536055 1.119459 2841497
-0.12027834 -0.13699231 1.1254189 2907290
0.15303907 -0.12524594 1.1202469 3237547
-0.12396125 -0.12591277 1.1210299 2973083
-0.12114466 -0.1262663 1.1253893 3038877
0.15575342 -0.11543767 1.1213489 3827369
0.1582766 -0.11429234 1.1151236 3564710
-0.12540412 -0.1159898 1.1222694 3039391
-0.12263099 -0.11778025 1.1260446 3170977
0.15560956 -0.1053473 1.121129 3565735
0.15792915 -0.10574326 1.1150948 3500198
-0.12583058 -0.10780105 1.1243863 3170977
0.15550061 -0.096327864 1.120428 3631790
0.15669182 -0.097950622 1.1230835 3434923
-0.1264291 -0.09726651 1.1233532 3302823
0.15470214 -0.084897645 1.1205612 3566513
-0.12682441 -0.08727707 1.121986 3368614
0.15342271 -0.075685315 1.1205823 3632560
-0.12661394 -0.079551436 1.1232855 3565995
0.15179324 -0.065578841 1.1192946 3895728
-0.12426815 -0.064389467 1.12479 3697842
0.14903028 -0.055730082 1.1178303 4158132
-0.1229635 -0.056029648 1.1235005 3502262
0.14748515 -0.045111459 1.1190115 4027837
-0.12071546 -0.046417881 1.1228423 3698611
0.14222986 -0.033856232 1.1230465 4619197
0.14807276 -0.036740031 1.1174307 4946612
-0.12728722 -0.040251993 1.1191387 7180220
-0.11971944 -0.036919821 1.1262121 4815032
0.14187156 -0.027385809 1.1223594 5209534
0.14641021 -0.025472201 1.114949 8425655
0.012906416 0.091745742 1.1164973 9474444
-0.053244732 -0.22053081 1.1337409 8300241
-0.071831562 -0.21309575 1.130355 7642055
-0.064286426 -0.21344024 1.1323791 4815810
-0.057370648 -0.21660742 1.1337875 5210825
-0.081451677 -0.20156395 1.1300906 932767
-0.074322917 -0.20471576 1.13168 2382238
-0.065554067 -0.20739429 1.1338743 2251168
0.11766668 -0.19670296 1.1310664 6518691
0.12343562 -0.19544663 1.1295457 11319227
-0.083423406 -0.19489062 1.1319606 2447513
-0.077860884 -0.19813156 1.1340232 2513045
0.12494993 -0.18715465 1.1298658 4617903
0.13194393 -0.18689695 1.1268115 10929103
-0.093325913 -0.18425786 1.1316556 2971544
-0.087257981 -0.18777803 1.1321236 2774929
0.12663504 -0.17781287 1.129189 2909086
0.13146298 -0.17667538 1.126778 3105187
-0.10141136 -0.17138883 1.1302717 2709911
-0.09655308 -0.17624757 1.132571 2644371
0.13259089 -0.16680387 1.1273372 3368356
-0.10398147 -0.16486657 1.132103 2775444
-0.098836035 -0.16878185 1.1328894 2709910
0.13662086 -0.15676259 1.128221 3368613
0.14067921 -0.15363549 1.1265472 3499683
-0.10754494 -0.1564351 1.1318049 2841497
0.13815182 -0.1492295 1.1305683 3237027
0.14272662 -0.14634104 1.1278207 3302821
-0.11395524 -0.14509813 1.1309278 2645144
-0.11036486 -0.14667156 1.1334199 2775964
0.14545293 -0.1362851 1.1285881 3237542
0.14937933 -0.13254598 1.1276654 3106215
-0.11611203 -0.13677683 1.1318104 2907291
0.14644454 -0.12668303 1.1290199 3499683
0.14944024 -0.12458426 1.1274422 3303338
-0.11748543 -0.12689538 1.1327374 3039134
0.15071276 -0.11603339 1.127658 3499947
-0.12324532 -0.11282654 1.1303681 3236770
-0.12086346 -0.11701228 1.1336825 3236770
0.1520222 -0.10546275 1.1280025 3500458
-0.12350846 -0.10635192 1.1303463 3237027
-0.12170929 -0.10662761 1.1343206 3302821
0.1539654 -0.094824798 1.1283984 3632048
-0.12390319 -0.096639991 1.1303135 3302824
-0.1220834 -0.097422875 1.1342896 3302569
0.15187669 -0.086013615 1.128291 3632047
-0.12470321 -0.087593049 1.1302896 3434408
-0.12196454 -0.085099004 1.1342387 3434665
0.1480329 -0.075114906 1.127942 4026292
-0.12469263 -0.077216133 1.1302481 3631531
-0.12294165 -0.076306149 1.1342185 3631531
0.14779498 -0.067144334 1.1265399 4157366
-0.12495578 -0.070741519 1.1302264 4025255
-0.12198179 -0.065486185 1.1324465 3632304
0.14677329 -0.055388026 1.1260641 4289211
-0.11889815 -0.056363478 1.1317921 3568048
0.14319283 -0.044754051 1.1267425 4094399
0.14572035 -0.049037863 1.1280549 4224702
-0.11786189 -0.050277077 1.1300378 3764911
-0.11456213 -0.045816418 1.1324705 3895729
0.14030841 -0.036440238 1.1275408 4487616
-0.11976504 -0.032223701 1.1329949 6458567
-0.11468967 -0.035795551 1.1323324 3895996
0.13977401 -0.025419027 1.1264504 5735616
0.14649267 -0.021892034 1.1259348 9477559
-0.11942024 -0.029521286 1.1339791 6852289
-0.11617187 -0.029389434 1.1339295 5933254
0.046208672 0.07888294 1.1270472 9474701
-0.015909387 -0.22943461 1.1452143 7248329
0.016960338 -0.22969598 1.1439192 5801654
0.024922006 -0.22824427 1.1432599 5210039
0.037751377 -0.22835255 1.1444001 6328255
0.045410849 -0.22804165 1.1442833 7379645
0.056955896 -0.22745121 1.1441067 8430007
0.064767577 -0.22537258 1.13998 8625323
-0.054231174 -0.22288471 1.1377656 9678537
-0.043317102 -0.22242153 1.1441262 4422071
-0.033938035 -0.22271267 1.1454597 2778029
-0.02411023 -0.22413018 1.145317 2513574
-0.016392732 -0.22653115 1.1452101 2315684
0.013545326 -0.22604668 1.1447563 2120102
0.025581636 -0.2255581 1.1445727 2185635
0.038667679 -0.22393081 1.1443688 2186146
0.044183202 -0.22480303 1.1442889 2316696
0.059413195 -0.22199255 1.1440479 4486314
0.066920504 -0.22129929 1.1419315 5997746
0.077952355 -0.21788658 1.1426088 6063288
0.086572751 -0.21606712 1.1436144 6589614
0.094678782 -0.21595731 1.1434916 8757678
-0.060150012 -0.21115139 1.1378083 1855898
-0.053283855 -0.21337257 1.140952 2249885
-0.045452721 -0.21535312 1.1448768 2381985
-0.037233099 -0.21714655 1.1454873 3039902
0.080327757 -0.21073034 1.1436874 2841504
0.086323671 -0.2099389 1.1435938 3302564
0.095769629 -0.20730257 1.1421071 4420011
0.10546388 -0.20608997 1.1375746 6984117
0.11474811 -0.20296344 1.135136 6254993
-0.07170172 -0.20108898 1.1387427 2710418
-0.06379585 -0.20402271 1.1422164 2775447
-0.056945346 -0.20596626 1.1449401 2906776
0.097909071 -0.1993131 1.1429765 3171492
0.1063143 -0.19760649 1.1400425 3237285
0.11453065 -0.19607195 1.1356833 3629215
-0.074808463 -0.19424698 1.1427628 2775191
-0.066499181 -0.19739583 1.1451836 2906012
0.10791948 -0.18832332 1.1415149 3040421
0.11473778 -0.18637356 1.1380178 3105703
0.12060518 -0.18639807 1.1349816 2777257
-0.090769023 -0.18082751 1.1381496 2710677
-0.0837975 -0.18442062 1.1415886 2709909
-0.077401593 -0.18776417 1.1439762 2709910
0.11560231 -0.17794022 1.1415505 3368100
0.12303735 -0.17581668 1.1370363 3302561
-0.092215024 -0.17432603 1.141257 2710421
-0.087256677 -0.17696548 1.1452821 2644886
0.11736553 -0.17009494 1.1429666 3040936
0.12524402 -0.16668066 1.1407468 3237031
0.13148144 -0.16353387 1.1377268 3368615
-0.10243001 -0.1617077 1.1382495 2776209
-0.096749306 -0.1659462 1.1429312 2841240
0.1269618 -0.15811075 1.142774 3237287
0.13324456 -0.1556447 1.1375259 3302822
-0.10363145 -0.15508331 1.1427752 2710683
-0.09876401 -0.15817143 1.1455144 2841499
0.13520209 -0.14713244 1.1400174 3237541
0.14000206 -0.14423323 1.1361212 3237798
-0.10609659 -0.1466186 1.1433883 2907293
0.13656858 -0.13829486 1.1425501 3237797
0.14111942 -0.13558157 1.13747 3303334
-0.11293436 -0.13520265 1.1394455 2907805
-0.11057957 -0.13672425 1.145474 2907805
0.14261669 -0.12614129 1.1399657 3434407
-0.11378796 -0.12591723 1.1409454 3039392
-0.11104307 -0.12697124 1.1462423 3039391
0.14416799 -0.11649816 1.1397769 3500202
0.14811487 -0.11343984 1.1342759 3631274
-0.11727893 -0.11687748 1.1428291 3170979
0.14573342 -0.1061516 1.1418394 3631791
0.14901249 -0.10546861 1.1360086 3566510
-0.1180852 -0.10654773 1.1439811 3105957
0.14444204 -0.095084868 1.1405923 3632305
0.1496302 -0.095992208 1.134517 3501227
-0.11890798 -0.096554771 1.1416678 3237546
0.14360331 -0.086043194 1.1396902 3698099
0.14815558 -0.086255394 1.1345671 3698094
-0.11867765 -0.086788349 1.1418636 3434923
0.1444702 -0.076724604 1.1401855 3895479
0.14670151 -0.078664936 1.1341588 3895477
-0.11871434 -0.076321781 1.1424415 3566256
0.14428997 -0.065415487 1.1414766 4027579
0.14670791 -0.064752221 1.1381037 4157882
-0.11809371 -0.067381874 1.1416402 3567024
0.14185706 -0.055970278 1.1409659 4159422
0.14612179 -0.05595896 1.1364774 4289724
-0.11621373 -0.057467863 1.139376 3567791
-0.11311118 -0.055388406 1.1446549 3764403
0.13971877 -0.046016268 1.1394682 4356797
-0.11182619 -0.046413876 1.1385038 3830196
0.13665529 -0.036553074 1.1385432 4619718
-0.11076195 -0.035452306 1.140782 3896507
0.1320926 -0.024834052 1.1390544 4817095
0.13659087 -0.025240034 1.1357656 4948420
-0.11871933 -0.026590392 1.1419579 6916535
-0.11122019 -0.026817739 1.1415379 5210049
0.13101915 -0.01847396 1.1411567 5013440
0.13542373 -0.017885543 1.1387542 5998788
0.027717177 0.051455401 1.138294 5859448
0.035876136 0.051857792 1.1363119 6122362
0.04147096 0.05222366 1.1392263 6319482
0.052581839 0.05395586 1.1430522 5330522
0.028094983 0.055916496 1.1367465 5792108
0.035871036 0.057076223 1.1360911 5527648
0.041293673 0.056585751 1.1392115 5067354
-0.010126408 -0.22916225 1.1481262 4354997
-0.0027018152 -0.22988245 1.1500174 4684224
0.0071525164 -0.22919276 1.148399 4289976
0.018020114 -0.22644973 1.1476907 2054307
0.028464522 -0.22657526 1.1475335 2777510
0.033994436 -0.22744977 1.1474535 4026798
0.050450392 -0.22678182 1.1472025 5604271
0.054223232 -0.22498018 1.1471384 4881326
-0.029510396 -0.21958712 1.1483806 3039902
-0.02152328 -0.22017983 1.1487626 2710943
-0.012942377 -0.22173268 1.151444 2645152
-0.002906464 -0.2241745 1.154665 2514339
0.0070134699 -0.22366992 1.1539798 2514851
0.01679755 -0.22077024 1.1522871 2842787
0.026623692 -0.21995473 1.1499352 2908579
0.036277667 -0.21916594 1.1502753 3039651
0.046507981 -0.21945058 1.1512333 2908578
0.055810489 -0.21820119 1.1508379 2778020
0.065730877 -0.21614346 1.1483583 2646433
0.075385585 -0.21844304 1.146793 5012145
0.086956784 -0.21925548 1.1466216 8955830
-0.042867459 -0.21170214 1.1488366 2841242
-0.032918327 -0.21336588 1.150741 2775960
-0.023836905 -0.21426706 1.152541 2841500
-0.014293121 -0.21604104 1.1561379 2907551
0.01734433 -0.21401909 1.1556524 3105184
0.026534997 -0.21327716 1.1555107 3170722
0.036477081 -0.21287358 1.155359 3302053
0.046580829 -0.21191016 1.1552027 3170723
0.057037838 -0.21056348 1.1550395 3105188
0.066303357 -0.20939901 1.1531805 3170467
0.075834334 -0.20881541 1.1491482 3236258
0.085801378 -0.20497236 1.1470267 3171236
-0.059933804 -0.20104016 1.148766 2906776
-0.053300999 -0.20300525 1.1498168 2907033
-0.044762999 -0.20363215 1.1533813 2841497
-0.0353029 -0.20730317 1.1564202 2775704
0.067093693 -0.20388445 1.1548611 3105443
0.075931109 -0.20352574 1.1547264 3105443
0.086546071 -0.19937821 1.1532863 3105956
0.094735093 -0.19618443 1.1496127 3105956
-0.071350373 -0.19051364 1.1488965 2644884
-0.064097308 -0.19378045 1.1518004 2775705
-0.055576839 -0.19630051 1.1543487 2841497
0.089842878 -0.19189486 1.1544701 3172006
0.097381957 -0.18920803 1.1533455 3040421
0.10310663 -0.18663225 1.1507485 2974628
-0.08048363 -0.18209243 1.1490008 2645144
-0.073728889 -0.18357769 1.1519639 2710425
-0.068297148 -0.18607584 1.1534047 2776216
0.10622402 -0.17785791 1.1509166 3171493
0.11106044 -0.17543973 1.1476835 3237026
-0.083806202 -0.17419446 1.151608 2710424
-0.077293105 -0.176128 1.1554751 2710937
0.10891881 -0.17120138 1.1540997 3302823
0.11503084 -0.16687527 1.1508321 3172005
0.12068123 -0.16350546 1.1498911 3172006
-0.092973463 -0.16318387 1.1491139 2841498
-0.08840587 -0.16550452 1.153978 2907290
0.11730719 -0.15979472 1.1539277 3303592
0.12339232 -0.15616719 1.152488 3237544
0.12926084 -0.15159869 1.1457137 3303337
-0.095054604 -0.15479806 1.1508265 2973342
-0.090246171 -0.15770678 1.1570519 3038879
0.12671553 -0.14825989 1.1530731 3237544
0.13088103 -0.1450742 1.1484636 3303336
-0.10355309 -0.14358279 1.1501957 2973342
-0.097296767 -0.14648092 1.1546134 2973600
0.13393483 -0.13581312 1.1495808 3368872
-0.10542887 -0.13578492 1.1515461 3039392
-0.099886693 -0.13636096 1.1571125 3236259
0.13487762 -0.12632099 1.151279 3500460
0.13911666 -0.12372379 1.1454539 3434923
-0.10691151 -0.12619242 1.1520662 3170978
0.13556974 -0.11735334 1.1521497 3500719
0.14010824 -0.11467782 1.1487367 3500718
-0.1139662 -0.11531398 1.1492401 3237029
-0.11001078 -0.11650481 1.1551859 3237286
0.14012793 -0.10580342 1.1514734 3697329
-0.11432295 -0.10653651 1.1492106 3237543
-0.11167078 -0.105968 1.1566693 3172263
0.14096746 -0.096652135 1.150919 3697843
-0.11497159 -0.096907713 1.1521825 3303340
-0.11286641 -0.09573216 1.1571466 3303852
0.14032376 -0.086222559 1.1512872 3764149
-0.11547645 -0.087167785 1.1491508 3500716
-0.11269618 -0.085660286 1.1571039 3501229
0.14281708 -0.075680822 1.1497788 3764661
-0.11543777 -0.079106927 1.1491182 3566512
-0.1123426 -0.075541712 1.1534215 3632306
0.1394221 -0.065602079 1.1496891 3896764
-0.11213214 -0.065904528 1.1533799 3698357
0.13306817 -0.055803858 1.1519423 4291265
0.13686252 -0.056838203 1.1463647 4225217
-0.11089387 -0.056840271 1.1529615 3764408
0.13344994 -0.046179585 1.1512315 4554434
0.13595057 -0.045823786 1.1451916 4488640
-0.10836384 -0.046013776 1.1536803 3895997
-0.10432821 -0.04263676 1.1568063 4027323
0.13260506 -0.035410557 1.1502012 4817354
-0.10726162 -0.036438927 1.1501584 3962044
-0.1032493 -0.035050064 1.1559597 4093118
0.12283096 -0.02345641 1.1533015 5014224
0.12827037 -0.025983565 1.1492289 4751563
-0.10660759 -0.025996819 1.1487734 4290235
-0.1016672 -0.025652714 1.1532315 4158908
-0.095532663 -0.023098342 1.1565958 4028609
0.12085596 -0.016498379 1.1515256 4817874
0.12744346 -0.01596342 1.1462011 5145287
-0.09958747 -0.018922038 1.1510397 4487616
-0.09425585 -0.016025901 1.1552149 4356800
0.11149851 -0.0043538213 1.1513963 5276623
0.11790043 -0.0071208999 1.1475959 5604813
0.12732406 -0.0079614148 1.14606 6720449
-0.09241917 -0.0089547932 1.1564925 5671109
0.1094365 0.0011372864 1.1528342 5802961
0.11576751 0.00061091036 1.148645 6787017
0.032795474 0.013833791 1.1545119 12972031
-0.02283874 0.021490194 1.1533209 5869264
0.0097110569 0.019167595 1.154839 7515376
0.017213274 0.019103229 1.1547261 8764660
0.026829645 0.019050948 1.1545812 10146554
0.033499606 0.018288843 1.1544836 10870005
-0.080940887 0.027430378 1.1481733 8028800
-0.075836122 0.028003924 1.1480941 7305855
-0.01846865 0.022819072 1.1552498 5671370
-0.015154624 0.022953592 1.1551993 5869265
0.0080435788 0.023895256 1.1548454 6988787
0.012462283 0.024074614 1.154778 7185904
0.098267816 0.036410548 1.1534338 6314850
-0.074820302 0.033051662 1.1480587 8028802
0.095031038 0.039820366 1.1534691 6117979
0.070546187 0.049331732 1.1457998 5593178
0.072740324 0.049420796 1.1457664 5658970
-0.0086422246 -0.21876633 1.160064 2973083
-0.0030547548 -0.21964997 1.1599832 2973595
0.0063580275 -0.21883497 1.1605046 2973598
-0.029045479 -0.20849024 1.160331 2842012
-0.022615379 -0.20961727 1.1602385 2776219
-0.013159098 -0.21171081 1.1616281 2907806
-0.0034923293 -0.21269335 1.1631204 2907807
0.0070807738 -0.2128046 1.1631367 2973599
0.01581783 -0.21011768 1.1603272 3039136
0.026521403 -0.20868999 1.1608267 3170723
0.03647586 -0.20816869 1.1600076 3236770
0.046237029 -0.2073136 1.1591902 3170979
0.05526676 -0.20673352 1.1590515 3170980
0.061850064 -0.20480064 1.1589445 3171236
-0.040490754 -0.20007136 1.1604702 2842012
-0.03367392 -0.20205724 1.1618299 2842011
-0.023961673 -0.20392039 1.1626979 2842012
-0.015599223 -0.20502645 1.1641147 2907805
0.030895319 -0.20453194 1.163411 3302309
0.036837697 -0.20313691 1.1621728 3302308
0.045457885 -0.20267035 1.1606835 3171236
0.056217544 -0.2028084 1.1590216 3171236
0.066803135 -0.20099849 1.1605214 3105443
0.076528504 -0.19868156 1.1596987 3171492
0.082980342 -0.19654003 1.1585927 3040420
-0.062002487 -0.18984026 1.1607542 2841497
-0.053114727 -0.19222915 1.161163 2907291
-0.044556104 -0.19453014 1.1623921 2907549
-0.037807278 -0.19543543 1.1644118 2907551
0.079383872 -0.19142127 1.162627 3040420
0.086290762 -0.18930428 1.1606194 3106213
0.093967259 -0.1863963 1.1583865 3106214
-0.063737884 -0.18341187 1.162755 2907290
-0.057017356 -0.18601578 1.1641641 2973340
0.090145066 -0.18207049 1.1624273 3302823
0.096052043 -0.17945191 1.1599275 3237030
0.10205071 -0.17579824 1.1600002 3237031
-0.081657708 -0.17065033 1.1609744 2841497
-0.073118903 -0.17378452 1.1613914 2842012
-0.06687656 -0.17576085 1.163772 2907547
0.10690636 -0.16791314 1.1590408 3368361
0.11184002 -0.16446155 1.1580293 3237285
-0.08337599 -0.16479778 1.1609771 2973085
-0.076551005 -0.16473654 1.1636109 3039135
0.10891112 -0.16069394 1.1580585 3368615
0.1153054 -0.15709883 1.1586751 3237799
0.11972561 -0.15359238 1.1578671 3303337
-0.091291547 -0.15216406 1.1610463 2973857
-0.085700713 -0.1554648 1.1625307 3039137
-0.079700328 -0.15609463 1.1648874 3104930
0.1170073 -0.14951923 1.1598921 3172264
0.12308697 -0.146384 1.1584544 3238059
-0.09279985 -0.14401282 1.1620367 3039650
-0.088631168 -0.14743178 1.1649877 3105700
0.12594953 -0.13651112 1.1598592 3369132
0.13013457 -0.1365134 1.157642 3434410
-0.095890552 -0.13556567 1.1627641 3171236
0.12752545 -0.12831469 1.1608491 3500719
0.13078293 -0.12588048 1.1595901 3435183
-0.10354786 -0.12379035 1.1611183 3302823
-0.098780289 -0.12556908 1.1637204 3171495
0.13113141 -0.11576114 1.1593627 3566514
-0.10562177 -0.11522716 1.1625701 3368873
-0.10187169 -0.11624657 1.1642632 3368875
0.13345589 -0.10646947 1.1582723 3697588
-0.10687491 -0.10620019 1.1637653 3303850
0.13467193 -0.096803598 1.1608443 3763892
0.13781473 -0.096004032 1.1573647 3698099
-0.10864792 -0.096061662 1.1626849 3435181
-0.1027417 -0.096303627 1.1649971 3435438
0.13528796 -0.086641587 1.1613661 3829942
0.13806668 -0.085989125 1.1584641 3764149
-0.10799958 -0.086352624 1.1630366 3501229
0.1347454 -0.07329268 1.161321 3896505
0.13922143 -0.076003298 1.1590823 3830455
-0.1078093 -0.076477215 1.1625328 3632563
-0.10369115 -0.072943047 1.1649184 3567542
0.13205878 -0.066245899 1.1587619 4027837
0.13740747 -0.069592297 1.1572658 3896505
-0.10746256 -0.066396885 1.1622822 3829940
-0.10396242 -0.066268593 1.1648959 3699127
0.13018686 -0.056696113 1.1599903 4291009
-0.10746425 -0.056249209 1.1617085 3895737
-0.10377248 -0.05527762 1.1648493 4027576
0.13006502 -0.046656046 1.1592854 4422849
-0.10656668 -0.049513996 1.160868 4158911
-0.10220312 -0.045627866 1.162787 4093372
0.12960561 -0.036923893 1.1587536 4817355
-0.098846763 -0.036086276 1.1622367 4093630
-0.094195887 -0.032444842 1.1646138 4094397
0.12173415 -0.026484221 1.1595532 5080014
0.12634079 -0.029510781 1.1572732 4883149
-0.097061902 -0.028400131 1.1606405 4028348
-0.092641465 -0.025656082 1.162063 4028864
0.11684774 -0.01703237 1.1591448 4949202
-0.089466758 -0.015925407 1.1622946 4029123
-0.085309587 -0.013513401 1.1644043 3963586
0.11038097 -0.0074188188 1.1600931 5146069
0.1139583 -0.011691295 1.1573892 5080276
-0.089005068 -0.0080853179 1.1604381 5342665
-0.081916131 -0.005633086 1.1643217 4882633
-0.018668732 0.00070551783 1.1633419 6070261
-0.011995001 0.00097642094 1.1632401 6528744
-0.0053212699 0.0012473166 1.1631383 8827627
0.01025076 0.0018794164 1.1629008 10340848
0.019016003 0.0015984997 1.1627696 8895736
0.026544422 0.0012037158 1.1626575 6266608
0.10082032 0.0049953014 1.1605213 5475287
0.10541589 0.0016554147 1.1587983 5475028
-0.078719527 0.00048589706 1.1622488 5999306
-0.072109878 0.0018646345 1.1621436 5540557
-0.06369485 0.0055416226 1.1613352 5803727
-0.051019505 0.0078110769 1.1638019 4950220
-0.042019367 0.0070509389 1.1636691 5016280
-0.032283828 0.0068331659 1.1631229 5411294
-0.022272209 0.0072197914 1.1611301 5806569
-0.012268292 0.0076441988 1.1626176 7120874
-0.0027095489 0.0087816268 1.1630689 12379901
0.0078587253 0.0086773932 1.1603832 13891069
0.017665081 0.0088343322 1.1595608 12969723
0.027614936 0.0094784275 1.1602924 9946095
0.037693243 0.0096571147 1.1605424 10013177
0.047341008 0.011930063 1.1601468 7449069
0.05394955 0.014052831 1.1621927 5411552
0.097731538 0.0087570995 1.1590527 6526426
-0.049243048 0.012835383 1.1637551 6264275
-0.041725539 0.013936348 1.161137 5803990
-0.03220506 0.014948338 1.159489 5345755
-0.022258228 0.016614929 1.1593323 5412839
-0.012692984 0.017598473 1.1596841 5676266
-0.0035904553 0.017053813 1.1619062 7253489
0.0062125837 0.017263822 1.1599001 8436213
0.016258743 0.015434995 1.1587557 12051453
0.030488778 0.020454347 1.1585209 10082302
0.038352095 0.020033248 1.1584039 10607102
0.046863675 0.01953271 1.1582774 7515119
0.053941019 0.019210264 1.1595054 6068200
-0.010705288 0.023223922 1.1591316 6001365
-0.0062713604 0.023403898 1.1590639 6396124
0.10589445 0.033731185 1.1573299 6447199
-9.1711059e-005 -0.20872155 1.1678959 3039391
0.0074441805 -0.207838 1.1692789 3039135
0.018881889 -0.20795137 1.1676065 3104930
-0.029563824 -0.19873732 1.168301 2776478
-0.023126343 -0.19936574 1.1702065 2842271
-0.013132785 -0.20059356 1.1722428 2907807
-0.0038306154 -0.20207515 1.1726222 2908063
0.006230372 -0.2025135 1.1735765 2973600
0.016495265 -0.20111512 1.1729493 3105187
0.026386641 -0.20036525 1.1718774 3236773
0.036018509 -0.19863604 1.1710446 3237029
0.046960812 -0.19827735 1.1709447 3171237
0.056607798 -0.19884403 1.168501 3171236
0.066047885 -0.19690189 1.1677738 3105444
0.074813657 -0.19505948 1.166711 3171493
-0.042058975 -0.19035602 1.1716566 2841758
-0.033860594 -0.19232985 1.1723409 2907551
-0.024870599 -0.19306299 1.1750319 2842271
-0.014128098 -0.1938127 1.1760495 2908064
-0.0073401853 -0.19466284 1.1759504 2973857
0.01401023 -0.19379619 1.1756247 3105444
0.02682982 -0.19227521 1.1754252 3237030
0.036875967 -0.19228625 1.1744734 3302823
0.046495534 -0.19111413 1.1742005 3171495
0.055784948 -0.18932807 1.1735849 3105703
0.065493695 -0.18919353 1.1732291 3105703
0.075243168 -0.18830553 1.1711782 3105702
0.083426133 -0.18547623 1.1682574 3105958
-0.053664282 -0.18312776 1.1702498 2973598
-0.045540392 -0.18450573 1.1744862 2907551
-0.035551578 -0.18595827 1.1763415 2908065
0.076733299 -0.17982015 1.1746224 3237288
0.085480012 -0.17875902 1.1720414 3302823
0.094008356 -0.17637834 1.1689186 3237287
-0.063499905 -0.17224503 1.1715652 3105183
-0.055857204 -0.17530091 1.1747229 2974112
-0.047446385 -0.17715424 1.176486 2842786
0.086733252 -0.17193279 1.17444 3171750
0.095188685 -0.16798091 1.1729631 3172008
0.10311124 -0.16591692 1.1685015 3303081
-0.072044022 -0.16290841 1.1694663 3104930
-0.065638073 -0.16495135 1.1753784 3170978
0.097356431 -0.15953718 1.1742303 3303337
0.10503197 -0.15771209 1.1718569 3368873
0.11186623 -0.15613781 1.1685425 3237543
-0.082358219 -0.15052164 1.1715728 3040164
-0.075471647 -0.15399837 1.1726056 3105701
-0.068854615 -0.15813619 1.1767334 3302822
0.10627119 -0.14862606 1.1740524 3303597
0.11350347 -0.14591767 1.1695682 3238059
0.12042179 -0.14258149 1.1678139 3303852
-0.085038215 -0.14428668 1.1726997 3106213
-0.077133134 -0.14599591 1.1768099 3172007
0.11409729 -0.13680232 1.1736871 3369387
0.12196161 -0.13625628 1.1697657 3435181
-0.092637882 -0.13435714 1.1703302 3237030
-0.08597783 -0.13474655 1.1745651 3237800
-0.079430774 -0.13792799 1.1768125 3303594
0.115672 -0.13068384 1.173839 3500972
0.12385108 -0.12608072 1.1704469 3500976
0.128341 -0.12300817 1.1656163 3500977
-0.094125412 -0.12514639 1.1720939 3237545
-0.089338094 -0.12660536 1.1760279 3303852
0.12529999 -0.11648466 1.1736372 3566772
0.12857245 -0.11669635 1.1695881 3566515
-0.097027659 -0.11554594 1.1722383 3369389
0.12576899 -0.10692412 1.173592 3763639
0.1290178 -0.10587223 1.1686493 3763639
-0.10439711 -0.10200255 1.1703788 3435181
-0.098830938 -0.10545634 1.173547 3435438
0.12596086 -0.09582033 1.1735449 3895737
0.13085806 -0.09551882 1.1682926 3764149
-0.10414419 -0.095506698 1.1714159 3435438
-0.098690584 -0.095903635 1.1753972 3501231
0.12573248 -0.090201192 1.173526 3961530
0.1308668 -0.086026341 1.1682547 3961528
0.13786876 -0.082371391 1.1653106 3895735
-0.10422967 -0.086248867 1.1719804 3501489
-0.09993118 -0.085842393 1.1747966 3501490
0.12500167 -0.072219945 1.1734654 4159679
0.13082612 -0.076679721 1.1686674 3962041
0.13777803 -0.080138966 1.1653031 3895735
-0.1050115 -0.07893654 1.1709629 3501747
-0.1002966 -0.075543404 1.1735452 3567541
0.1239937 -0.065881997 1.1734554 4225473
0.1276439 -0.066249937 1.1694012 4159424
-0.09895248 -0.065332189 1.1724175 3764919
0.12338366 -0.057026379 1.1734294 4422597
0.12723422 -0.056169741 1.1693673 4357059
-0.098859757 -0.055548415 1.1722057 3896505
-0.094047852 -0.055220865 1.1767038 3962298
0.12282742 -0.046417519 1.1733955 4685767
0.12682453 -0.046089549 1.1693333 4422851
-0.097798079 -0.046377953 1.1703243 4027836
-0.092780173 -0.044390503 1.1755505 4028094
0.120492 -0.03591701 1.171271 4948684
0.12638883 -0.0375918 1.1663058 4751818
-0.096456409 -0.038216345 1.1686715 4093632
-0.090941802 -0.034520157 1.1744204 4094399
0.11335973 -0.025789097 1.1734563 5080784
0.11763944 -0.026699588 1.1685947 5211343
-0.088061534 -0.02595868 1.1728601 4094402
-0.081623822 -0.022622108 1.1753863 4226244
-0.075191423 -0.020684995 1.1762817 4620744
-0.021299208 -0.017371736 1.1754551 5412064
0.00117491 -0.016459465 1.1751122 6463211
0.0093949893 -0.019966379 1.1750022 6397929
0.019047452 -0.018933289 1.1748524 6397929
0.028196055 -0.016649127 1.1747053 6003432
0.1099439 -0.016649507 1.170971 5081042
0.11519317 -0.019562609 1.1654028 5081041
-0.080659844 -0.014781855 1.1702067 4160963
-0.072548933 -0.013497822 1.1753559 4752075
-0.057623208 -0.0098407343 1.1759734 4949201
-0.050858133 -0.010128975 1.1758724 5016022
-0.041250288 -0.010861814 1.1750636 5213659
-0.031400584 -0.011368789 1.1743528 5411552
-0.021525448 -0.011749096 1.174636 5740773
-0.011414241 -0.011342071 1.1752819 6003172
-0.0013081823 -0.010930158 1.1747277 6331366
0.0087403487 -0.010505468 1.1719739 6989552
0.018839166 -0.01009839 1.17222 6792432
0.028906055 -0.0096844062 1.1714163 5937640
0.03738299 -0.0084170997 1.1735337 5806054
0.048050828 -0.0066769272 1.1743659 5674725
0.054747395 -0.0052794144 1.1742592 5674983
0.10064119 -0.0059492961 1.1735692 5146841
0.10665125 -0.0077883303 1.1677709 5080789
-0.077636972 -0.0061468482 1.1682597 4554184
-0.074181594 -0.0051693767 1.171204 4751049
-0.058908418 -0.0042712316 1.1739703 4818129
-0.051484719 -0.0039702952 1.173057 5015507
-0.04200498 -0.0035832152 1.1695119 5147609
-0.031926259 -0.0031740218 1.168058 5346018
-0.022239538 -0.0031546131 1.1705232 5937898
-0.011766369 -0.0034758002 1.1705886 6462952
-0.0013634581 -0.002308175 1.169538 8303605
0.0079907458 -0.0020349994 1.1683798 8501495
0.017866509 -0.0026156604 1.1674197 7252467
0.029155659 -0.0016113967 1.1680846 6069484
0.038264409 -0.00015024096 1.1688026 6135528
0.048429586 -0.00011122972 1.1717454 5741031
0.057826467 0.0004715696 1.1731898 5543655
0.067259274 0.002155751 1.1740408 5477092
0.077261135 0.0038894713 1.173883 5739747
0.088633187 0.0041009188 1.1737105 5280481
0.09789598 0.001837045 1.1698868 5015513
0.10342516 8.0019236e-005 1.1675024 4949463
-0.071212612 0.00082227588 1.168135 4818122
-0.061828136 0.0021970123 1.1679879 5147606
-0.053177647 0.0032935217 1.167853 4818639
-0.044426359 0.0019095764 1.1677264 5344472
0.00019472837 0.0042798519 1.1670436 12971007
0.0046817875 0.0039029568 1.1669773 12905215
0.029235855 0.0048996434 1.1666027 5807584
0.042628989 0.0054432973 1.1663984 6004710
0.048648901 0.0066459924 1.1663028 5807083
0.057364315 0.0094849467 1.1682935 5477863
0.065916367 0.0094048455 1.1706984 5542628
0.077888459 0.006916739 1.1738614 5673698
0.088345401 0.0092965588 1.1721939 5804766
0.093969323 0.0075272918 1.1656153 5147865
0.06003283 0.017330319 1.1660885 5412324
-0.00044184364 -0.19729173 1.1798571 3039650
0.0060272701 -0.19767456 1.1797611 3039650
-0.021057868 -0.19022211 1.1801401 2842271
-0.014292801 -0.18994752 1.180037 2973857
-0.00391379 -0.19061431 1.1811463 2973857
0.005919476 -0.19196521 1.1822665 3039395
0.016479576 -0.18960288 1.1813492 3171237
0.02570899 -0.18781126 1.1804914 3237030
0.036029849 -0.18683982 1.1808037 3302569
0.044363804 -0.18664351 1.180472 3237546
-0.041134365 -0.18054891 1.1804047 2908065
-0.033524647 -0.18120815 1.1802925 2973857
-0.024763947 -0.18261448 1.1811659 2973857
-0.014932508 -0.18411434 1.1821413 2973858
-0.0065854993 -0.18459897 1.1838998 3105444
0.025091399 -0.18331315 1.1834166 3237030
0.036720369 -0.18133003 1.1832331 3302825
0.045620628 -0.18051428 1.1827879 3171754
0.05546432 -0.18063915 1.1809473 3171752
0.065772288 -0.17979889 1.1802001 3171753
0.074069373 -0.17634317 1.1796492 3237546
0.082169093 -0.17360751 1.178516 3303592
-0.0526862 -0.17155156 1.1805432 2908579
-0.044381782 -0.17337951 1.1824254 2908579
-0.034482837 -0.17444581 1.1831894 3105444
-0.025751652 -0.17585719 1.1841543 3105443
0.068844907 -0.17247066 1.182713 3303339
0.076758422 -0.1698786 1.1812499 3303082
0.085030146 -0.16743962 1.1790198 3237545
0.090822548 -0.1642203 1.1783481 3303850
-0.062164605 -0.16064137 1.1806428 3302822
-0.055349499 -0.16466627 1.1828063 3040165
-0.048048697 -0.16814911 1.18446 3040167
0.079790205 -0.16295992 1.18251 3303598
0.085670814 -0.15872595 1.1814631 3238061
0.094114393 -0.15632558 1.1793782 3303596
0.1016852 -0.15361391 1.1781418 3369131
-0.072364122 -0.15051344 1.1807564 3171751
-0.065775655 -0.15387738 1.1820823 3368615
-0.058690421 -0.15724802 1.1845772 3171751
0.10325386 -0.14696456 1.1795919 3369134
-0.074623704 -0.14354581 1.1807628 3369130
-0.068385616 -0.14524417 1.1836758 3434922
0.10400955 -0.13725524 1.1810896 3435183
-0.07667648 -0.13501899 1.1820933 3434923
0.10647342 -0.13005388 1.1811762 3501232
0.11309124 -0.12665226 1.1804509 3435694
0.11970713 -0.12464501 1.1777545 3501232
-0.085349038 -0.12421919 1.1818478 3369646
-0.079458214 -0.12773165 1.1834397 3435182
0.11646159 -0.11727239 1.1817746 3567282
0.12050857 -0.1165804 1.1795287 3567027
-0.094263412 -0.11187005 1.1809331 3501231
-0.089481577 -0.11560062 1.1836261 3435439
0.1161397 -0.10935231 1.1817479 3829686
0.12109841 -0.10634191 1.1798831 3829431
-0.094400898 -0.10848715 1.1809217 3501231
-0.090124793 -0.105065 1.1825104 3567024
0.12302952 -0.09687414 1.1802608 3830201
-0.09497378 -0.094391726 1.1808742 3632818
-0.091687851 -0.09497267 1.1828271 3698612
0.12470423 -0.086188942 1.1795262 3896507
-0.095363341 -0.084806837 1.1808419 3633333
-0.091471806 -0.084835403 1.1835836 3764919
0.12411781 -0.075997509 1.1789944 4093886
-0.096171826 -0.076029599 1.1808192 3633334
-0.092127331 -0.074920356 1.183954 3830201
0.1207369 -0.066499569 1.1797299 4291523
-0.092145868 -0.064615659 1.1823798 3896506
0.11981253 -0.056045957 1.17908 4619975
-0.089255877 -0.054939289 1.1823453 4028348
0.11351853 -0.044860203 1.1815307 5146320
0.11801805 -0.0469037 1.1804708 4883148
-0.087943569 -0.045467891 1.1808591 3962814
-0.082983941 -0.043897752 1.1833496 3963072
0.11214621 -0.036086362 1.1800163 5146577
0.11594172 -0.037562747 1.1779647 5080527
-0.086942621 -0.036348559 1.1805218 4028607
-0.080808356 -0.034344148 1.1825548 4291526
-0.030986568 -0.030326381 1.1836538 5147865
-0.023529066 -0.029797018 1.1835392 5344731
-0.0072748791 -0.028230585 1.1832876 5345501
-0.00048697367 -0.027955048 1.183184 5739743
0.0097539788 -0.029777415 1.1817032 5936862
0.018806081 -0.029417112 1.1818986 5871068
0.028973276 -0.0278925 1.1827391 5739228
0.047028378 -0.026026316 1.1824592 5213656
0.10990935 -0.027288273 1.179915 4949970
-0.079367168 -0.02683568 1.1803696 4422856
-0.071108565 -0.021727934 1.1820431 4686797
-0.060791247 -0.020179383 1.182063 4884690
-0.050323524 -0.021188945 1.1834092 4950486
-0.039859533 -0.021526679 1.1824192 5213659
-0.031278454 -0.022357158 1.1804261 5279707
-0.021074818 -0.023079894 1.180675 5345244
-0.010986717 -0.021037057 1.1804258 5411808
-0.0010942835 -0.021750905 1.1800772 5806052
0.0083465232 -0.024498843 1.1790365 6068964
0.020388594 -0.024386533 1.1788543 6068963
0.030333493 -0.021597065 1.1796163 6003173
0.038725831 -0.019533537 1.1803584 5608417
0.048926175 -0.019126765 1.1808029 5411038
0.055803008 -0.018870294 1.1822983 5279709
0.1003681 -0.015306227 1.1806883 5212630
0.10612839 -0.01867196 1.178871 5015248
-0.06767036 -0.015913062 1.1801497 4949712
-0.060905285 -0.015638456 1.1800464 4949713
-0.050757676 -0.01522655 1.1798916 5016279
-0.041346475 -0.01522103 1.1797496 5213659
-0.03267166 -0.015621886 1.1796203 5345501
0.040029943 -0.012106068 1.178509 5871590
0.048463367 -0.01119899 1.1783781 5871847
0.058650523 -0.0085442588 1.1802139 5543139
0.065887734 -0.0071194768 1.1803848 5280225
0.09041401 -0.0061323047 1.1817251 5411294
0.096289217 -0.0073170662 1.1790955 5279196
0.067851096 -0.0019408092 1.1780486 5411556
0.077366211 0.00013966858 1.1778967 5412066
0.088641338 0.0005973503 1.1777247 5477344
0.095498063 -0.001383312 1.1776291 5213404
0.0068091415 -0.18732035 1.187709 3105189
-0.013871457 -0.17968388 1.1889908 3039906
-0.0040863622 -0.18142152 1.1892787 3039908
0.005515215 -0.18218738 1.1910418 3105447
0.016044037 -0.18099128 1.1882945 3105702
0.025057279 -0.17937785 1.187402 3171750
0.0340183 -0.17860062 1.1872636 3237289
0.045397226 -0.176278 1.1870826 3237548
0.055613339 -0.1758633 1.1869268 3171752
0.06469433 -0.17549469 1.1867883 3171752
-0.041977741 -0.16936319 1.1883738 3039909
-0.034092352 -0.16977197 1.1891454 3105701
-0.025810929 -0.17208223 1.1906863 3105443
-0.01597956 -0.17707644 1.1920125 3040163
0.014734512 -0.17491695 1.1915405 3105960
0.026078545 -0.17334089 1.191363 3105958
0.035094455 -0.17146495 1.1904193 3237545
0.045423422 -0.1699875 1.1891627 3237547
0.05543685 -0.16926956 1.1885034 3237544
0.065483727 -0.16863404 1.1884334 3237545
0.074032143 -0.16630064 1.1872774 3303339
-0.053598434 -0.16039678 1.1885135 3172009
-0.045018867 -0.16320734 1.1907955 3105961
-0.035577446 -0.16503647 1.1922605 3171752
0.048476495 -0.16305074 1.1909839 3303337
0.055310071 -0.16277334 1.1908797 3303593
0.06535805 -0.16138755 1.1907225 3303594
0.074431978 -0.15840653 1.1893235 3303596
0.081145108 -0.15663299 1.1864649 3238062
-0.061322786 -0.15218195 1.1885974 3434409
-0.055472352 -0.15369937 1.191339 3237547
-0.047026902 -0.15572551 1.1923962 3237805
0.075115338 -0.15106717 1.1905341 3238318
0.084267758 -0.14776407 1.1892627 3238572
0.094348557 -0.1471459 1.187428 3434926
0.10080058 -0.14628336 1.1861271 3369134
-0.064009748 -0.14324732 1.1898333 3435179
-0.0579549 -0.14500584 1.1920739 3369388
0.088644661 -0.14088345 1.1902894 3500977
0.09410248 -0.13712333 1.1891919 3435186
0.099511057 -0.1369355 1.1861093 3500720
-0.07295721 -0.1328599 1.1896962 3566511
-0.067117974 -0.1354987 1.1912854 3566767
-0.059786558 -0.13778107 1.1925173 3500977
0.095262721 -0.12943521 1.1896439 3501234
0.10300384 -0.12668647 1.1867658 3501490
-0.083093077 -0.12008917 1.1887982 3566770
-0.076113567 -0.12438428 1.1913103 3632306
-0.069268368 -0.12903848 1.1926256 3632563
0.10447984 -0.117949 1.1885471 3699127
0.11183252 -0.11636946 1.1863121 3633076
-0.084512368 -0.11455028 1.1897976 3566770
-0.078431055 -0.11519265 1.1927087 3763892
0.10502496 -0.1088429 1.1899146 3633335
0.11157001 -0.10638923 1.1873614 3764407
-0.085026242 -0.10447644 1.1915655 3698868
-0.080643199 -0.10490679 1.1927012 3699126
0.10510834 -0.096859731 1.1898656 3962811
0.11162802 -0.096687503 1.1885998 3830969
0.11931234 -0.096603297 1.1856498 3830714
-0.086631402 -0.094583675 1.1896732 3699126
-0.081302658 -0.094918713 1.1926714 3830712
0.11193126 -0.086724743 1.1891222 4028606
0.12003881 -0.086502172 1.1855986 3962300
-0.08642666 -0.085079715 1.1903093 3830970
-0.081506781 -0.084549949 1.1926332 3962813
0.11184394 -0.07766027 1.1896875 4291522
0.11964686 -0.076942742 1.1859301 4094399
-0.087135069 -0.075030789 1.1903943 3962044
-0.082215771 -0.075125284 1.1926063 4093630
0.11298611 -0.066861361 1.1893606 4554438
0.11780156 -0.067424387 1.1855564 4357059
-0.086925454 -0.064971581 1.18997 4093886
-0.082340084 -0.064046979 1.1925641 4291009
0.11071762 -0.056402262 1.188731 4686026
0.11669811 -0.056260433 1.1855286 4685769
-0.085630774 -0.057650603 1.1885879 4159935
-0.080690704 -0.054969855 1.1913601 4225985
0.10307138 -0.046741392 1.1896968 5015248
0.10916458 -0.047778472 1.1869421 5014991
-0.078087263 -0.045040321 1.1905417 4292037
-0.072601587 -0.047026671 1.1923493 4619977
-0.050100751 -0.039267734 1.1919788 5279449
-0.042128243 -0.038944114 1.1918572 5016538
-0.029553724 -0.039574619 1.1916699 4950743
-0.019972218 -0.040863544 1.1915305 4950488
-0.010889476 -0.040338255 1.1913913 5147351
-0.00048786402 -0.038965255 1.1912289 5278422
0.010151839 -0.040852811 1.1901869 5212886
0.01945506 -0.039814889 1.1891811 5278423
0.029392332 -0.038571775 1.1895262 5147094
0.040319148 -0.038531255 1.1906112 4885460
0.049725384 -0.036646593 1.1897345 4950741
0.058817968 -0.035759278 1.190321 5016279
0.10116161 -0.036962051 1.1882865 5212370
0.1085585 -0.03782836 1.1855781 5212369
-0.076291978 -0.037994754 1.1903689 4423370
-0.074356377 -0.034719866 1.1899266 4554187
-0.049842514 -0.034231439 1.1916882 5147610
-0.040048972 -0.033109836 1.1898024 5081818
-0.030858947 -0.035013422 1.1896713 5016538
-0.019774707 -0.033125237 1.1896298 5278938
-0.010701597 -0.032149971 1.189489 5344730
-0.00022162497 -0.032607347 1.1882659 5673948
0.01007037 -0.034434885 1.1870511 5805277
0.01915136 -0.034066271 1.1869125 5541848
0.029321335 -0.032516316 1.1867528 5475544
0.039445166 -0.029831149 1.1865894 5213397
0.050126083 -0.030018754 1.1871349 5082070
0.059801944 -0.028837956 1.1886784 5016536
0.06866809 -0.026297174 1.1901346 5213915
0.079366893 -0.024884962 1.1899675 5279453
0.090319119 -0.024896756 1.1898023 5213659
0.099842034 -0.027437784 1.1880685 5212628
0.10641748 -0.027112633 1.1855677 5146833
-0.074297912 -0.028762586 1.1883018 4554443
-0.049171999 -0.025923289 1.1879113 5016281
-0.041870289 -0.026536591 1.1878035 5147611
-0.01073098 -0.026182294 1.1873322 5411294
0.059840515 -0.018769212 1.1862375 5148123
0.068558119 -0.018419236 1.1863046 5213915
0.078617372 -0.018235713 1.1876913 5213917
0.089369856 -0.017731413 1.1881037 5213659
0.097408488 -0.019145936 1.1860054 5212887
0.08983364 -0.010729 1.1857527 5279708
0.094374143 -0.010544688 1.1856835 5411037
-0.010245891 -0.17757031 1.1969286 3106213
-0.0045274533 -0.1773382 1.1968414 3105959
0.0067725973 -0.17753419 1.1966716 3105706
0.017202603 -0.17645614 1.19651 3105960
-0.021389851 -0.17114848 1.1970713 3105700
-0.013905194 -0.17209364 1.1977122 3105957
-0.0047509409 -0.17172205 1.1975725 3106216
0.0055677854 -0.17142138 1.1982657 3106217
0.016176127 -0.17047557 1.1979303 3171752
0.024041509 -0.16966288 1.1974707 3303337
0.035129696 -0.16656286 1.1962 3369130
