# .PCD v0.7 - Point Cloud Data file format
VERSION 0.7
FIELDS x y z rgba
SIZE 4 4 4 4
TYPE F F F U
COUNT 1 1 1 1
WIDTH 174
HEIGHT 1
VIEWPOINT 0 0 0 1 0 0 0
POINTS 174
DATA ascii
-0.041814085 -0.096670449 1.0486311 5134174
-0.035592806 -0.098595344 1.0462576 5134176
-0.041255709 -0.093823947 1.0523349 4871515
-0.053774618 -0.11149614 1.0406269 4936281
-0.0441553 -0.11451119 1.0369068 5199967
-0.039396547 -0.11521626 1.0360867 5397348
-0.060298521 -0.10608315 1.0470279 4673880
-0.052850921 -0.10599365 1.0441512 4870232
-0.043520816 -0.10789812 1.0430412 5068382
-0.033875726 -0.1095257 1.0420151 5068384
-0.025906719 -0.11049633 1.0424778 4476504
-0.058578689 -0.099332087 1.0535814 4607822
-0.051658716 -0.099286422 1.051594 4673623
-0.041105151 -0.10131934 1.0491666 5134174
-0.030731978 -0.10229599 1.0481057 4739419
-0.023200162 -0.10458322 1.0473944 4081746
-0.05692568 -0.095655486 1.0611138 4410445
-0.048505332 -0.093849182 1.0587102 4213839
-0.038332209 -0.095035657 1.0573733 4345429
-0.028595734 -0.096736833 1.05536 4016211
-0.020743713 -0.099032849 1.0544276 3621193
-0.046701662 -0.090709418 1.0628192 3884109
-0.037325636 -0.091483891 1.0620009 3752784
-0.027171567 -0.093030721 1.0601962 3621192
-0.020301074 -0.094731182 1.0581267 3686459
-0.064789198 -0.12576781 1.0389767 4673626
-0.057032064 -0.12523377 1.0351708 4870741
-0.048358411 -0.12739605 1.0328404 5265754
-0.038378879 -0.12864049 1.0318623 5397604
-0.029478177 -0.13059488 1.0343525 4608350
-0.063709609 -0.11716466 1.0437233 4673629
-0.055860158 -0.11757219 1.0398015 4870744
-0.047961734 -0.11945979 1.0369637 5134174
-0.035486571 -0.12057574 1.0368323 5397606
-0.027278814 -0.1246071 1.03859 4476760
-0.020300198 -0.1248412 1.0419991 4015442
-0.068701297 -0.11481915 1.0540383 3883351
-0.065238655 -0.1111964 1.0502887 4475995
-0.033127021 -0.11632385 1.0413268 5068641
-0.023502722 -0.11738338 1.0435059 4082513
-0.017488517 -0.12108883 1.0461037 3752531
-0.064181969 -0.10414295 1.0574942 4079443
-0.019532409 -0.11183062 1.049883 3621705
-0.015686031 -0.11634552 1.0491805 3751503
-0.019391239 -0.10591384 1.0551044 3490378
-0.057767291 -0.14744243 1.0299532 5002588
-0.054651499 -0.14791706 1.0293994 5528419
-0.065968134 -0.14017418 1.039219 4739163
-0.059523866 -0.14061999 1.0339456 5002333
-0.050343916 -0.14216614 1.0320313 5397092
-0.04092855 -0.1434056 1.0328337 5332066
-0.034810476 -0.14492062 1.033681 4740695
-0.066387691 -0.13344751 1.0393372 4082256
-0.059858669 -0.1337761 1.0361741 5068120
-0.03745158 -0.13844436 1.0338396 5200736
-0.028713586 -0.13936321 1.0363208 4345175
-0.021392044 -0.14108725 1.0379846 4278096
-0.02390017 -0.13154508 1.041187 4147028
-0.019365612 -0.13577251 1.0424831 3819087
-0.017793022 -0.12832355 1.0460494 3687502
-0.053615905 -0.16428401 1.0262065 5528423
-0.049298164 -0.16460408 1.0258771 5397348
-0.061804198 -0.15387049 1.0308166 4804702
-0.052608371 -0.15493968 1.0286627 5462626
-0.043334581 -0.15799847 1.0291047 5003105
-0.034658529 -0.15783359 1.0310199 4804440
-0.068454005 -0.14760442 1.0409973 3817824
-0.063446507 -0.14753872 1.0346296 4673622
-0.047825906 -0.1499183 1.0318532 5660265
-0.040276919 -0.15009291 1.0317767 5069150
-0.030862246 -0.1513505 1.0336087 4475986
-0.024585485 -0.14961727 1.0359819 4014924
-0.026646942 -0.14643899 1.0367877 4606547
-0.020514477 -0.14624459 1.0379809 3620428
-0.061631158 -0.17290057 1.0263357 4079956
-0.055397503 -0.17265375 1.0230356 5266270
-0.049618766 -0.17507026 1.0237598 5002845
-0.063004434 -0.16723537 1.0303816 4079963
-0.05615807 -0.16831905 1.0258358 5330781
-0.045422643 -0.16986871 1.0267369 5002331
-0.040829748 -0.16550788 1.0297873 5001816
-0.036129605 -0.16538866 1.032001 4540755
-0.030204849 -0.16103226 1.0358046 4213074
-0.058343243 -0.18960761 1.0243846 5265766
-0.05855006 -0.18450078 1.0263252 5068639
-0.049690008 -0.18443395 1.025808 4214103
-0.065021455 -0.17549723 1.0294522 1580089
-0.043981478 -0.17808391 1.0276068 4145996
-0.039990842 -0.17453694 1.0311955 4212054
-0.064874783 -0.19165373 1.0265145 3618132
-0.059778761 -0.19311853 1.0247155 5199718
-0.053113677 -0.19344537 1.0244241 4214875
-0.068450123 -0.24136022 0.98817003 528927
-0.063615642 -0.2425155 0.98676741 1517876
-0.066873789 -0.25775218 0.98659366 4419983
-0.080023721 -0.2498824 0.99326527 1651559
-0.074506454 -0.24774629 0.99099779 1782104
-0.063263595 -0.24936163 0.98567414 4154236
-0.057513088 -0.25113535 0.98974723 3028033
-0.070116684 -0.2480906 0.9990629 2369321
-0.062482126 -0.2464596 0.99543339 2040105
-0.065616071 -0.23356962 1.0114375 4146252
-0.080974065 -0.26076379 0.99551094 5077683
-0.074908018 -0.26224789 0.99152219 4617364
-0.065815695 -0.26386964 0.98959905 4549258
-0.059397973 -0.25935045 0.99122113 6582660
-0.079320326 -0.25065488 1.0021056 7695014
-0.070983142 -0.25010982 1.0040704 2040625
-0.062805973 -0.25005722 1.0032092 2172202
-0.057343014 -0.25400281 0.99819928 2760198
-0.078364432 -0.27487895 0.99035633 4683677
-0.072814457 -0.27572441 0.98936987 3831442
-0.08420974 -0.26876074 0.99630505 3299734
-0.077831499 -0.27000332 0.99252236 4683420
-0.069610305 -0.27232063 0.99122822 3960460
-0.10181398 -0.32729012 0.94319379 3829135
-0.093788758 -0.32821053 0.9421593 4223637
-0.087828994 -0.32939988 0.94073486 3960467
-0.10047342 -0.32161421 0.95058364 3498881
-0.09216015 -0.32227609 0.94923502 3895695
-0.084216326 -0.32296908 0.94914919 3631246
-0.097781047 -0.31262895 0.95737928 3499128
-0.090907693 -0.31417888 0.95550519 4025235
-0.08214099 -0.31638998 0.95585322 3499655
-0.095030203 -0.30557939 0.96330297 3826560
-0.088484913 -0.30700177 0.96240699 4156303
-0.080883279 -0.31048888 0.96212947 3630985
-0.092666268 -0.30235505 0.97244704 3893387
-0.086151958 -0.30191562 0.97059852 4157333
-0.07890369 -0.30433527 0.97097075 3762828
-0.089107476 -0.29916924 0.97992676 3762325
-0.082930155 -0.29558986 0.97868675 4420507
-0.076943755 -0.29845908 0.97890574 3828877
-0.087082036 -0.2908076 0.99081433 4222878
-0.080464423 -0.29000437 0.98587245 4552347
-0.07456547 -0.29349232 0.98626989 3631755
-0.086916581 -0.28142601 0.99381489 3627913
-0.078863636 -0.28208697 0.98973209 4683676
-0.071633324 -0.28471443 0.99128228 3892613
-0.068872444 -0.27759016 0.99521822 3563127
-0.1056856 -0.33717966 0.93917996 3033484
-0.097828388 -0.34089953 0.93843365 2897991
-0.087831318 -0.34152997 0.93701154 3891064
-0.080330782 -0.34352276 0.93730557 2638186
-0.10752114 -0.33006561 0.94603223 666715
-0.097418137 -0.33301306 0.9424094 4813457
-0.083519459 -0.33328182 0.94233704 3499654
-0.076552726 -0.33719462 0.9434346 3561592
-0.10557045 -0.32321733 0.9549551 6722
-0.081476346 -0.32761264 0.94973212 3694979
-0.075046971 -0.33002165 0.9500109 3233144
-0.077572815 -0.32168317 0.95750183 3104639
-0.073049828 -0.32489127 0.95864207 2640231
-0.07603775 -0.31582785 0.9651283 2907007
-0.071877591 -0.32014808 0.96705228 3099492
-0.095087968 -0.30524182 0.97848254 4089741
-0.074248649 -0.31037432 0.97282356 3496061
-0.069851369 -0.31402797 0.97577661 4278874
-0.090994351 -0.30079114 0.98433769 2972810
-0.072548792 -0.30494308 0.98155183 3757171
-0.069132097 -0.3090423 0.98225862 3748927
-0.088552803 -0.29753855 0.98860568 3630740
-0.070277564 -0.29959762 0.98629773 3953004
-0.099933788 -0.34860224 0.93687868 984897
-0.088843167 -0.34785748 0.93806529 4350584
-0.073360071 -0.33569512 0.95524299 4674411
-0.071509801 -0.33248788 0.96326268 6974583
-0.070691921 -0.32565814 0.97213894 3815753
-0.099153548 -0.31220728 0.98410827 5799072
-0.067663811 -0.31773457 0.9775638 5064001
-0.074760713 -0.34902018 0.95813191 7039097
-0.073723257 -0.34634513 0.96326083 7565430
-0.072421268 -0.34084392 0.9698773 8223350
-0.070757613 -0.33221 0.97346658 9076613
