# .PCD v0.7 - Point Cloud Data file format
VERSION 0.7
FIELDS x y z rgba
SIZE 4 4 4 4
TYPE F F F U
COUNT 1 1 1 1
WIDTH 1130
HEIGHT 1
VIEWPOINT 0 0 0 1 0 0 0
POINTS 1130
DATA ascii
0.14687057 -0.16982152 1.103797 8955594
0.15236448 -0.1686452 1.0999418 14080986
-0.12779421 -0.14284509 1.1193432 2381461
-0.12483026 -0.14822337 1.1209509 2776212
0.14748935 -0.16020961 1.1028039 3697834
-0.12789869 -0.1369362 1.1203579 2841752
-0.12579949 -0.14144488 1.1232744 2906774
0.14985515 -0.15041052 1.1034321 2646183
-0.12920104 -0.12633105 1.1217725 2907034
-0.12527388 -0.13079488 1.1235558 2775704
0.15092613 -0.14174911 1.1047251 3696546
0.15316452 -0.13730103 1.1041548 3761571
-0.12983485 -0.11680412 1.1206739 2973083
0.15509936 -0.13127065 1.1035488 3368880
-0.13045508 -0.10654362 1.1204664 3039134
0.1559435 -0.11968294 1.1034439 3500454
-0.13013455 -0.096092835 1.1204534 3171232
0.155351 -0.11123604 1.1047422 3631529
-0.13029961 -0.087290369 1.1200199 3302564
0.15410751 -0.10066162 1.1008313 3697839
0.15468881 -0.10102037 1.1037928 3763633
-0.12982477 -0.076771006 1.1211022 3368355
0.15579082 -0.089801028 1.1037703 3436468
0.17025776 -0.086871982 1.1032833 10992842
-0.12697919 -0.066481121 1.1212351 3697068
0.15454577 -0.076902144 1.1085178 3765679
0.15732858 -0.07940945 1.1034503 3830452
0.17011403 -0.082610324 1.1034169 11387079
-0.12563139 -0.058705326 1.1191785 3631022
-0.12333316 -0.055589776 1.1186323 3500456
0.15408109 -0.069881462 1.1058563 3830449
0.16060652 -0.070621178 1.102962 5207985
0.16729787 -0.072059393 1.1065663 10334913
-0.12515312 -0.046749655 1.1215769 3434161
0.15364857 -0.060915761 1.1058905 3893939
0.16065082 -0.061713137 1.1046479 8428221
-0.12470226 -0.036827676 1.1254206 6194370
-0.12001173 -0.034970336 1.1260555 4421311
0.15221922 -0.049066577 1.1083796 5734064
0.15838709 -0.053066604 1.1089892 10203587
-0.11835387 -0.028377555 1.1261505 6852289
0.15090527 -0.043021716 1.1065214 8955077
0.027523752 0.092491537 1.1210335 9737616
-0.091420919 -0.20534685 1.1277089 7635861
-0.08791247 -0.20607799 1.1301515 8100012
-0.10100263 -0.19503239 1.1312531 10535920
-0.09426719 -0.19797055 1.1284088 5996227
-0.087735549 -0.20249313 1.1302462 6394567
-0.11091274 -0.18330362 1.1241684 8431615
-0.1038903 -0.18615808 1.1264429 1526185
-0.097601056 -0.18896145 1.1300839 1262491
0.1256828 -0.19687247 1.1177354 11717846
-0.11902186 -0.17435351 1.1249127 7571711
-0.11207813 -0.17699707 1.1259817 1917611
-0.10502097 -0.17995703 1.1292617 2379673
-0.098270908 -0.18330488 1.131435 2644619
0.12760681 -0.19008571 1.1178203 5010097
0.13484968 -0.18738115 1.1143198 10599906
0.14194067 -0.18648562 1.1130658 14081762
-0.11155081 -0.16825482 1.1288677 2709143
0.12916899 -0.17955147 1.1180366 2909858
0.13559705 -0.17928191 1.1138363 4026283
0.14294471 -0.17972781 1.1096969 12307424
-0.11802055 -0.15406431 1.1254487 2775446
-0.11368579 -0.15856533 1.1279746 2775442
0.13733383 -0.17043169 1.1148129 3105445
0.14200892 -0.16969083 1.1095458 2578854
-0.11956477 -0.14684239 1.127911 2775449
-0.11521162 -0.14957736 1.1320949 2906778
0.1402231 -0.16079827 1.116327 3564451
0.14337778 -0.1598644 1.1121583 3433893
-0.12291135 -0.1380277 1.1295111 2840984
0.14221349 -0.15274535 1.1180485 3565217
0.14577255 -0.15065569 1.1125535 3499430
-0.12731376 -0.12579101 1.1268303 2841497
-0.12407124 -0.12788406 1.1325896 2907290
0.14870383 -0.1402263 1.115024 3237547
-0.12693225 -0.11638753 1.1286873 2973083
-0.12397023 -0.11712801 1.1328993 3038877
0.1523347 -0.13073708 1.1162713 3827369
0.15467496 -0.1296216 1.1099695 3564710
-0.12742136 -0.10642041 1.1302687 3039391
-0.12465742 -0.10856895 1.1338594 3170977
0.15308908 -0.12067176 1.1163396 3565735
0.15509658 -0.12107877 1.1101952 3500198
-0.12701656 -0.098297812 1.1326306 3170977
0.15376079 -0.11166034 1.115896 3631790
0.15491672 -0.11346613 1.1184468 3434923
-0.12671034 -0.087724075 1.1319206 3302823
0.15399981 -0.10021441 1.1163847 3566513
-0.12626562 -0.077700332 1.130852 3368614
0.15355593 -0.090930372 1.1167221 3632560
-0.12530458 -0.070069112 1.1323552 3565995
0.15278673 -0.080683388 1.1157939 3895728
-0.12154143 -0.055230185 1.1341707 3697842
0.15085876 -0.070586964 1.1147349 4158132
-0.11954837 -0.046981841 1.1330553 3502262
0.15032791 -0.059916358 1.1162822 4027837
-0.11647637 -0.037590802 1.1325613 3698611
0.14628796 -0.048374534 1.1208696 4619197
0.15159579 -0.051583678 1.1149096 4946612
-0.1226234 -0.030752175 1.129341 7180220
-0.11448351 -0.028330654 1.1361444 4815032
0.14648302 -0.041879188 1.1203805 5209534
0.15084565 -0.040139444 1.1128231 8425655
0.028617904 0.088330105 1.123853 9474444
-0.064519033 -0.21725294 1.1354494 8300241
-0.082492799 -0.20809704 1.1331414 7642055
-0.074927643 -0.20917267 1.1348015 4815810
-0.068269476 -0.21298313 1.1357975 5210825
-0.091039509 -0.19575615 1.1336467 932767
-0.084160104 -0.1995759 1.1348139 2382238
-0.075579733 -0.20308904 1.1365221 2251168
0.10755967 -0.20857924 1.1254835 6518691
0.11334585 -0.20779079 1.1237314 11319227
-0.092319295 -0.18899752 1.1357919 2447513
-0.086985528 -0.19278246 1.137502 2513045
0.11561209 -0.19967994 1.1242115 4617903
0.12246008 -0.19994521 1.1208432 10929103
-0.10122959 -0.1775254 1.1362448 2971544
-0.095488042 -0.18158218 1.1363313 2774929
0.11809888 -0.19050725 1.1237177 2909086
0.12289903 -0.18972537 1.1211171 3105187
-0.10817827 -0.16395339 1.1355981 2709911
-0.10368025 -0.16929412 1.1375322 2644371
0.1249333 -0.1800154 1.1218979 3368356
-0.11006872 -0.15729094 1.137728 2775444
-0.10526657 -0.16166955 1.1381646 2709910
0.1298846 -0.17040375 1.1228727 3368613
0.13413025 -0.16759646 1.1210995 3499683
-0.11286938 -0.14857186 1.1378313 2841497
0.13218816 -0.16311455 1.125355 3237027
0.1368791 -0.16055633 1.1224791 3302821
-0.11826679 -0.13668962 1.13757 2645144
-0.1147265 -0.13865352 1.1398474 2775964
0.14052945 -0.15081093 1.1233985 3237542
0.1447318 -0.14740662 1.1223985 3106215
-0.11962591 -0.12824245 1.1387837 2907291
0.1423983 -0.14135306 1.124051 3499683
0.14549841 -0.13947852 1.1223948 3303338
-0.12006336 -0.11831284 1.1400486 3039134
0.14754276 -0.13108519 1.1227891 3499947
-0.12463351 -0.10372081 1.1383431 3236770
-0.12249443 -0.10820467 1.141425 3236770
0.14981109 -0.12068842 1.1233668 3500458
-0.1243142 -0.097250946 1.138514 3237027
-0.1223744 -0.097811557 1.1423911 3302821
0.15271831 -0.11028239 1.1239681 3632048
-0.12383525 -0.087546133 1.1387703 3302824
-0.12192045 -0.088613577 1.142634 3302569
0.15142749 -0.10132194 1.1242037 3632047
-0.12381896 -0.078467749 1.1390358 3434408
-0.12069646 -0.076353319 1.1429211 3434665
0.14856748 -0.090120114 1.1243379 4026292
-0.12287734 -0.068136521 1.1392831 3631531
-0.12087905 -0.067512333 1.1431915 3631531
0.14898582 -0.082119122 1.1231711 4157366
-0.12255804 -0.061666649 1.139454 4025255
-0.11902905 -0.056768842 1.1416788 3632304
0.14900529 -0.070309356 1.1230711 4289211
-0.11516945 -0.047938794 1.1411361 3568048
0.14642859 -0.059427198 1.1242117 4094399
0.14861591 -0.063957676 1.125285 4224702
-0.1136682 -0.041915182 1.1395056 3764911
-0.10987718 -0.037844155 1.1419054 3895729
0.14434114 -0.050920367 1.1253749 4487616
-0.11380894 -0.023867808 1.1430502 6458567
-0.10910925 -0.027852081 1.1420529 3895996
0.1447524 -0.039865963 1.1246181 5735616
0.1517318 -0.036933087 1.1238887 9477559
-0.11317971 -0.021239333 1.1440922 6852289
-0.10993797 -0.021394111 1.143895 5933254
0.061059769 0.072238877 1.132478 9474701
-0.027667847 -0.22978933 1.1449192 7248329
0.0049566068 -0.23291872 1.1420878 5801654
0.012979896 -0.23215739 1.1410991 5210039
0.025785221 -0.23343761 1.1416373 6328255
0.033429082 -0.23380257 1.1411726 7379645
0.044961538 -0.23423143 1.140475 8430007
0.052739747 -0.23272201 1.1360486 8625323
-0.065535471 -0.2196375 1.1394486 9678537
-0.054355312 -0.22034577 1.1453044 4422071
-0.044990949 -0.22150868 1.1461911 2778029
-0.035346158 -0.22378558 1.1455514 2513574
-0.027887926 -0.22685584 1.1450183 2315684
0.0019235574 -0.22900997 1.1431844 2120102
0.013935341 -0.2295835 1.1424543 2185635
0.027093073 -0.22911562 1.1416864 2186146
0.032499004 -0.23046984 1.1413256 2316696
0.047894672 -0.2290127 1.1404541 4486314
0.055333741 -0.22891974 1.1380105 5997746
0.066646785 -0.22652063 1.138268 6063288
0.075431645 -0.22550465 1.1389214 6589614
0.083501488 -0.22610918 1.1384244 8757678
-0.070367888 -0.20743352 1.1400938 1855898
-0.063597873 -0.21035317 1.1428512 2249885
-0.055811804 -0.21314359 1.1463504 2381985
-0.047767859 -0.21567637 1.1465272 3039902
0.069700979 -0.21964091 1.1394339 2841504
0.075733855 -0.21938092 1.1390831 3302564
0.085304171 -0.21754526 1.1372323 4420011
0.094859838 -0.21705179 1.1322887 6984117
0.10427153 -0.21468341 1.1295085 6254993
-0.080915973 -0.19642273 1.1418452 2710418
-0.073161051 -0.20015436 1.1448638 2775447
-0.066400081 -0.20278281 1.1472105 2906776
0.088189319 -0.20980844 1.1382234 3171492
0.096577018 -0.20876002 1.1349498 3237285
0.10469875 -0.20782071 1.1302572 3629215
-0.083215535 -0.18946433 1.1461948 2775191
-0.075124785 -0.19341221 1.1481372 2906012
0.099073365 -0.1997072 1.136604 3040421
0.10587923 -0.19825824 1.1328489 3105703
0.11158171 -0.19870527 1.1295433 2777257
-0.098092064 -0.17454395 1.1427057 2710677
-0.091327608 -0.17884815 1.1457148 2709909
-0.085159585 -0.1828194 1.1477079 2709910
0.10765269 -0.19005162 1.1365712 3368100
0.11504319 -0.1884518 1.1317766 3302561
-0.098809913 -0.16804245 1.146057 2710421
-0.093937054 -0.17123768 1.1497718 2644886
0.11017454 -0.18244249 1.1381217 3040936
0.11822301 -0.17967016 1.1356335 3237031
0.12457946 -0.17699325 1.1324151 3368615
-0.10797124 -0.15447964 1.1438813 2776209
-0.10249458 -0.15935175 1.1481735 2841240
0.12079161 -0.17135508 1.1378164 3237287
0.12703419 -0.16928881 1.1323522 3302822
-0.10837245 -0.14792272 1.1486409 2710683
-0.10368682 -0.15151554 1.1510632 2841499
0.12985654 -0.16106719 1.134986 3237541
0.13472204 -0.15848154 1.1309528 3237798
-0.1100373 -0.13929687 1.1496037 2907293
0.13212188 -0.15247068 1.1376977 3237797
0.13667081 -0.15001026 1.1324887 3303334
-0.11598749 -0.12720031 1.1463034 2907805
-0.1135167 -0.12911606 1.1521709 2907805
0.13911885 -0.14082412 1.1351742 3434407
-0.11593619 -0.11792839 1.1480995 3039392
-0.11306731 -0.11938982 1.1532314 3039391
0.14152102 -0.13135514 1.1351821 3500202
0.14548157 -0.12848432 1.1295906 3631274
-0.11851425 -0.10867977 1.1503949 3170979
0.14409931 -0.12125896 1.1374569 3631791
0.1471674 -0.12068325 1.1315011 3566510
-0.11833723 -0.098361254 1.1518707 3105957
0.14375462 -0.11008721 1.1365803 3632305
0.14856848 -0.11125602 1.130247 3501227
-0.11835903 -0.088265978 1.1498775 3237546
0.14369334 -0.10098261 1.1359705 3698099
0.14797883 -0.10143346 1.130637 3698094
-0.11724325 -0.078569546 1.1503345 3434923
0.1454154 -0.091797955 1.1366844 3895479
0.14719653 -0.093734913 1.1305087 3895477
-0.1163134 -0.068164647 1.1512051 3566256
0.14630948 -0.080564298 1.1382972 4027579
0.14862688 -0.080010429 1.1348351 4157882
-0.11492732 -0.05929381 1.1506251 3567024
0.1447155 -0.070929289 1.1381638 4159422
0.14876282 -0.071152404 1.1334835 4289724
-0.11226487 -0.049518012 1.148553 3567791
-0.10875922 -0.047890984 1.1537375 3764403
0.14341709 -0.060782328 1.1370451 4356797
-0.10694383 -0.038873766 1.1477858 3830196
0.14117916 -0.051060364 1.136528 4619718
-0.10479945 -0.028127804 1.1503165 3896507
0.13771537 -0.039005663 1.1375775 4817095
0.14201021 -0.03970319 1.1340727 4948420
-0.11186859 -0.018638156 1.1521082 6916535
-0.10444593 -0.019515119 1.1513332 5210049
0.13731138 -0.032645851 1.1399039 5013440
0.1416413 -0.032373384 1.1373162 5998788
0.040688924 0.046211526 1.143805 5859448
0.048756111 0.045952946 1.1414571 6122362
0.054483697 0.045728773 1.1441169 6319482
0.065862499 0.04634732 1.147468 5330522
0.04139797 0.050668746 1.1423665 5792108
0.049210507 0.051155716 1.1413823 5527648
0.054698817 0.050087661 1.144232 5067354
-0.021761578 -0.23012318 1.147565 4354997
-0.014355972 -0.23155795 1.1490875 4684224
-0.0045601204 -0.23169228 1.1470318 4289976
0.0064684674 -0.22990108 1.1458949 2054307
0.016842287 -0.23094589 1.1452481 2777510
0.022262324 -0.23230363 1.1448863 4026798
0.038684752 -0.23308775 1.1438879 5604271
0.042597815 -0.23162612 1.1436983 4881326
-0.040176306 -0.21888228 1.1489887 3039902
-0.032265782 -0.22019178 1.1489815 2710943
-0.023749847 -0.22258314 1.151216 2645152
-0.013842423 -0.22600555 1.1538968 2514339
-0.0039569698 -0.22635974 1.1527648 2514851
0.0059644077 -0.22428526 1.1506997 2842787
0.015711326 -0.22426841 1.1479166 2908579
0.02540271 -0.22434878 1.1478285 3039651
0.035598155 -0.22556861 1.1483006 2908578
0.04494895 -0.22513588 1.1475074 2778020
0.054895714 -0.22388655 1.1446269 2646433
0.064226538 -0.22698085 1.1425501 5012145
0.075659111 -0.22880882 1.1418175 8955830
-0.052737448 -0.20986414 1.1502857 2841242
-0.042904221 -0.21246225 1.1516776 2775960
-0.033870369 -0.214221 1.1530269 2841500
-0.024376065 -0.21694696 1.1561246 2907551
0.0072631137 -0.2177199 1.1542227 3105184
0.016468151 -0.21779056 1.1536739 3170722
0.026389979 -0.21826428 1.1530707 3302053
0.036522783 -0.2181948 1.1524709 3170723
0.04704123 -0.21777484 1.1518586 3105188
0.056283355 -0.21737663 1.1496032 3170467
0.065641969 -0.21751088 1.1451492 3236258
0.075811379 -0.21449973 1.1426737 3171236
-0.068762735 -0.19773605 1.1513071 2906776
-0.062293742 -0.20031327 1.1519927 2907033
-0.053698469 -0.20180714 1.1551369 2841497
-0.044482481 -0.20639655 1.1576284 2775704
0.057639271 -0.21201019 1.1513982 3105443
0.06645868 -0.21243128 1.1508621 3105443
0.077330038 -0.20919615 1.1490453 3105956
0.085603848 -0.20662439 1.1450849 3105956
-0.079169929 -0.18624952 1.1522623 2644884
-0.072119474 -0.19023673 1.1547332 2775705
-0.063756451 -0.1935814 1.1568109 2841497
0.081335053 -0.20207569 1.1502824 3172006
0.089028478 -0.20003247 1.1488832 3040421
0.094842002 -0.19789214 1.1460953 2974628
-0.0874957 -0.17706031 1.1530266 2645144
-0.080778301 -0.17923166 1.1556294 2710425
-0.075535148 -0.18224567 1.1567454 2776216
0.098739967 -0.18943816 1.1463624 3171493
0.10362761 -0.1873558 1.1429763 3237026
-0.089977086 -0.1689864 1.1560048 2710424
-0.083500743 -0.17161146 1.1595089 2710937
0.10215941 -0.18315142 1.149601 3302823
0.10848626 -0.17928141 1.146174 3172005
0.11436997 -0.17639688 1.1450652 3172006
-0.098217934 -0.15713336 1.1542482 2841498
-0.093668386 -0.16000338 1.1588277 2907290
0.11152366 -0.17253265 1.1493564 3303592
0.11784118 -0.1694141 1.1477364 3237544
0.12379362 -0.16516933 1.1408262 3303337
-0.099459574 -0.14865515 1.1562889 2973342
-0.094663471 -0.15217541 1.1622001 3038879
0.1218843 -0.16185485 1.1483862 3237544
0.12611295 -0.15890503 1.1436784 3303336
-0.1069348 -0.13671702 1.1563673 2973342
-0.10077651 -0.14029725 1.1604064 2973600
0.13003308 -0.14999111 1.1449099 3368872
-0.10804085 -0.12883078 1.1580204 3039392
-0.10233392 -0.13007264 1.1633043 3236259
0.13189906 -0.14067881 1.1468261 3500460
0.13609463 -0.1382826 1.1408846 3434923
-0.10863084 -0.11916616 1.1588762 3170978
0.13343213 -0.13184004 1.1479132 3500719
0.13803859 -0.12946935 1.1443685 3500718
-0.11479616 -0.10762116 1.1566859 3237029
-0.11070666 -0.1093467 1.1624056 3237286
0.13897614 -0.12072343 1.1473475 3697329
-0.11436328 -0.098850116 1.1569176 3237543
-0.11134593 -0.098757014 1.1642576 3172263
0.14060985 -0.11166941 1.1470098 3697843
-0.11401258 -0.089301482 1.1601837 3303340
-0.11159436 -0.08847598 1.1650752 3303852
0.14092319 -0.1012409 1.1476982 3764149
-0.11377233 -0.079463333 1.1574515 3500716
-0.11052138 -0.078462534 1.1653053 3501229
0.14428553 -0.090918601 1.1463697 3764661
-0.11301057 -0.071440645 1.1576416 3566512
-0.10942154 -0.068302669 1.1618938 3632306
0.14180976 -0.080581114 1.146719 3896764
-0.10834752 -0.058725569 1.162111 3698357
0.1364675 -0.070335686 1.1495379 4291265
0.13990499 -0.071523406 1.1437629 4225217
-0.10631894 -0.049797844 1.1618882 3764408
0.13768141 -0.060765259 1.1490786 4554434
0.13993634 -0.060439695 1.142941 4488640
-0.1027967 -0.039266381 1.1627898 3895997
-0.098340496 -0.036361463 1.1658174 4027323
0.13776371 -0.049936347 1.1483893 4817354
-0.10099381 -0.029719241 1.1594887 3962044
-0.096622109 -0.028876968 1.1651332 4093118
0.12924945 -0.037268743 1.1522733 5014224
0.13425562 -0.040136348 1.1478831 4751563
-0.099465072 -0.019337207 1.1583663 4290235
-0.09432283 -0.019574359 1.1625972 4158908
-0.087841749 -0.017681897 1.165742 4028609
0.12783195 -0.030110039 1.1507859 4817874
0.1342008 -0.029990844 1.1451775 5145287
-0.091744646 -0.01298777 1.1604993 4487616
-0.085996136 -0.010709837 1.1645008 4356800
0.11960761 -0.017186701 1.151431 5276623
0.12556182 -0.020387068 1.1472609 5604813
0.13479519 -0.022009283 1.1452651 6720449
-0.083476871 -0.0038735271 1.1658881 5671109
0.11811273 -0.011583261 1.1531159 5802961
0.12418076 -0.012534201 1.1486233 6787017
0.043071352 0.0077896789 1.1587142 12972031
-0.011647673 0.020376362 1.1603291 5869264
0.02059664 0.015133426 1.1602645 7515376
0.028050471 0.014408648 1.1598005 8764660
0.037607532 0.013509721 1.1592065 10146554
0.044171225 0.012163505 1.1587771 10870005
-0.069150224 0.031599239 1.1580607 8028800
-0.064022988 0.031720757 1.1577597 7305855
-0.0070953704 0.021250822 1.1620888 5671370
-0.003788095 0.021092914 1.1618878 5869265
0.019362837 0.019987546 1.1604803 6988787
0.023772538 0.019776992 1.1602122 7185904
0.11019759 0.024503224 1.1552178 6314850
-0.062560022 0.036657274 1.1578176 8028802
0.10728516 0.028183356 1.1554987 6117979
0.0834416 0.040065348 1.1492461 5593178
0.085631266 0.039960802 1.1491129 5658970
-0.01882619 -0.22028583 1.1597058 2973083
-0.013349747 -0.22165772 1.1593403 2973595
-0.0038880333 -0.22169647 1.1594453 2973598
-0.038191497 -0.20825723 1.161209 2842012
-0.031899054 -0.20994568 1.1607857 2776219
-0.022617433 -0.21291161 1.1616745 2907806
-0.013021996 -0.21479335 1.1626871 2907807
-0.0025112275 -0.21584085 1.1622078 2973599
0.0063002277 -0.21384984 1.1590705 3039136
0.017100379 -0.2133922 1.1591105 3170723
0.0270158 -0.21372852 1.1578436 3236770
0.036768992 -0.21371545 1.1565965 3170979
0.045799479 -0.21393308 1.1560539 3170980
0.05251883 -0.2125883 1.1556942 3171236
-0.048816357 -0.19886671 1.1621157 2842012
-0.042152576 -0.20149079 1.1631006 2842011
-0.032618463 -0.20423335 1.163463 2842012
-0.024335217 -0.20612019 1.1644574 2907805
0.021939613 -0.2097224 1.1616033 3302309
0.027923245 -0.20882022 1.1601291 3302308
0.036476746 -0.20907149 1.1582536 3171236
0.047097057 -0.21010864 1.1560891 3171236
0.057858091 -0.20929193 1.1571442 3105443
0.067706853 -0.20782021 1.1559342 3171492
0.074270293 -0.20622417 1.1545891 3040420
-0.069287881 -0.18678528 1.163686 2841497
-0.060641538 -0.18996361 1.1636138 2907291
-0.052278768 -0.19305146 1.1643784 2907549
-0.045556549 -0.19461477 1.1660556 2907551
0.071329154 -0.20093842 1.1589277 3040420
0.07830359 -0.19937834 1.1566603 3106213
0.086104989 -0.19709176 1.1541542 3106214
-0.070348814 -0.18029562 1.1659439 2907290
-0.06383425 -0.18352804 1.1669654 2973340
0.082868248 -0.19257566 1.1584877 3302823
0.08887127 -0.19041198 1.1557894 3237030
0.095171526 -0.18730801 1.1556845 3237031
-0.087109596 -0.16594717 1.1653562 2841497
-0.078877091 -0.16983685 1.1652875 2842012
-0.072739258 -0.17243311 1.1673188 2907547
0.10066959 -0.17985725 1.1547201 3368361
0.10584441 -0.17682558 1.1535766 3237285
-0.088292971 -0.15996854 1.1656018 2973085
-0.081381112 -0.16059595 1.1679157 3039135
0.10327019 -0.17281628 1.1538471 3368615
0.10998267 -0.16982299 1.1542652 3237799
0.11466046 -0.16669773 1.1533502 3303337
-0.095029965 -0.1466922 1.1663916 2973857
-0.089698777 -0.15052074 1.1675216 3039137
-0.083681673 -0.15175429 1.1695778 3104930
0.11241089 -0.16246659 1.1556123 3172264
0.11867881 -0.15983772 1.153981 3238059
-0.0957544 -0.13847521 1.167678 3039650
-0.091784477 -0.14234228 1.1703353 3105700
0.12247626 -0.15030698 1.1555256 3369132
0.12654278 -0.15060906 1.1531166 3434410
-0.098038256 -0.1298151 1.1687837 3171236
0.12482463 -0.14231807 1.1566689 3500719
0.12822935 -0.14014293 1.1553279 3435183
-0.10467073 -0.11736149 1.1678251 3302823
-0.099972785 -0.11963752 1.1701517 3171495
0.12947585 -0.13009211 1.1553667 3566514
-0.10590066 -0.10869902 1.16961 3368873
-0.10218672 -0.11009999 1.1710976 3368875
0.13257615 -0.12101272 1.1544286 3697588
-0.10628349 -0.099639304 1.1711134 3303850
0.13476798 -0.11157952 1.1572095 3763892
0.13781416 -0.11095075 1.1536111 3698099
-0.10718355 -0.089354306 1.1703998 3435181
-0.10122722 -0.090191968 1.1724266 3435438
0.13631742 -0.10153382 1.157985 3829942
0.13901347 -0.1010377 1.1549761 3764149
-0.10565016 -0.079757005 1.1709912 3501229
0.13697572 -0.088194706 1.1583374 3896505
0.14108732 -0.091218174 1.1558179 3830455
-0.10459511 -0.06992621 1.1707546 3632563
-0.10007517 -0.066848516 1.1730433 3567542
0.13482377 -0.080859639 1.1561035 4027837
0.13977909 -0.084617041 1.1542672 3896505
-0.10335486 -0.059913337 1.1707691 3829940
-0.099746019 -0.060178958 1.1732194 3699127
0.13387372 -0.071225695 1.1576834 4291009
-0.1024694 -0.049792249 1.1704791 3895737
-0.098570958 -0.049252115 1.1734704 4027576
0.13462418 -0.06119692 1.1572651 4422849
-0.10100771 -0.043139588 1.1697857 4158911
-0.096232459 -0.039718337 1.1716069 4093372
0.13501868 -0.051450312 1.1570265 4817355
-0.09205927 -0.030498743 1.171167 4093630
-0.087000012 -0.027361155 1.1734256 4094397
0.12816036 -0.040385507 1.1584824 5080014
0.13237171 -0.043733772 1.1559069 4883149
-0.089662433 -0.022953823 1.1697043 4028348
-0.084955022 -0.020658769 1.1709954 4028864
0.12413029 -0.030529901 1.1585656 4949202
-0.080911264 -0.011259802 1.1713499 4029123
-0.076465502 -0.0092939287 1.1733301 3963586
0.11860189 -0.020416692 1.1600816 5146069
0.12165846 -0.02490066 1.157096 5080276
-0.079828531 -0.0034361407 1.169693 5342665
-0.072384223 -0.0017464459 1.1733092 4882633
-0.0089273117 -0.0010050908 1.169562 6070261
-0.0022671781 -0.001323089 1.169157 6528744
0.0043929517 -0.0016410872 1.1687522 8827627
0.019933254 -0.0023830757 1.1678073 10340848
0.028623506 -0.0034346879 1.1672604 8895736
0.036073737 -0.0044907704 1.1667869 6266608
0.11022407 -0.0072247759 1.1613004 5475287
0.11442068 -0.010901771 1.1592729 5475028
-0.06874454 0.004128471 1.1712611 5999306
-0.062048722 0.0049191713 1.1708866 5540557
-0.053380821 0.0078605115 1.1697899 5803727
-0.040456764 0.0089188144 1.1717259 4950220
-0.031575955 0.0073693469 1.1711529 5016280
-0.021932814 0.0063079 1.1701481 5411294
-0.012024144 0.0058699176 1.1677028 5806569
-0.0019669719 0.0053591505 1.1687341 7120874
0.0076658819 0.0056307316 1.1687711 12379901
0.018053869 0.0046768785 1.1655943 13891069
0.02778903 0.0039910376 1.1643209 12969723
0.037778985 0.003727898 1.164606 9946095
0.047833763 0.0030054078 1.1643912 10013177
0.057620104 0.0044265911 1.1636103 7449069
0.064476132 0.0058894828 1.1654046 5411552
0.10742453 -0.0031593069 1.1600827 6526426
-0.03823958 0.013765007 1.1717365 6264275
-0.030775737 0.014278986 1.1688027 5803990
-0.021284372 0.014496051 1.1667421 5345755
-0.011244498 0.015279494 1.1661688 5412839
-0.0016233809 0.015400462 1.1661021 5676266
0.0074820546 0.013981298 1.1678818 7253489
0.017166728 0.013386376 1.1654279 8436213
0.026947826 0.010712616 1.1637664 12051453
0.041547418 0.014457151 1.1630092 10082302
0.049328282 0.013345383 1.1625144 10607102
0.057746608 0.012097418 1.1619778 7515119
0.064813361 0.011110544 1.1628653 6068200
0.00083583593 0.020842567 1.1656146 6001365
0.0052607292 0.020631291 1.1653455 6396124
0.11771609 0.021036066 1.1586783 6447199
-0.0090717301 -0.21129271 1.1674079 3039391
-0.0014335103 -0.21112451 1.1684625 3039135
0.009863209 -0.2121968 1.1662568 3104930
-0.037480578 -0.19875607 1.1694632 2776478
-0.031048246 -0.20001253 1.1710486 2842271
-0.021125834 -0.2021848 1.1725821 2907807
-0.01198688 -0.20449558 1.1724864 2908063
-0.0019738898 -0.20585333 1.1729587 2973600
0.0083376886 -0.20535006 1.1718934 3105187
0.018199796 -0.20544517 1.1703832 3236773
0.027902242 -0.20454994 1.1691513 3237029
0.038817503 -0.20515856 1.1685519 3171237
0.04825788 -0.20649895 1.1656468 3171236
0.057793282 -0.2053781 1.1645352 3105444
0.066634059 -0.20428616 1.1631171 3171493
-0.049012233 -0.18941264 1.1736293 2841758
-0.041002404 -0.19212551 1.1738757 2907551
-0.032005299 -0.19373731 1.1761237 2842271
-0.021339428 -0.19546738 1.1766186 2908064
-0.014666356 -0.19691165 1.1761798 2973857
0.0066405535 -0.19792897 1.1748844 3105444
0.019523805 -0.19754352 1.1741306 3237030
0.02947678 -0.1984137 1.1727121 3302823
0.03914148 -0.19808984 1.1720243 3171495
0.048517838 -0.19711462 1.1710267 3105703
0.058174342 -0.19782901 1.170223 3105703
0.067864709 -0.19774276 1.1677458 3105702
0.076132759 -0.19555742 1.1645271 3105958
-0.059971217 -0.18114397 1.1729665 2973598
-0.051826011 -0.18337037 1.1767799 2907551
-0.041936465 -0.18576017 1.1781268 2908065
0.070261411 -0.18953696 1.171352 3237288
0.07894633 -0.18917266 1.1683971 3302823
0.087508842 -0.18745804 1.1649481 3237287
-0.068721369 -0.16948062 1.1750412 3105183
-0.061253134 -0.17330045 1.1777532 2974112
-0.052973744 -0.17594656 1.1790704 2842786
0.080912277 -0.18256424 1.1709241 3171750
0.089615747 -0.17933148 1.1691657 3172008
0.097488269 -0.17783579 1.1643991 3303081
-0.076475352 -0.1593619 1.1736034 3104930
-0.070025697 -0.16215168 1.1791517 3170978
0.092587352 -0.17115763 1.1705654 3303337
0.10028429 -0.16994454 1.1678889 3368873
0.1070803 -0.16887663 1.164305 3237543
-0.085531726 -0.14618406 1.1765325 3040164
-0.078946933 -0.15028811 1.1771462 3105701
-0.072553918 -0.1551252 1.1808443 3302822
0.10243052 -0.16107866 1.1702765 3303597
0.10967317 -0.15887956 1.1655377 3238059
0.1167797 -0.15611482 1.1635568 3303852
-0.087588266 -0.13977543 1.1779562 3106213
-0.079696089 -0.14230824 1.1816447 3172007
0.1112643 -0.14998873 1.1698769 3369387
0.11896613 -0.15001632 1.1656103 3435181
-0.094361141 -0.12914142 1.1762208 3237030
-0.087583601 -0.130254 1.1801285 3237800
-0.081256762 -0.13407275 1.1819791 3303594
0.11338785 -0.14404169 1.1701257 3500972
0.12179084 -0.14007498 1.1664859 3500976
0.12632242 -0.13725947 1.1615391 3500977
-0.094935685 -0.11989613 1.1783079 3237545
-0.090130866 -0.12189808 1.1819726 3303852
0.12423523 -0.13075164 1.1698716 3566772
0.12729451 -0.13112292 1.1656702 3566515
-0.096953928 -0.11008593 1.1788549 3369389
0.1255594 -0.12127363 1.170071 3763639
0.12866955 -0.12035633 1.1650137 3763639
-0.10315046 -0.095890775 1.1777186 3435181
-0.097783625 -0.099923216 1.1805267 3435438
0.12674652 -0.11023462 1.1703246 3895737
0.13141571 -0.11020046 1.1648604 3764149
-0.10226926 -0.089479253 1.1789235 3435438
-0.096703947 -0.090484396 1.1826339 3501231
0.12702364 -0.10461959 1.1704729 3961530
0.13227615 -0.10074968 1.1650866 3961528
0.13944232 -0.097636998 1.1619226 3895735
-0.10149723 -0.080272965 1.1797491 3501489
-0.097060129 -0.080338791 1.1823723 3501490
0.12791039 -0.086651534 1.1709476 4159679
0.13309406 -0.091454118 1.165761 3962041
0.13955243 -0.095406212 1.1619816 3895735
-0.1016624 -0.072891399 1.1789734 3501747
-0.096552745 -0.070013233 1.1814269 3567541
0.12747686 -0.080252148 1.1711611 4225473
0.1308977 -0.080812283 1.1669326 4159424
-0.094346866 -0.05993038 1.1805228 3764919
0.12766488 -0.071380995 1.1714102 4422597
0.13139482 -0.070739478 1.1671987 4357059
-0.093384311 -0.050191488 1.1805797 3896505
-0.088369653 -0.050435029 1.1848561 3962298
0.12806371 -0.060768899 1.171698 4685767
0.13189194 -0.060666677 1.1674647 4422851
-0.091586083 -0.041095704 1.1789072 4027836
-0.086185262 -0.039728194 1.1839473 4028094
0.12659079 -0.050040409 1.169978 4948684
0.13208951 -0.052071448 1.1646987 4751818
-0.089589939 -0.033036381 1.1774217 4093632
-0.083518356 -0.030028388 1.1830083 4094399
0.12050074 -0.039395656 1.1727744 5080784
0.12446372 -0.040525906 1.1676953 5211343
-0.079951331 -0.021710165 1.1815548 4094402
-0.073135048 -0.019039057 1.1838704 4226244
-0.066521481 -0.017708696 1.1845189 4620744
-0.012638066 -0.019155763 1.1812761 5412064
0.0097902603 -0.020226628 1.1799126 6463211
0.01764898 -0.024442323 1.1793221 6397929
0.027339315 -0.024263747 1.1787517 6397929
0.036640912 -0.022795111 1.1782424 6003432
0.11781465 -0.029914863 1.1707067 5081042
0.12253127 -0.033102132 1.164821 5081041
-0.071698412 -0.011153661 1.178872 4160963
-0.063286737 -0.010757864 1.1836717 4752075
-0.048080016 -0.0084583536 1.1836951 4949201
-0.041379221 -0.0093411133 1.1832712 5016022
-0.031920969 -0.01089564 1.1819956 5213659
-0.022197466 -0.01224985 1.1808131 5411552
-0.012393631 -0.013511926 1.1806254 5740773
-0.0022682119 -0.014022641 1.1808108 6003172
0.0077998452 -0.014489733 1.1797982 6331366
0.017715262 -0.014868811 1.1765925 6989552
0.027810808 -0.015365608 1.1763792 6792432
0.037829127 -0.015819214 1.1751194 5937640
0.046470411 -0.015375711 1.1768742 5806054
0.057277702 -0.014614433 1.1772568 5674725
0.064061627 -0.013812684 1.1768774 5674983
0.10963464 -0.018521339 1.1740324 5146841
0.11519468 -0.020699337 1.1679114 5080789
-0.06799987 -0.0027625114 1.1770278 4554184
-0.064344704 -0.0021893233 1.179834 4751049
-0.048945982 -0.0027358457 1.18191 4818129
-0.041572567 -0.0030644536 1.1806607 5015507
-0.032261197 -0.0034053549 1.1766902 5147609
-0.022260081 -0.0038440153 1.1747805 5346018
-0.012512008 -0.0047610998 1.1767914 5937898
-0.0021173898 -0.0060103238 1.17636 6462952
0.0082921814 -0.0057355016 1.174859 8303605
0.017573169 -0.0062548593 1.1732745 8501495
0.027305037 -0.0076767802 1.1718397 7252467
0.038657017 -0.0076978132 1.1720059 6069484
0.047882944 -0.0070726126 1.1723394 6135528
0.058129806 -0.0080277994 1.1748055 5741031
0.067595333 -0.0083257407 1.1758263 5543655
0.077169582 -0.0075114518 1.1762838 5477092
0.0872702 -0.0066660345 1.1757087 5739747
0.098596632 -0.0074569806 1.1750127 5280481
0.10744157 -0.01040896 1.1707003 5015513
0.11268039 -0.012571692 1.168013 4949463
-0.060986664 0.0036107823 1.1767983 4818122
-0.051532138 0.0041531473 1.1762527 5147606
-0.042832397 0.0044831187 1.1757456 4818639
-0.034254991 0.0023344457 1.1751732 5344472
0.010325335 0.00076492131 1.1724793 12971007
0.014753091 -5.5134296e-006 1.1721936 12905215
0.039257124 -0.0011754856 1.170704 5807584
0.05262297 -0.0018136501 1.1698914 6004710
0.058716603 -0.0011462867 1.169549 5807083
0.067730896 0.00084480643 1.1712101 5477863
0.07633841 -6.8962574e-005 1.1732109 5542628
0.088165581 -0.0037070587 1.1757424 5673698
0.098710835 -0.0022105202 1.1736566 5804766
0.10385868 -0.0042599663 1.1667765 5147865
0.070994556 0.00848943 1.1691025 5412324
-0.0078674778 -0.20026438 1.1796863 3039650
-0.0014694575 -0.20121527 1.1792784 3039650
-0.027732063 -0.19140971 1.181126 2842271
-0.020980779 -0.19173205 1.1807156 2973857
-0.010665098 -0.19335032 1.1813213 2973857
-0.00095344335 -0.19560167 1.1819444 3039395
0.009725783 -0.19415563 1.1806023 3171237
0.019032318 -0.19316182 1.1793661 3237030
0.029402435 -0.19311854 1.1792243 3302569
0.037697658 -0.19365048 1.1785103 3237546
-0.046826568 -0.18001014 1.1825947 2908065
-0.039319221 -0.1813367 1.1821098 2973857
-0.030690569 -0.18354039 1.1825348 2973857
-0.021000486 -0.18593526 1.1830091 2973858
-0.012661735 -0.18721297 1.1843628 3105444
0.018950617 -0.18872234 1.182441 3237030
0.030691478 -0.1877719 1.1817715 3302825
0.039600872 -0.18773365 1.1809351 3171754
0.049303155 -0.18867086 1.1786354 3171752
0.059602145 -0.18872322 1.1774325 3171753
0.068144105 -0.18599994 1.1765925 3237546
0.076399371 -0.18395749 1.1751599 3303592
-0.057505477 -0.17003427 1.1835217 2908579
-0.049324442 -0.17264952 1.1849635 2908579
-0.039537482 -0.174612 1.1852356 3105444
-0.030934639 -0.17682102 1.1857531 3105443
0.063428491 -0.1817798 1.1800029 3303339
0.071471095 -0.17985326 1.1782455 3303082
0.079822704 -0.17808637 1.1757016 3237545
0.085845977 -0.17537282 1.1748508 3303850
-0.065951094 -0.1583364 1.1843666 3302822
-0.059437063 -0.16301593 1.1860973 3040165
-0.052413408 -0.16718259 1.1873116 3040167
0.075165004 -0.17327398 1.1795555 3303598
0.081350788 -0.1695461 1.1783543 3238061
0.089876294 -0.16783752 1.1759461 3303596
0.097598627 -0.16576879 1.1744347 3369131
-0.075183913 -0.14735393 1.1852373 3171751
-0.068872735 -0.15132864 1.1861607 3368615
-0.062016543 -0.15539132 1.1882281 3171751
0.099820867 -0.15933415 1.1759948 3369134
-0.076805472 -0.14021735 1.1855431 3369130
-0.070623502 -0.14255351 1.1881139 3434922
0.10151142 -0.14978263 1.1777257 3435183
-0.078022942 -0.13158908 1.1872048 3434923
0.10461414 -0.14283417 1.177898 3501232
0.11147273 -0.14001049 1.1769605 3435694
0.11811753 -0.13851193 1.1740159 3501232
-0.085691825 -0.12006147 1.1876646 3369646
-0.080076471 -0.12413076 1.188882 3435182
0.11572756 -0.13101296 1.1783866 3567282
0.11971785 -0.1306107 1.1759748 3567027
-0.09349142 -0.10694862 1.1875105 3501231
-0.088950753 -0.11117198 1.1898729 3435439
0.11611816 -0.12309868 1.1785957 3829686
0.12124076 -0.12048121 1.1765866 3829431
-0.093324587 -0.1035682 1.1875998 3501231
-0.088692516 -0.10059057 1.1890824 3567024
0.12402995 -0.11123852 1.1771376 3830201
-0.092629448 -0.089483105 1.1879718 3632818
-0.089326501 -0.090414762 1.1897527 3698612
0.12662464 -0.10072561 1.1766239 3896507
-0.092156768 -0.079905242 1.1882249 3633333
-0.088166967 -0.08036577 1.1907805 3764919
0.12693407 -0.090510517 1.1764042 4093886
-0.092173085 -0.071094647 1.1884844 3633334
-0.087911546 -0.07044851 1.1914573 3830201
0.1244563 -0.080778852 1.1775608 4291523
-0.08707267 -0.060137678 1.1901734 3896506
0.12444785 -0.070269048 1.1772461 4619975
-0.083328754 -0.050759062 1.190274 4028348
0.11929865 -0.058653854 1.1802981 5146320
0.12354535 -0.06105287 1.1789733 4883148
-0.081236765 -0.041398484 1.1889927 3962814
-0.076051533 -0.040353965 1.1912924 3963072
0.11865553 -0.049749117 1.1790943 5146577
0.12220919 -0.051489547 1.1768279 5080527
-0.079435781 -0.032397509 1.1888635 4028607
-0.073062867 -0.031010047 1.1906638 4291526
-0.023081589 -0.031456791 1.1895528 5147865
-0.015618946 -0.031586446 1.1891057 5344731
0.0006834697 -0.031458199 1.1881412 5345501
0.007457546 -0.031781636 1.1877295 5739743
0.017418277 -0.034455456 1.1857231 5936862
0.026465926 -0.034904525 1.1855066 5871068
0.036756076 -0.034313805 1.185915 5739228
0.054876078 -0.034045689 1.1848466 5213656
0.11721641 -0.040788792 1.1793426 4949970
-0.071049795 -0.023592785 1.1886239 4422856
-0.062299963 -0.019292407 1.1900525 4686797
-0.051894318 -0.018664934 1.1896352 4884690
-0.041510787 -0.020639859 1.1904638 4950486
-0.03117311 -0.02187106 1.1889784 5213659
-0.022797238 -0.023394078 1.1865655 5279707
-0.012698844 -0.025025047 1.1863188 5345244
-0.0024886467 -0.023876607 1.185657 5411808
0.007274677 -0.025452107 1.1848284 5806052
0.016375383 -0.028990582 1.183273 6068964
0.028359134 -0.029939249 1.1825334 6068963
0.038538367 -0.028067082 1.1829088 6003173
0.047106691 -0.026779518 1.1833165 5608417
0.057311941 -0.027291954 1.1832967 5411038
0.064242966 -0.027693272 1.1844767 5279709
0.10883419 -0.028039753 1.1808929 5212630
0.11418325 -0.031842612 1.1787163 5015248
-0.058439348 -0.013747364 1.1881639 4949712
-0.051688064 -0.014069706 1.1877534 4949713
-0.041561127 -0.014553234 1.1871377 5016279
-0.032202881 -0.015376538 1.1865578 5213659
-0.023613304 -0.016539618 1.1860135 5345501
0.048990831 -0.019441471 1.1816161 5871590
0.057457749 -0.019281 1.1811179 5871847
0.067913041 -0.017598689 1.1825505 5543139
0.075249538 -0.016826525 1.1824238 5280225
0.099800333 -0.018058255 1.1826476 5411294
0.10542412 -0.019674048 1.1797152 5279196
0.077566072 -0.011770144 1.180144 5411556
0.087213829 -0.010536581 1.1796072 5412066
0.098465964 -0.011073828 1.1789231 5477344
0.10510603 -0.013649791 1.1784531 5213404
0.00058825128 -0.19122991 1.1874667 3105189
-0.019245777 -0.18183704 1.1899227 3039906
-0.0096533597 -0.18444259 1.189706 3039908
-9.1414899e-005 -0.18611151 1.190998 3105447
0.010371516 -0.18576536 1.1877978 3105702
0.019445406 -0.18492872 1.1865317 3171750
0.028425271 -0.18494397 1.185998 3237289
0.039947972 -0.18363345 1.185352 3237548
0.050143272 -0.18412024 1.1847322 3171752
0.059205756 -0.18455294 1.1841812 3171752
-0.046310265 -0.16905373 1.1909031 3039909
-0.038467318 -0.17018357 1.1912949 3105701
-0.030367501 -0.17326605 1.1923835 3105443
-0.020976234 -0.17915095 1.1931108 3040163
0.0097571462 -0.17970563 1.1912692 3105960
0.021178164 -0.17913538 1.1906075 3105958
0.030276069 -0.17803599 1.1892977 3237545
0.040630877 -0.1774396 1.1876031 3237547
0.050629664 -0.17759046 1.1864984 3237544
0.060680203 -0.17784515 1.1859784 3237545
0.069344766 -0.17624216 1.184491 3303339
-0.057060409 -0.15910263 1.1918336 3172009
-0.048676398 -0.16273321 1.1936344 3105961
-0.039382488 -0.165437 1.1946065 3171752
0.044372208 -0.17086208 1.1894728 3303337
0.05119187 -0.1711877 1.1890582 3303593
0.061307125 -0.17069276 1.1884719 3303594
0.070542119 -0.16848379 1.1867355 3303596
0.077255525 -0.16722134 1.1836178 3238062
-0.064003795 -0.15024295 1.1925061 3434409
-0.058198791 -0.15235919 1.1949289 3237547
-0.049931455 -0.15515789 1.1955347 3237805
0.07193502 -0.16127616 1.188117 3238318
0.08128266 -0.15875758 1.1865133 3238572
0.091287926 -0.15897621 1.184229 3434926
0.097728029 -0.1586473 1.1826535 3369134
-0.06581977 -0.14114952 1.1941142 3435179
-0.05985504 -0.14350787 1.1960206 3369388
0.086301267 -0.15232784 1.1875263 3500977
0.09202157 -0.14903265 1.1862811 3435186
0.097284585 -0.14922619 1.1829563 3500720
-0.073794499 -0.13001156 1.1946834 3566511
-0.06815204 -0.13320641 1.1959249 3566767
-0.061008517 -0.13616714 1.1967499 3500977
0.093887016 -0.14149582 1.1868926 3501234
0.10171007 -0.13935289 1.1837349 3501490
-0.082770795 -0.11637136 1.1946148 3566770
-0.076102182 -0.12134559 1.1966784 3632306
-0.069652006 -0.12662724 1.1975433 3632563
0.1040424 -0.13084176 1.1856884 3699127
0.11140206 -0.12984896 1.1831582 3633076
-0.083641127 -0.11076328 1.1958332 3566770
-0.077520296 -0.1120342 1.1984389 3763892
0.10546346 -0.12186799 1.1872822 3633335
0.1120842 -0.11992328 1.1844963 3764407
-0.083169162 -0.10074509 1.1979032 3698868
-0.078796938 -0.10159788 1.1988211 3699126
0.10662161 -0.10994384 1.1875633 3962811
0.11306848 -0.11030927 1.1860005 3830969
0.12059234 -0.11081173 1.1826993 3830714
-0.083959937 -0.09069372 1.196364 3699126
-0.078556448 -0.091594793 1.1991003 3830712
0.11428884 -0.10043427 1.1867857 4028606
0.12222104 -0.10081813 1.1828959 3962300
-0.082873866 -0.081270374 1.1972545 3830970
-0.077829033 -0.081252769 1.1993606 3962813
0.11504167 -0.091420352 1.1876068 4291522
0.12270503 -0.091277018 1.1835116 4094399
-0.082671553 -0.071206041 1.1976523 3962044
-0.077688336 -0.071806312 1.1996295 4093630
0.11713463 -0.080760092 1.1875281 4554438
0.12170832 -0.081625596 1.1834897 4357059
-0.081577271 -0.061196521 1.1974994 4093886
-0.0768179 -0.060764834 1.1999018 4291009
0.11579019 -0.070126452 1.1872965 4686026
0.12161285 -0.070412606 1.1838244 4685769
-0.079691574 -0.053978566 1.196263 4159935
-0.074413583 -0.051835623 1.1988758 4225985
0.10909325 -0.059862245 1.1888863 5015248
0.11494172 -0.061346341 1.185823 5014991
-0.070966437 -0.04215458 1.1982141 4292037
-0.065607518 -0.044675551 1.1997082 4619977
-0.042538282 -0.038931619 1.1985066 5279449
-0.034582023 -0.039311498 1.1980228 5016538
-0.022135496 -0.041046672 1.1972327 4950743
-0.01272407 -0.043173835 1.1966113 4950488
-0.0036457833 -0.043450691 1.196064 5147351
0.0068199448 -0.042999636 1.1954557 5278422
0.017190827 -0.045787673 1.193867 5212886
0.026496533 -0.045546036 1.1924584 5278423
0.036510855 -0.045199368 1.1923748 5147094
0.047434121 -0.046161201 1.1929506 4885460
0.056924108 -0.045089819 1.1916895 4950741
0.066076599 -0.045030288 1.1918765 5016279
0.10801035 -0.049912207 1.1878396 5212370
0.11517335 -0.051343199 1.1847665 5212369
-0.068554327 -0.035293736 1.1981542 4423370
-0.06635344 -0.032190673 1.1977136 4554187
-0.041841332 -0.03393127 1.1983447 5147610
-0.032078866 -0.033621661 1.1960368 5081818
-0.023111846 -0.036326356 1.1954249 5016538
-0.011915283 -0.035426706 1.1949199 5278938
-0.002806196 -0.035254687 1.1943839 5344730
0.0075263819 -0.036598958 1.1926618 5673948
0.017549109 -0.039290946 1.1909184 5805277
0.026611594 -0.039723642 1.1903676 5541848
0.03686288 -0.039076 1.1897777 5475544
0.047170144 -0.037293971 1.1892178 5213397
0.057804547 -0.038443923 1.1892599 5082070
0.067605779 -0.038174402 1.1903834 5016536
0.076719791 -0.036476441 1.1914954 5213915
0.087484539 -0.036012515 1.1908697 5279453
0.098373502 -0.036988772 1.1901942 5213659
0.10754408 -0.040306415 1.1879487 5212628
0.114006 -0.040485132 1.1851544 5146833
-0.065831006 -0.026213162 1.1962546 4554443
-0.040593028 -0.025598846 1.1947737 5016281
-0.033387829 -0.026852533 1.1943089 5147611
-0.0023935996 -0.029242054 1.1923978 5411294
0.068442211 -0.028075866 1.1882249 5148123
0.077150494 -0.028501511 1.1878957 5213915
0.087236643 -0.029253766 1.1888169 5213917
0.097998634 -0.029716969 1.188742 5213659
0.10577764 -0.031770051 1.186233 5212887
0.098986432 -0.022711694 1.1865681 5279708
0.10351767 -0.022928044 1.1862926 5411037
-0.015099946 -0.18030724 1.1977388 3106213
-0.0093931593 -0.18057972 1.1973919 3105959
0.0018251222 -0.18177 1.1966907 3105706
0.01229262 -0.18161511 1.1960735 3105960
-0.02560439 -0.1729317 1.1985792 3105700
-0.018214125 -0.17455585 1.1988442 3105957
-0.0090785269 -0.17499204 1.1982888 3106216
0.001245888 -0.17562853 1.1985089 3106217
0.011871317 -0.17561555 1.1977063 3171752
0.019750122 -0.17548826 1.1969037 3303337
0.031005595 -0.17334327 1.1952047 3369130
0.037853733 -0.17367023 1.1947885 3369132
-0.037597165 -0.16114603 1.1999714 3171753
-0.027928721 -0.16408846 1.2017027 3171752
-0.017557159 -0.16492227 1.2031468 3172010
-0.0084059164 -0.16666543 1.2035042 3172012
0.0016699955 -0.16675222 1.2037004 3237802
0.012308842 -0.16654281 1.202528 3303338
0.021496117 -0.16701496 1.2021689 3369133
0.031690288 -0.16722074 1.1998336 3369388
0.041771177 -0.16734722 1.1985391 3303853
0.050966565 -0.16655457 1.1959723 3369643
0.060994457 -0.16618611 1.1938695 3303851
-0.054722164 -0.14862812 1.2010218 3303598
-0.046674732 -0.15188932 1.2021662 3303341
-0.038018391 -0.15414001 1.2050221 3303340
-0.028602999 -0.15611063 1.2072685 3369132
-0.020548791 -0.15838239 1.2067235 3303600
0.01277085 -0.15997328 1.2046977 3303598
0.025409335 -0.16057672 1.2039294 3435186
0.032877527 -0.16093329 1.2034754 3369391
0.042643629 -0.16139959 1.2028817 3369392
0.052534863 -0.15893695 1.2017497 3369390
0.061915815 -0.15821466 1.1976213 3435184
0.071129292 -0.15692838 1.1933035 3369392
-0.055279206 -0.14161333 1.2020626 3369646
-0.047999229 -0.14441775 1.2063584 3303853
-0.040775683 -0.1481903 1.2082239 3173034
0.054908074 -0.15091357 1.202461 3566773
0.063094825 -0.14997531 1.2013341 3566516
0.072796464 -0.1484722 1.1978623 3500977
0.082491323 -0.14951271 1.1945342 3500975
-0.064874873 -0.12915803 1.2021962 3632562
-0.055996586 -0.13274327 1.2045703 3501236
-0.048243802 -0.13341908 1.2086556 3501494
0.075676948 -0.13962266 1.2015587 3698612
0.08306472 -0.14024851 1.1987329 3567283
0.09186101 -0.1381488 1.1955631 3567283
0.099234983 -0.13535699 1.1922672 3501747
-0.071573675 -0.11918186 1.2028869 3895478
-0.065985009 -0.12205923 1.2049761 3698613
-0.056922961 -0.12356541 1.2085694 3633080
0.077439643 -0.13307542 1.2016462 3699128
0.084137097 -0.13020146 1.2013328 3830713
0.093538016 -0.13022889 1.199571 3699126
0.10000741 -0.12897815 1.1924086 3633333
-0.072483227 -0.11111877 1.2031776 3961271
-0.065482676 -0.11204966 1.2077454 3896247
-0.058717947 -0.11504149 1.2102624 3764921
0.084373474 -0.1232575 1.2015225 3962300
0.095300511 -0.12125208 1.2004608 3896506
0.10258609 -0.119551 1.1945364 3764920
-0.07329379 -0.1017943 1.2050027 3830712
-0.066128418 -0.10185309 1.2097534 4093627
0.098819613 -0.11056907 1.2010369 4028352
0.10391134 -0.11006033 1.1954044 3962812
-0.073154688 -0.091489568 1.2057979 3962556
-0.066464201 -0.093096197 1.2109212 4028606
0.098807052 -0.10015591 1.2013433 4357317
0.10495375 -0.10053046 1.1969584 4225985
0.11028372 -0.096931882 1.1927387 4225985
-0.072220564 -0.082518347 1.2060057 4028606
-0.067123458 -0.083116874 1.2116985 4094655
0.099728152 -0.092159808 1.2015232 4554695
0.10538046 -0.090145521 1.1966366 4554182
0.11145827 -0.088586412 1.1929138 4619462
-0.072466716 -0.071804181 1.204802 4159424
-0.064093918 -0.071386747 1.2106295 4160448
-0.057652336 -0.070114024 1.2115177 4554440
0.10084641 -0.078835025 1.2018478 4620747
0.10621831 -0.080049463 1.1992382 4686026
0.1122148 -0.080984764 1.193092 4619977
-0.07140018 -0.062171239 1.2045498 4291265
-0.063049927 -0.062720366 1.2092992 4357573
-0.057311635 -0.06321054 1.2117 4751563
0.01673685 -0.064055055 1.2072772 4818903
0.024434393 -0.06365373 1.2068318 4819160
0.099428296 -0.070232958 1.2021846 4752590
0.10666937 -0.070861824 1.199481 4817869
0.11146829 -0.072929457 1.1933727 4752076
-0.068946153 -0.052695032 1.2046821 4291778
-0.062724233 -0.052385505 1.2079085 4554440
-0.056914154 -0.055156484 1.2119128 4883149
-0.038267441 -0.048861105 1.2069813 5674209
-0.032541662 -0.049134489 1.2066332 5082331
-0.021240812 -0.052565049 1.2077321 4950745
-0.012180761 -0.054669615 1.2046601 4884953
-0.0030316822 -0.055092007 1.2039039 4753366
0.0073918942 -0.054523818 1.204504 4884692
0.017817741 -0.056623284 1.2029769 4884692
0.026626337 -0.056338273 1.2031186 4884692
0.036997866 -0.055707049 1.2049825 4950484
0.047752403 -0.057124525 1.2025205 4950488
0.056577865 -0.057312042 1.2029865 4950489
0.067287162 -0.056402542 1.2034304 5411037
0.07631851 -0.056616344 1.2039567 5542623
0.090492561 -0.055274844 1.2031542 5213404
0.098106027 -0.058521591 1.2026068 5081558
0.10613748 -0.061083902 1.1996493 5015248
-0.063212782 -0.042494118 1.204641 4685772
-0.040964194 -0.043120977 1.2043945 5542365
-0.032026336 -0.043729626 1.2038977 4951002
-0.023405686 -0.045138694 1.202199 4884951
-0.014263377 -0.047449935 1.2015882 4753366
-0.00051068701 -0.046960909 1.2007858 4950484
0.0083207265 -0.047668986 1.2002404 5015763
0.038239039 -0.049956724 1.1983963 5015764
0.045087174 -0.0502837 1.1979799 4885461
0.057038248 -0.04987232 1.1972822 4884950
0.067957506 -0.049378056 1.1984984 5082072
0.077537283 -0.048773788 1.2009075 5542624
0.087174296 -0.050456155 1.202691 5279197
0.097191676 -0.049610633 1.1993147 5213144
0.10409488 -0.052337311 1.194415 5212627
0.071789652 -0.042393312 1.1966256 5016538
0.077581041 -0.04095133 1.1963239 5213917
0.087214559 -0.038929012 1.195811 5345245
0.097459957 -0.041747496 1.195788 5213917
0.1887214 -0.048431989 1.1975209 13158081
-0.0078469031 -0.1619274 1.2098738 3303598
0.0048333611 -0.16253284 1.2091029 3303850
-0.035680454 -0.1499531 1.2118784 3303853
-0.025996417 -0.15202232 1.2116004 3304111
-0.016455043 -0.15464471 1.2127087 3303857
-0.0073816385 -0.15542001 1.2127932 3303856
0.003029177 -0.15595515 1.2124097 3369903
0.013301422 -0.15483741 1.2088258 3435441
0.022296444 -0.1561804 1.2082522 3435187
0.032774843 -0.1560427 1.2076339 3500978
0.043272961 -0.15626843 1.2070037 3369649
0.050038669 -0.15497154 1.2066399 3435441
-0.043458153 -0.14209914 1.2125708 3370159
-0.036963873 -0.14318062 1.2121533 3370416
-0.026518568 -0.14400193 1.2137638 3436469
-0.016027596 -0.14489868 1.2158704 3502005
-0.0067676045 -0.14534082 1.2153075 3501749
0.00347827 -0.14931563 1.2145822 3501493
0.01399001 -0.14614873 1.2127981 3567542
0.023306549 -0.14673096 1.2131672 3567541
0.033624887 -0.14705102 1.2113549 3633333
0.043809272 -0.14716926 1.2081784 3567541
0.052360702 -0.14682248 1.2067411 3633079
0.062475797 -0.14511839 1.2061903 3632566
-0.04342461 -0.13361531 1.2128178 3501750
-0.036453404 -0.13428535 1.2148895 3567798
-0.027959485 -0.13530216 1.2168608 3633848
-0.014584072 -0.13915828 1.2159531 3633591
-0.0076390747 -0.13948987 1.2155309 3699128
0.014410617 -0.13938078 1.2142245 3830714
0.02482811 -0.13987818 1.2135912 3764921
0.034345366 -0.13938197 1.2130405 3830712
0.044894129 -0.13896084 1.2120683 3830713
0.053575289 -0.13906677 1.2112395 3830458
0.063770279 -0.13923517 1.2086598 3764409
0.07183896 -0.13803561 1.2063988 3764407
-0.051880535 -0.1223348 1.2136511 3698874
-0.045185167 -0.12339892 1.2154771 3764923
-0.036523066 -0.1245784 1.217684 3765435
