# .PCD v0.7 - Point Cloud Data file format
VERSION 0.7
FIELDS x y z rgba
SIZE 4 4 4 4
TYPE F F F U
COUNT 1 1 1 1
WIDTH 1132
HEIGHT 1
VIEWPOINT 0 0 0 1 0 0 0
POINTS 1132
DATA ascii
0.16170421 -0.085939638 1.0577846 10136266
0.16845559 -0.086601608 1.0577346 13159885
0.1622532 -0.079719402 1.0593492 12175571
0.16755384 -0.078676648 1.0557774 13093836
-0.14217031 -0.1045849 1.0768335 1720740
-0.14275663 -0.097667649 1.0768747 3628972
-0.14359227 -0.091534555 1.0785185 4745397
0.16249217 -0.094073728 1.0683507 6256041
0.16696648 -0.096881919 1.068364 12767188
0.16103075 -0.085021839 1.0706975 7312841
-0.1405341 -0.1292129 1.0871499 2903988
-0.13741873 -0.12929596 1.0870851 1324707
-0.14168057 -0.11712749 1.0868441 2904505
-0.14015473 -0.10836373 1.0857688 2644141
0.16228127 -0.11443126 1.0816553 5801403
0.16670255 -0.11489538 1.0815513 11779799
-0.13957745 -0.097221121 1.084245 3039906
0.16166753 -0.1052852 1.080986 3630254
0.16785111 -0.10624984 1.0802408 11516624
0.17497003 -0.10645907 1.0816818 13685195
-0.14178444 -0.08827883 1.0869666 2708908
0.16166359 -0.096788295 1.0804071 3762605
0.1662897 -0.10066205 1.0790541 10465738
0.16192652 -0.089843228 1.0765162 6721740
-0.13894302 -0.071082331 1.0891485 1588628
-0.13582765 -0.071165375 1.0890838 3826867
-0.1342847 -0.14494684 1.0924811 3694011
-0.13911819 -0.13822031 1.0908104 7178192
-0.13385294 -0.13814874 1.0918632 2114980
-0.13901298 -0.12675439 1.0912087 1063065
-0.1345942 -0.12972245 1.0919181 2447769
-0.13833719 -0.11921347 1.0914587 2578847
-0.13576481 -0.11894026 1.0944196 2907546
0.16187149 -0.1256101 1.0867773 6851775
0.16743866 -0.12524195 1.0851785 13029078
-0.13735747 -0.10917559 1.0925404 3104917
-0.13542166 -0.10640378 1.0948507 3170462
0.16077501 -0.11479151 1.0871769 3040417
0.17036974 -0.11831969 1.0853621 13422807
0.17337364 -0.11527193 1.0854089 13619661
-0.13910097 -0.096609205 1.0930139 3104162
0.15975013 -0.10653082 1.0868424 2973607
-0.13820302 -0.08831846 1.0935359 3169952
0.16048431 -0.096518666 1.0893221 2843043
-0.13975258 -0.078572795 1.0930642 3301299
-0.12929009 -0.15732658 1.1019577 4750553
-0.12566923 -0.15971719 1.103804 1196192
-0.13116884 -0.149903 1.0990516 3036848
-0.12723118 -0.15245995 1.1040884 1789334
0.15681453 -0.15590762 1.0958277 12898004
-0.12979308 -0.13909686 1.1008252 2776475
0.15753947 -0.14679211 1.0950307 9087435
0.1634056 -0.14219189 1.0916722 13488846
-0.13175002 -0.12830131 1.1010187 3038106
0.15766443 -0.13611321 1.0944004 4354994
0.16551177 -0.13427351 1.0919069 13752800
-0.13332884 -0.11860182 1.1028343 2973083
0.15792184 -0.12638171 1.0956436 2121388
-0.13788116 -0.10478085 1.0989593 3301280
-0.1345644 -0.10994494 1.1023525 3039132
0.15882783 -0.11827254 1.0937661 2646946
0.1752295 -0.11352748 1.095441 13817039
-0.13770896 -0.098489776 1.0991756 3366820
-0.1350783 -0.099198304 1.1041027 3105183
0.15760548 -0.10611606 1.0977511 3631271
0.17633885 -0.1114528 1.0954914 13817037
-0.13740283 -0.08730565 1.0995601 3499424
-0.13466489 -0.088528305 1.1032662 3302563
0.1575364 -0.095838815 1.0973519 3369127
-0.13437447 -0.079025969 1.1032921 3434147
0.15973194 -0.086348221 1.0986085 2908578
0.16551748 -0.083808869 1.0966717 8233160
-0.1387531 -0.067667365 1.1011307 3365295
-0.13340886 -0.069123931 1.1039652 3499689
0.1607801 -0.076791257 1.0986593 4024485
0.16574769 -0.075397938 1.0969609 11192030
-0.13693482 -0.058912389 1.103545 2181536
-0.13168241 -0.058951765 1.1046402 3433908
0.1602035 -0.071422853 1.1012131 2708114
-0.13501446 -0.050882038 1.1077906 8233201
-0.13125432 -0.052041996 1.1059598 3564980
0.01584043 0.11708026 1.1066589 9935247
0.02157476 0.1178292 1.1065712 9934992
-0.12012444 -0.16907474 1.1120664 929696
-0.11590652 -0.1696198 1.1142732 1984411
0.14646038 -0.17234795 1.1089698 13424882
-0.12092035 -0.15941395 1.1101254 2512540
-0.1162874 -0.16154793 1.1132282 2906513
0.14789689 -0.16638047 1.1067034 8955594
0.15351512 -0.16506484 1.1030793 14080986
-0.12767301 -0.14517431 1.1113573 2381461
-0.12466438 -0.15050131 1.1130506 2776212
0.14835437 -0.15675126 1.1057941 3697834
-0.12794131 -0.13927592 1.1124026 2841752
-0.12586708 -0.14376031 1.115374 2906774
0.15048821 -0.14691006 1.1065757 2646183
-0.12952019 -0.12870979 1.1138276 2907034
-0.12557541 -0.13310392 1.1157404 2775704
0.15132564 -0.13823751 1.1079628 3696546
0.15349185 -0.13374045 1.1075099 3761571
-0.13030803 -0.11919063 1.1127619 2973083
0.15532319 -0.12766749 1.1070185 3368880
-0.13113329 -0.10894391 1.1125913 3039134
0.15592901 -0.1160644 1.1070174 3500454
-0.13103054 -0.09848889 1.1126541 3171232
0.15510893 -0.1076406 1.1083417 3631529
-0.13136165 -0.089688927 1.1122675 3302564
0.1538029 -0.097067468 1.1044477 3697839
0.15427241 -0.097434454 1.107428 3763633
-0.13115007 -0.079169691 1.1134312 3368355
0.15514021 -0.086194903 1.1075174 3436468
0.16955081 -0.082965232 1.10763 10992842
-0.12852731 -0.06882453 1.1137406 3697068
0.15343718 -0.073357262 1.1122886 3765679
0.15647249 -0.075771905 1.107322 3830452
0.16931298 -0.078708462 1.1077834 11387079
-0.12726064 -0.061008699 1.1117866 3631022
-0.12500784 -0.057842802 1.111352 3500456
0.1529332 -0.066329554 1.1096529 3830449
0.15958336 -0.066914856 1.1070189 5207985
0.16615345 -0.068239614 1.1108805 10334913
-0.12712832 -0.049062438 1.1142743 3434161
0.15231276 -0.057375111 1.1097238 3893939
0.1593743 -0.058019552 1.1087588 8428221
-0.12703885 -0.03915986 1.1181927 6194370
-0.12241729 -0.037210695 1.1190268 4421311
0.150538 -0.045575228 1.1122247 5734064
0.15675859 -0.049451448 1.1130576 10203587
-0.1209024 -0.030585974 1.1192281 6852289
0.1491738 -0.039546113 1.1103516 8955077
0.022510495 0.093294397 1.1207079 9737616
-0.090368569 -0.20696951 1.1208019 7635861
-0.086946309 -0.20764497 1.1233791 8100012
-0.10029761 -0.19687912 1.1240202 10535920
-0.09339381 -0.19965838 1.1214312 5996227
-0.086848125 -0.20405796 1.1235025 6394567
-0.11015834 -0.18530869 1.1166135 8431615
-0.10317469 -0.1880334 1.1191512 1526185
-0.096979268 -0.19073154 1.1230253 1262491
0.12673643 -0.19395702 1.1196156 11717846
-0.11847568 -0.1765328 1.1170851 7571711
-0.11152673 -0.17904004 1.1184164 1917611
-0.10454648 -0.18187645 1.1219597 2379673
-0.097820558 -0.18509936 1.1243824 2644619
0.12851351 -0.18713281 1.1198187 5010097
0.13583288 -0.1842557 1.1166285 10599906
0.14294818 -0.18320572 1.1156662 14081762
-0.11129789 -0.1703088 1.121374 2709143
0.12984574 -0.17657034 1.1201611 2909858
0.13642994 -0.17613965 1.1162242 4026283
0.14394523 -0.17640573 1.1123809 12307424
-0.11792001 -0.15623143 1.1177832 2775446
-0.11359701 -0.16065943 1.1204542 2775442
0.13794121 -0.16726243 1.117323 3105445
0.1428071 -0.16638935 1.112253 2578854
-0.11971194 -0.14905991 1.1202248 2775449
-0.11547382 -0.15173325 1.1245638 2906778
0.14056596 -0.15758216 1.1190102 3564451
0.14386497 -0.15655497 1.1149774 3433893
-0.12330306 -0.14032719 1.1217422 2840984
0.14231738 -0.14950195 1.1208589 3565217
0.14604941 -0.14730181 1.1155241 3499430
-0.12784876 -0.12816569 1.1189604 2841497
-0.12479667 -0.13023095 1.1248326 2907290
0.14866121 -0.13683143 1.1181731 3237547
-0.12773815 -0.1187693 1.1208878 2973083
-0.1249325 -0.11947748 1.1252109 3038877
0.15204048 -0.12727822 1.1196225 3827369
0.15460758 -0.12607157 1.1134268 3564710
-0.12849802 -0.10882545 1.1225083 3039391
-0.12583594 -0.11094117 1.1261941 3170977
0.15258144 -0.11720019 1.1197817 3565735
0.15484154 -0.11752363 1.1137207 3500198
-0.12835766 -0.10071261 1.1249334 3170977
0.1530823 -0.10817402 1.1194198 3631790
0.15417247 -0.10997306 1.1220042 3434923
-0.12824383 -0.090130195 1.1242999 3302823
0.15306276 -0.096729219 1.1199867 3566513
-0.12796579 -0.080092333 1.1233106 3368614
0.15241219 -0.087458819 1.1203619 3632560
-0.12722515 -0.072453417 1.124897 3565995
0.15146725 -0.077223726 1.1194652 3895728
-0.12384804 -0.05755293 1.1269517 3697842
0.14937313 -0.067162126 1.1183904 4158132
-0.12198435 -0.049257826 1.125967 3502262
0.14855826 -0.056515586 1.1199794 4027837
-0.11909154 -0.039802339 1.1256535 3698611
0.14409791 -0.045091141 1.1244701 4619197
0.14970608 -0.048149344 1.1187091 4946612
-0.12524588 -0.033069856 1.1222301 7180220
-0.11743742 -0.030527882 1.1293696 4815032
0.1441769 -0.038589958 1.1240284 5209534
0.14880161 -0.036708951 1.116663 8425655
0.023577349 0.089137137 1.123544 9474444
-0.063555971 -0.21837176 1.1295458 8300241
-0.081609868 -0.2095724 1.1265723 7642055
-0.074096516 -0.21050334 1.1285287 4815810
-0.067405581 -0.21418259 1.1297686 5210825
-0.090425484 -0.19741394 1.1268079 932767
-0.083520204 -0.2010991 1.1282277 2382238
-0.074943759 -0.20444638 1.1302582 2251168
0.10856549 -0.20608744 1.1265582 6518691
0.11439953 -0.20516798 1.1250448 11319227
-0.091930866 -0.19069797 1.1289406 2447513
-0.08659213 -0.19438386 1.1308409 2513045
0.11647505 -0.19701566 1.1256646 4617903
0.12345655 -0.19711672 1.1225728 10929103
-0.10108948 -0.17941518 1.129104 2971544
-0.095272645 -0.18335333 1.1293968 2774929
0.1187878 -0.18779051 1.1253264 2909086
0.12367094 -0.18689211 1.1229256 3105187
-0.1082882 -0.16598505 1.1282603 2709911
-0.10376088 -0.17124514 1.1303414 2644371
0.12546933 -0.1771479 1.1238461 3368356
-0.110401 -0.15937771 1.1303525 2775444
-0.10552995 -0.16365938 1.1309555 2709910
0.13017608 -0.16744319 1.125077 3368613
0.13442987 -0.16453695 1.1234928 3499683
-0.11338481 -0.15071908 1.1303958 2841497
0.1322258 -0.1601253 1.1276938 3237027
0.13697383 -0.15745133 1.1250242 3302821
-0.11901405 -0.13894902 1.1299893 2645144
-0.11552763 -0.14085515 1.1323951 2775964
0.14038037 -0.14763935 1.1261483 3237542
0.14454751 -0.14414243 1.1253387 3106215
-0.12059657 -0.13054016 1.1311982 2907291
0.14202391 -0.13814969 1.1269324 3499683
0.14514813 -0.13620038 1.1254134 3303338
-0.12129135 -0.12063057 1.1325042 3039134
0.14699954 -0.12776962 1.1259403 3499947
-0.12609282 -0.10612442 1.1307043 3236770
-0.1239859 -0.11058429 1.1338427 3236770
0.14902557 -0.11733255 1.1266713 3500458
-0.12591563 -0.099650666 1.1309268 3237027
-0.12412144 -0.10019778 1.1348753 3302821
0.15168869 -0.10687321 1.1274517 3632048
-0.12564984 -0.089940041 1.1312608 3302824
-0.12386954 -0.090994284 1.1351918 3302569
0.1502029 -0.097943075 1.127689 3632047
-0.12583353 -0.080865279 1.1315813 3434408
-0.122914 -0.07871367 1.1356016 3434665
0.14710681 -0.086803719 1.1277757 4026292
-0.12511826 -0.070518784 1.1319284 3631531
-0.12329163 -0.069880374 1.1359177 3631531
0.14740458 -0.07878799 1.1266749 4157366
-0.12494107 -0.064045042 1.132151 4025255
-0.12160696 -0.059090946 1.1345454 3632304
0.14718175 -0.066979915 1.1266469 4289211
-0.11791372 -0.050179761 1.1342114 3568048
0.14433502 -0.056161221 1.1277484 4094399
0.14657159 -0.060652938 1.1288816 4224702
-0.1164743 -0.044115469 1.132679 3764911
-0.11286822 -0.039983764 1.1352537 3895729
0.14202566 -0.04770736 1.128878 4487616
-0.11713332 -0.026099548 1.1363237 6458567
-0.11231537 -0.029979244 1.1354921 3895996
0.14223628 -0.036641911 1.1282049 5735616
0.14917663 -0.033560976 1.1277745 9477559
-0.11660129 -0.023465872 1.1374059 6852289
-0.11335173 -0.0235525 1.1373384 5933254
0.055976111 0.073658794 1.1333692 9474701
-0.026860375 -0.23021106 1.1404136 7248329
0.0059094895 -0.23264836 1.1388774 5801654
0.013948327 -0.23171519 1.1382166 5210039
0.02674572 -0.23273501 1.1392615 6328255
0.034408011 -0.23293926 1.1391022 7379645
0.04596559 -0.23312569 1.1388663 8430007
0.053881738 -0.23142609 1.1347653 8625323
-0.064681888 -0.22080413 1.1334865 9678537
-0.053732984 -0.22132209 1.1397827 4422071
-0.044389453 -0.22229792 1.1410381 2778029
-0.034681387 -0.22437125 1.1407729 2513574
-0.027145378 -0.22728351 1.1405216 2315684
0.0027540773 -0.2288105 1.1398747 2120102
0.01479482 -0.22913148 1.1396246 2185635
0.027960127 -0.22838745 1.1393892 2186146
0.03340324 -0.22962752 1.1392379 2316696
0.048787728 -0.22784765 1.1389946 4486314
0.056315172 -0.22758472 1.1368527 5997746
0.067556314 -0.22495493 1.1375793 6063288
0.076284833 -0.22376272 1.1385914 6589614
0.084378965 -0.22419748 1.1384156 8757678
-0.06978973 -0.20870697 1.1340104 1855898
-0.06307622 -0.21150538 1.1370201 2249885
-0.055380106 -0.21415877 1.1408125 2381985
-0.047298629 -0.21652648 1.1412973 3039902
0.070417196 -0.21802193 1.1389084 2841504
0.076452538 -0.21763533 1.1388022 3302564
0.086048961 -0.21559028 1.1373487 4420011
0.095782667 -0.21486622 1.1327962 6984117
0.10524675 -0.21228549 1.1304109 6254993
-0.080626868 -0.19792804 1.1354026 2710418
-0.072922982 -0.20151976 1.1387081 2775447
-0.066208117 -0.20402442 1.1413087 2906776
0.088730104 -0.20780265 1.1385015 3171492
0.097218536 -0.2065593 1.1355741 3237285
0.1055004 -0.20542073 1.1312175 3629215
-0.083243489 -0.19104847 1.139698 2775191
-0.075156488 -0.19484209 1.1419405 2906012
0.099457256 -0.19746852 1.1373818 3040421
0.1063764 -0.19585398 1.1339121 3105703
0.11221484 -0.19616078 1.1308358 2777257
-0.098276213 -0.17641409 1.1357037 2710677
-0.091549449 -0.18059859 1.1389563 2709909
-0.085384749 -0.18445551 1.1411718 2709910
0.10782776 -0.18763828 1.1377521 3368100
0.11536945 -0.18585372 1.1332681 3302561
-0.099263206 -0.16995189 1.1390626 2710421
-0.094477512 -0.17307147 1.1429509 2644886
0.11012621 -0.17998964 1.1394485 3040936
0.11820835 -0.17703511 1.1373026 3237031
0.12463143 -0.17420584 1.1343585 3368615
-0.10861085 -0.15656607 1.136602 2776209
-0.10321016 -0.16135365 1.1410815 2841240
0.12051345 -0.16868407 1.1396371 3237287
0.1269255 -0.16645223 1.1344408 3302822
-0.10933911 -0.15005158 1.141381 2710683
-0.10468039 -0.15356366 1.1439681 2841499
0.12946796 -0.15819247 1.1372355 3237541
0.13443616 -0.15547955 1.1334168 3237798
-0.11122075 -0.14146866 1.1423281 2907293
0.13144305 -0.14956991 1.1400877 3237797
0.13614473 -0.14698067 1.1350808 3303334
-0.11728491 -0.12947486 1.1388642 2907805
-0.11501177 -0.1313795 1.1448146 2907805
0.13829109 -0.13776469 1.1379176 3434407
-0.11749901 -0.12021639 1.1407168 3039392
-0.1148082 -0.12165357 1.1459509 3039391
0.14049302 -0.12824851 1.1380793 3500202
0.14461368 -0.12525846 1.132669 3631274
-0.12035929 -0.1110388 1.1429622 3170979
0.14276695 -0.11811719 1.1405166 3631791
0.14605853 -0.1174376 1.1346925 3566510
-0.12045677 -0.10072918 1.1445062 3105957
0.14222473 -0.10694917 1.1396942 3632305
0.14731184 -0.10797513 1.1335526 3501227
-0.12060922 -0.090623066 1.1425747 3237546
0.14199808 -0.097843796 1.1391373 3698099
0.1465023 -0.098169699 1.1339779 3698094
-0.11971512 -0.080909073 1.1431344 3434923
0.14349821 -0.088630736 1.1399751 3895479
0.14556538 -0.090488203 1.1338644 3895477
-0.11903812 -0.070493445 1.1441042 3566256
0.14409249 -0.077392362 1.1416903 4027579
0.14653467 -0.076767154 1.1383276 4157882
-0.11781523 -0.061592173 1.143634 3567024
0.14230452 -0.067791536 1.1415509 4159422
0.1465399 -0.067899153 1.1370358 4289724
-0.11527634 -0.051749632 1.1417295 3567791
-0.11201593 -0.050086323 1.1470605 3764403
0.14084065 -0.057666048 1.1404421 4356797
-0.11015201 -0.040993031 1.141241 3830196
0.13842294 -0.047988921 1.139894 4619718
-0.10833533 -0.030222788 1.1439205 3896507
0.13466924 -0.0360156 1.1408759 4817095
0.13911468 -0.036600471 1.1375425 4948420
-0.11566696 -0.020893261 1.1454837 6916535
-0.10820254 -0.021611817 1.1450025 5210049
0.13403982 -0.029681556 1.1432226 5013440
0.13846332 -0.029302232 1.1408128 5998788
0.035715029 0.047140345 1.1437111 5859448
0.043873452 0.047064066 1.1416879 6122362
0.04949329 0.046939686 1.1445743 6319482
0.06071331 0.047769517 1.1483839 5330522
0.036388032 0.05162096 1.1423292 5792108
0.044221871 0.052275479 1.1416627 5527648
0.049612671 0.051301181 1.1447242 5067354
-0.021059182 -0.23044133 1.1432928 4354997
-0.013692217 -0.23173369 1.1451031 4684224
-0.0038211942 -0.23165213 1.1434422 4289976
0.0072043333 -0.2296264 1.1427603 2054307
0.01761527 -0.23045284 1.1425247 2777510
0.023072585 -0.23169614 1.142373 4026798
0.039534606 -0.23213497 1.1420308 5604271
0.043420792 -0.2305918 1.1420076 4881326
-0.03974659 -0.21959215 1.1440427 3039902
-0.031816553 -0.22073835 1.1443456 2710943
-0.023348961 -0.22296907 1.1469063 2645152
-0.013487689 -0.22620501 1.1499625 2514339
-0.0035595838 -0.22634773 1.1492268 2514851
0.0063911434 -0.22405522 1.1475747 2842787
0.01623928 -0.22381851 1.1451857 2908579
0.025925975 -0.22369868 1.145487 3039651
0.036117531 -0.22471145 1.1463612 2908578
0.04548154 -0.22408077 1.1459472 2778020
0.055507518 -0.22260714 1.1434764 2646433
0.064976566 -0.22549425 1.1417577 5012145
0.076464951 -0.2270813 1.1414742 8955830
-0.052534975 -0.21084374 1.144888 2841242
-0.042713359 -0.21324825 1.1466584 2775960
-0.033706114 -0.21482977 1.1483592 2841500
-0.02428877 -0.21738078 1.1518196 2907551
0.0074104397 -0.21748881 1.1511866 3105184
0.016629545 -0.21736608 1.1510078 3170722
0.026575293 -0.21763119 1.1508012 3302053
0.036720339 -0.2173489 1.1506096 3170723
0.047243826 -0.21670821 1.150423 3105188
0.056558575 -0.21610427 1.1485436 3170467
0.0660889 -0.21601519 1.1444687 3236258
0.076284319 -0.2127783 1.1424222 3171236
-0.068837754 -0.19905561 1.1453373 2906776
-0.062349096 -0.20150366 1.1462668 2907033
-0.053857416 -0.20284171 1.1497451 2841497
-0.04465495 -0.20725727 1.1525774 2775704
0.05772927 -0.21072346 1.150424 3105443
0.066569939 -0.21095914 1.1502403 3105443
0.077435516 -0.20748837 1.1488817 3105956
0.085805938 -0.20471966 1.1452725 3105956
-0.079512164 -0.18779269 1.1459426 2644884
-0.072484769 -0.19165069 1.1486708 2775705
-0.064143762 -0.19483656 1.1510628 2841497
0.081238374 -0.2002956 1.1503215 3172006
0.088937402 -0.1980848 1.1492451 3040421
0.094812058 -0.19580612 1.1467061 2974628
-0.088051699 -0.17878236 1.1464268 2645144
-0.081400163 -0.18083268 1.1492845 2710425
-0.076144233 -0.18374565 1.1505923 2776216
0.098519035 -0.18727568 1.1471806 3171493
0.10349393 -0.18506992 1.1440064 3237026
-0.090818278 -0.17078188 1.1493515 2710424
-0.084434219 -0.17329697 1.1530974 2710937
0.10167411 -0.18094218 1.1505917 3302823
0.10805111 -0.17691928 1.1474453 3172005
0.11391307 -0.17390662 1.1465913 3172006
-0.099227548 -0.15908933 1.1473365 2841498
-0.094806276 -0.16189636 1.1520777 2907290
0.11081713 -0.17013136 1.1507878 3303592
0.11712806 -0.16687232 1.149442 3237544
0.12326279 -0.16245857 1.1428024 3303337
-0.10072649 -0.15065269 1.1493765 2973342
-0.096098728 -0.15411386 1.1554546 3038879
0.12098336 -0.15923601 1.1502994 3237544
0.12533483 -0.15616754 1.1457832 3303336
-0.10844623 -0.13887188 1.1492263 2973342
-0.10238137 -0.1423521 1.153488 2973600
0.12901568 -0.14718342 1.1472249 3368872
-0.10978185 -0.1310216 1.1508811 3039392
-0.10426656 -0.13218187 1.1563827 3236259
0.13060877 -0.13784799 1.1492707 3500460
0.13498814 -0.13532519 1.1435173 3434923
-0.11060707 -0.12137729 1.1517707 3170978
0.13191238 -0.12898719 1.1504717 3500719
0.13660672 -0.12649788 1.1471294 3500718
-0.11691914 -0.10994698 1.1494039 3237029
-0.11302699 -0.11162709 1.1552728 3237286
0.13724156 -0.11775513 1.1501963 3697329
-0.11667892 -0.10117068 1.1497056 3237543
-0.11396068 -0.10106577 1.1571615 3172263
0.13869829 -0.10866728 1.1499791 3697843
-0.11665857 -0.091639459 1.1530406 3303340
-0.11445604 -0.090797879 1.1580303 3303852
0.13876623 -0.098239489 1.1507423 3764149
-0.1165143 -0.081779949 1.1503797 3500716
-0.11360219 -0.080766276 1.1583637 3501229
0.14196308 -0.087841257 1.1496123 3764661
-0.11592825 -0.073744774 1.1506486 3566512
-0.11257868 -0.070562758 1.1550604 3632306
0.13926026 -0.077559598 1.1499242 3896764
-0.1117142 -0.060967281 1.1553785 3698357
0.13359684 -0.067445941 1.1525877 4291265
0.13728696 -0.06852299 1.1469485 4225217
-0.10986496 -0.051998351 1.1552911 3764408
0.1346283 -0.05784962 1.152235 4554434
0.13712007 -0.057435609 1.1461952 4488640
-0.1066021 -0.041403003 1.156397 3895997
-0.10233233 -0.038427744 1.1596186 4027323
0.13451231 -0.04701684 1.1516149 4817354
-0.10486789 -0.031798348 1.1532285 3962044
-0.10074437 -0.030904926 1.1590493 4093118
0.12558691 -0.034554213 1.1552297 5014224
0.13082367 -0.037287932 1.1510271 4751563
-0.10351226 -0.021379575 1.1522311 4290235
-0.098539859 -0.021539763 1.1566638 4158908
-0.092230871 -0.01953581 1.1600779 4028609
0.12408116 -0.027416214 1.1537297 4817874
0.13066572 -0.0271274 1.1483827 5145287
-0.096017614 -0.014887236 1.154711 4487616
-0.090482809 -0.012518875 1.1589539 4356800
0.11556984 -0.014669724 1.1541215 5276623
0.12175179 -0.017718107 1.150175 5604813
0.13108954 -0.019136071 1.1485422 6720449
-0.088164277 -0.0056417957 1.1604825 5671109
0.1138921 -0.009109959 1.1557786 5802961
0.12015378 -0.0099048838 1.151528 6787017
0.038298968 0.0086743981 1.1584722 12972031
-0.016691413 0.02011998 1.1579618 5869264
0.01563192 0.015542865 1.159162 7515376
0.02311185 0.014974974 1.1589937 8764660
0.032701701 0.014277175 1.1587789 10146554
0.039303977 0.013069414 1.1586057 10870005
-0.074278429 0.030171365 1.1534512 8028800
-0.069146909 0.030400515 1.1533573 7305855
-0.012232501 0.021075934 1.1599084 5671370
-0.0089172516 0.020987555 1.1598395 5869265
0.014289496 0.020368949 1.1593572 6988787
0.018709829 0.02025111 1.1592654 7185904
0.1051482 0.026790589 1.1577779 6314850
-0.067790702 0.035365626 1.1535038 8028802
0.10215072 0.030407965 1.1579638 6117979
0.07833425 0.041838899 1.1508293 5593178
0.080529183 0.041780397 1.1507837 5658970
-0.018818416 -0.2206291 1.1556008 2973083
-0.013304301 -0.22188535 1.1554475 2973595
-0.0038556457 -0.22172993 1.1559325 2973598
-0.038475055 -0.20901251 1.1563967 2842012
-0.032136854 -0.21056804 1.1562165 2776219
-0.022838462 -0.21334818 1.1574599 2907806
-0.013254145 -0.21503879 1.158846 2907807
-0.0027130581 -0.21586627 1.1587834 2973599
0.0061735865 -0.21367273 1.1560148 3039136
0.016951561 -0.21299303 1.1564919 3170723
0.026914638 -0.21311635 1.1556226 3236770
0.036707565 -0.21289384 1.1547687 3170979
0.045755126 -0.21292171 1.1545882 3170980
0.052453976 -0.21143636 1.154507 3171236
-0.049321242 -0.19984926 1.156932 2842012
-0.042648997 -0.20234221 1.1581682 2842011
-0.033081938 -0.20489025 1.158897 2842012
-0.024807639 -0.20661284 1.1602124 2907805
0.02160944 -0.20924149 1.1591992 3302309
0.027627219 -0.20820618 1.1579721 3302308
0.036252379 -0.20826836 1.1564405 3171236
0.046970207 -0.20907167 1.1546985 3171236
0.057660945 -0.20804074 1.1561903 3105443
0.06751743 -0.20635819 1.1553862 3171492
0.074094787 -0.20461814 1.1543156 3040420
-0.070086762 -0.18820311 1.157751 2841497
-0.061380059 -0.1912021 1.1580071 2907291
-0.052992068 -0.1941222 1.1590887 2907549
-0.046311293 -0.19555819 1.1610253 2907551
0.070872582 -0.19942397 1.1585642 3040420
0.077898197 -0.19770506 1.1565886 3106213
0.085744359 -0.19524112 1.1544119 3106214
-0.071372434 -0.18175229 1.1600033 2907290
-0.064838029 -0.18485677 1.1612664 2973340
0.082243107 -0.19082248 1.1586388 3302823
0.088302992 -0.18851715 1.1561972 3237030
0.09453629 -0.18528342 1.1563643 3237031
-0.088391788 -0.16774844 1.1588287 2841497
-0.080083825 -0.17146716 1.1590676 2842012
-0.073979497 -0.17395031 1.1613284 2907547
0.099911973 -0.17771457 1.1556666 3368361
0.10506412 -0.17456919 1.1547503 3237285
-0.0897085 -0.16179726 1.1590626 2973085
-0.082883313 -0.16229802 1.1616488 3039135
0.10239807 -0.1706157 1.1549413 3368615
0.10902452 -0.16748774 1.1556469 3237799
0.11366902 -0.1642606 1.1549395 3303337
-0.096747145 -0.14866823 1.1596609 2973857
-0.091386825 -0.1523938 1.1609812 3039137
-0.085432522 -0.15351722 1.1632701 3104930
0.11124284 -0.16009229 1.1571349 3172264
0.1175149 -0.15732375 1.1557727 3238059
-0.097693764 -0.14047691 1.1609666 3039650
-0.093753718 -0.14427954 1.1637579 3105700
0.12104784 -0.14772764 1.1575261 3369132
0.125213 -0.14792936 1.1552808 3434410
-0.10020019 -0.13187346 1.1620317 3171236
0.12318137 -0.13970007 1.1588111 3500719
0.12659098 -0.13744612 1.1576211 3435183
-0.10704722 -0.11955284 1.1608822 3302823
-0.10239982 -0.12174752 1.1633822 3171495
0.12762503 -0.12737226 1.1577705 3566514
-0.10852808 -0.11092997 1.1626685 3368873
-0.10484832 -0.11226432 1.1642957 3368875
0.13057041 -0.11822473 1.1570126 3697588
-0.1091597 -0.10189059 1.1642098 3303850
0.13245183 -0.10876767 1.1599362 3763892
0.13562597 -0.10805162 1.1564668 3698099
-0.11024472 -0.09162166 1.1635225 3435181
-0.10435826 -0.092350334 1.1657821 3435438
0.1337591 -0.098697737 1.1608337 3829942
0.13656262 -0.098125562 1.1579387 3764149
-0.10893678 -0.081999093 1.164233 3501229
0.13412441 -0.085350618 1.1612927 3896505
0.13839583 -0.088271417 1.1589223 3830455
-0.10807835 -0.072147258 1.164098 3632563
-0.10371894 -0.068992883 1.1665852 3567542
0.13191119 -0.078046292 1.1590183 4027837
0.13701341 -0.081688151 1.1573601 3896505
-0.10704879 -0.062111292 1.1642228 3829940
-0.10353628 -0.06231932 1.1668146 3699127
0.13069788 -0.068445019 1.1606168 4291009
-0.10636369 -0.051972367 1.1640296 3895737
-0.10260034 -0.051372565 1.1671784 4027576
0.13125518 -0.058400273 1.1602893 4422849
-0.10501447 -0.045286413 1.1634357 4158911
-0.10038841 -0.041780099 1.1654679 4093372
0.13145557 -0.048646208 1.1601256 4817355
-0.096394144 -0.032473698 1.1652517 4093630
-0.091495976 -0.029248133 1.1677307 4094397
0.12431514 -0.03773525 1.1613711 5080014
0.12869522 -0.040978324 1.158947 4883149
-0.094098486 -0.024871163 1.163932 4028348
-0.089495488 -0.022488549 1.1654251 4028864
0.12008031 -0.027965546 1.1613517 4949202
-0.085666083 -0.013010927 1.1659985 4029123
-0.081345201 -0.01096753 1.1681676 3963586
0.11428589 -0.017978981 1.1627051 5146069
0.11755248 -0.022378467 1.1598178 5080276
-0.084681243 -0.005155459 1.1644336 5342665
-0.077424668 -0.0033376217 1.1683563 4882633
-0.01389784 -0.0012637079 1.1671677 6070261
-0.0072216522 -0.0014416724 1.1670289 6528744
-0.00054546446 -0.001619637 1.1668901 8827627
0.015032305 -0.0020348877 1.1665665 10340848
0.023757536 -0.0029035136 1.1663629 8895736
0.031241162 -0.0038026422 1.166183 6266608
0.10559266 -0.004971087 1.1636655 5475287
0.1099429 -0.0085468888 1.1617863 5475028
-0.073829152 0.002624929 1.1664915 5999306
-0.06714166 0.0035559237 1.1663913 5540557
-0.058500014 0.0066826195 1.1656618 5803727
-0.045688786 0.0079936013 1.1681221 4950220
-0.036761768 0.006631352 1.1678972 5016280
-0.027066071 0.0057756752 1.1672746 5411294
-0.017060403 0.0055586398 1.1652269 5806569
-0.0070441645 0.0052480772 1.1666585 7120874
0.002571702 0.0057177469 1.1670846 12379901
0.013096266 0.0049998611 1.1643223 13891069
0.022886824 0.0045234337 1.1634371 12969723
0.032860644 0.0044641644 1.164122 9946095
0.042928834 0.003950417 1.1643072 10013177
0.052706834 0.0055781975 1.163929 7449069
0.059453469 0.0071696565 1.1660062 5411552
0.10275996 -0.00095589459 1.1623608 6526426
-0.043575354 0.012884252 1.1682509 6264275
-0.036012307 0.013571955 1.1656228 5803990
-0.026452594 0.013998598 1.1639467 5345755
-0.016416337 0.014992572 1.1637822 5412839
-0.0068048872 0.015312143 1.164103 5676266
0.0022495389 0.014068656 1.1662389 7253489
0.012035056 0.013690181 1.1641728 8436213
0.02192851 0.01122991 1.1628897 12051453
0.036465444 0.015279457 1.1627425 10082302
0.044281378 0.014331609 1.1625543 10607102
0.052738637 0.013261013 1.162349 7515119
0.059783198 0.012413837 1.163514 6068200
-0.0044421479 0.020806961 1.1637477 6001365
-6.5863132e-006 0.02068872 1.1636554 6396124
0.11259268 0.023455389 1.161517 6447199
-0.0095700771 -0.21148999 1.1637429 3039391
-0.0019854158 -0.21117172 1.1651046 3039135
0.0094105136 -0.21199596 1.1633484 3104930
-0.038293734 -0.19955553 1.1647298 2776478
-0.03190529 -0.20069006 1.1665651 2842271
-0.022009149 -0.20266795 1.168483 2907807
-0.012827499 -0.20478933 1.168741 2908063
-0.0028153323 -0.20594373 1.1696072 2973600
0.0075179101 -0.20522089 1.1689602 3105187
0.017432442 -0.20510249 1.1678473 3236773
0.027155675 -0.20399919 1.1670117 3237029
0.038096502 -0.20437872 1.1668481 3171237
0.047671601 -0.20550445 1.1643169 3171236
0.057218432 -0.20417984 1.1635963 3105444
0.066084236 -0.20289633 1.1625413 3171493
-0.050175421 -0.19048038 1.1684852 2841758
-0.042127062 -0.19302931 1.1690371 2907551
-0.033195592 -0.19447085 1.1716353 2842271
-0.022524361 -0.19598421 1.1725481 2908064
-0.015810393 -0.19728769 1.1723692 2973857
0.0055478867 -0.19785702 1.1719254 3105444
0.018440155 -0.19720113 1.1716924 3237030
0.028457955 -0.19785637 1.17067 3302823
0.038133595 -0.19732881 1.1703732 3171495
0.047520008 -0.19615386 1.1697593 3105703
0.057213761 -0.19666368 1.1693401 3105703
0.066991687 -0.19636087 1.167255 3105702
0.075334705 -0.19398366 1.1643846 3105958
-0.061269112 -0.18243484 1.1674322 2973598
-0.053238578 -0.1845191 1.1715565 2907551
-0.043363251 -0.18671387 1.1732855 2908065
0.069070317 -0.18813235 1.1710041 3237288
0.077857174 -0.18756899 1.1684029 3302823
0.086513378 -0.18565477 1.1653113 3237287
-0.070336692 -0.17096868 1.1692238 3105183
-0.062905096 -0.1746524 1.1722107 2974112
-0.054631732 -0.17713639 1.1738436 2842786
0.079582043 -0.18093897 1.1710466 3171750
0.088279657 -0.17751566 1.1696591 3172008
0.096303925 -0.17582548 1.165222 3303081
-0.078236207 -0.16100222 1.1675364 3104930
-0.071957253 -0.16369654 1.1733226 3170978
0.091021672 -0.16929212 1.1712264 3303337
0.098792687 -0.16790241 1.1688688 3368873
0.10570309 -0.1666702 1.1655675 3237543
-0.087675519 -0.14803408 1.1701783 3040164
-0.081036456 -0.15200576 1.1710315 3105701
-0.074697249 -0.15673539 1.1749544 3302822
0.10065617 -0.15901078 1.1713942 3303597
0.10803542 -0.15663055 1.1669636 3238059
0.11515641 -0.15370649 1.1652868 3303852
-0.089920662 -0.14167911 1.1715568 3106213
-0.082131512 -0.14407404 1.1755443 3172007
0.10926565 -0.14773878 1.1714168 3369387
0.11713114 -0.14757848 1.1674632 3435181
-0.096838869 -0.13117519 1.1696146 3237030
-0.090201624 -0.1321747 1.1737847 3237800
-0.083875753 -0.13587493 1.1758652 3303594
0.11125303 -0.14175111 1.1717867 3500972
0.11971054 -0.13758731 1.1685115 3500976
0.12437699 -0.13464519 1.1637678 3500977
-0.097689278 -0.12195823 1.1717325 3237545
-0.092994452 -0.12388587 1.1755753 3303852
0.12182235 -0.12823902 1.1720487 3566772
0.12505458 -0.1285184 1.1679715 3566515
-0.099931985 -0.11219566 1.1722571 3369389
0.12293951 -0.11873734 1.1723584 3763639
0.12622997 -0.11772152 1.1674358 3763639
-0.1063727 -0.098123692 1.1709582 3435181
-0.10103977 -0.10206389 1.1739554 3435438
0.12388503 -0.10767821 1.1727259 3895737
0.12876767 -0.10751043 1.1674541 3764149
-0.1056744 -0.091703787 1.172236 3435438
-0.10024248 -0.092619501 1.1761611 3501231
0.12403881 -0.10205983 1.172919 3961530
0.12942106 -0.098045707 1.1677717 3961528
0.13664179 -0.094764464 1.1649172 3895735
-0.10512825 -0.082489431 1.1731474 3501489
-0.10079942 -0.082481839 1.1759465 3501490
0.12453091 -0.084080987 1.1735373 4159679
0.13001725 -0.08874011 1.1685344 3962041
0.13670288 -0.092532337 1.164994 3895735
-0.10541612 -0.075107694 1.1724101 3501747
-0.10047001 -0.072141781 1.1750845 3567541
0.12395578 -0.0776935 1.1737717 4225473
0.12755424 -0.07815405 1.1696808 4159424
-0.098440439 -0.062009666 1.1743305 3764919
0.12394862 -0.068822272 1.1740817 4422597
0.12783012 -0.06807521 1.1700274 4357059
-0.097684249 -0.052253634 1.1744846 3896505
-0.092840984 -0.052423149 1.1789577 3962298
0.12411419 -0.058206435 1.1744492 4685767
0.12810597 -0.057996362 1.1703739 4422851
-0.096010566 -0.043111488 1.1729406 4027836
-0.090845726 -0.04166761 1.1782019 4028094
0.12248792 -0.04749902 1.172736 4948684
0.12823492 -0.049380127 1.1676699 4751818
-0.094125025 -0.035002761 1.1715851 4093632
-0.088346206 -0.031908713 1.1774293 4094399
0.11607005 -0.037001394 1.1753495 5080784
0.12025607 -0.038014926 1.170427 5211343
-0.084898062 -0.023509026 1.1761706 4094402
-0.07823725 -0.020714022 1.1787745 4226244
-0.071684137 -0.019252203 1.1796962 4620744
-0.017695624 -0.019566856 1.1786135 5412064
0.0047867792 -0.020166151 1.1781464 6463211
0.012749059 -0.024214946 1.1778469 6397929
0.022448629 -0.023832902 1.1776677 6397929
0.03173051 -0.022169523 1.1775416 6003432
0.11327181 -0.027563974 1.1732326 5081042
0.11828592 -0.03061299 1.1675221 5081041
-0.076766245 -0.012766622 1.1738853 4160963
-0.068563722 -0.012230583 1.1790217 4752075
-0.053421415 -0.0096185505 1.1796702 4949201
-0.046692073 -0.010360181 1.1795107 5016022
-0.037159946 -0.011710778 1.1786071 5213659
-0.02737074 -0.012856275 1.1778082 5411552
-0.017543074 -0.013914838 1.1780072 5740773
-0.0074247643 -0.014218152 1.1785965 6003172
0.0026833285 -0.014470816 1.1779867 6331366
0.012724979 -0.014623597 1.17518 6989552
0.022829127 -0.014910877 1.1753696 6792432
0.032897159 -0.015149385 1.174511 5937640
0.041450061 -0.014540032 1.1766143 5806054
0.052215114 -0.013558961 1.1774356 5674725
0.05899059 -0.01261507 1.1773342 5674983
0.10472929 -0.016364425 1.1762953 5146841
0.11057432 -0.018385418 1.1703898 5080789
-0.073172584 -0.0042886361 1.1722419 4554184
-0.069645539 -0.003659524 1.1751963 4751049
-0.054334328 -0.0039029866 1.1778862 4818129
-0.046911526 -0.0040710717 1.1769325 5015507
-0.037443463 -0.0041928962 1.1733375 5147609
-0.027366884 -0.004412353 1.1718287 5346018
-0.017690212 -0.0051422343 1.1742244 5937898
-0.0072628669 -0.0061741024 1.1742038 6462952
0.0031904876 -0.0056746453 1.1731241 8303605
0.012536325 -0.0059918463 1.1719108 8501495
0.022345399 -0.0072031394 1.1708599 7252467
0.033679575 -0.0069914982 1.1714822 6069484
0.042869683 -0.0061787069 1.1721901 6135528
0.053027194 -0.0069395155 1.1750604 5741031
0.062448371 -0.0070494264 1.1764591 5543655
0.071977526 -0.0060412735 1.1773059 5477092
0.082073256 -0.004984051 1.1771425 5739747
0.093432508 -0.0055367574 1.1768976 5280481
0.10250277 -0.0082762837 1.1729267 5015513
0.10788902 -0.01031217 1.170439 4949463
-0.066290267 0.0022291914 1.172333 4818122
-0.056834839 0.0029699057 1.1721711 5147606
-0.048130542 0.0034824684 1.1720163 4818639
-0.039494142 0.0015149042 1.1717761 5344472
0.0051813461 0.00088243932 1.1708672 12971007
0.0096320957 0.0002053529 1.1707551 12905215
0.034195207 -0.00044941157 1.1702447 5807584
0.047593277 -0.0008065626 1.1699663 6004710
0.053680487 -1.1496246e-005 1.1698732 5807083
0.062577508 0.0021534041 1.1719073 5477863
0.071115121 0.0014034286 1.174247 5542628
0.082904674 -0.0020075589 1.1772299 5673698
0.093491502 -0.00027987361 1.1755788 5804766
0.098952517 -0.0021756217 1.1688991 5147865
0.065762833 0.0098778978 1.1699789 5412324
-0.0090890285 -0.20052363 1.176126 3039650
-0.0026613642 -0.20133971 1.1759698 3039650
-0.029175695 -0.19209006 1.1768192 2842271
-0.022408132 -0.19227046 1.1766785 2973857
-0.012093503 -0.19368003 1.1776888 2973857
-0.0023697689 -0.1957351 1.1786882 3039395
0.00832217 -0.19406022 1.1777853 3171237
0.017648011 -0.19286649 1.1769302 3237030
0.02801232 -0.19260864 1.1772056 3302569
0.036338776 -0.1929647 1.1768227 3237546
-0.048547298 -0.18109655 1.1775877 2908065
-0.041000523 -0.18226483 1.1773971 2973857
-0.032351751 -0.1842932 1.1781554 2973857
-0.022640616 -0.18649118 1.1790044 2973858
-0.014337966 -0.18760613 1.1806844 3105444
0.017350601 -0.18845083 1.1800259 3237030
0.029086478 -0.18725419 1.1798348 3302825
0.038019493 -0.18702668 1.1793575 3171754
0.047823563 -0.18774807 1.177444 3171752
0.058161326 -0.18758005 1.176656 3171753
0.066671431 -0.18467569 1.1761764 3237546
0.074933082 -0.18245387 1.1750892 3303592
-0.059460513 -0.17134935 1.1781448 2908579
-0.051291041 -0.17380536 1.1798984 2908579
-0.041484058 -0.17556766 1.180552 3105444
-0.03286466 -0.1776025 1.1814016 3105443
0.061735962 -0.18057708 1.1794199 3303339
0.0698006 -0.17847329 1.1779989 3303082
0.078208759 -0.17651737 1.1758034 3237545
0.084203385 -0.17367455 1.1752118 3303850
-0.068175331 -0.15983398 1.1787199 3302822
-0.061639704 -0.16439012 1.1806829 3040165
-0.054584973 -0.16841944 1.1821535 3040167
0.073301025 -0.17182845 1.1794959 3303598
0.079450898 -0.1679658 1.1785668 3238061
0.088028543 -0.1660655 1.1765137 3303596
0.095760405 -0.16382785 1.1753263 3369131
-0.077662662 -0.14905024 1.1792849 3171751
-0.071312018 -0.15290034 1.1804372 3368615
-0.064460941 -0.15683502 1.1827542 3171751
0.09778367 -0.15735964 1.1770133 3369134
-0.079443648 -0.14195083 1.1795682 3369130
-0.073322274 -0.14417674 1.1823713 3434922
0.099203944 -0.14778742 1.1788682 3435183
-0.080906421 -0.13336107 1.1812316 3434923
0.10215168 -0.14077789 1.179207 3501232
0.10898194 -0.13780718 1.1785629 3435694
0.11570668 -0.13615189 1.175897 3501232
-0.088826314 -0.12199728 1.1814522 3369646
-0.083180591 -0.12595829 1.1828697 3435182
0.11298763 -0.12873389 1.1802132 3567282
0.1170621 -0.12823302 1.1779662 3567027
-0.096885234 -0.10904711 1.1810635 3501231
-0.092355788 -0.11319215 1.1835811 3435439
0.11320439 -0.12081487 1.1804855 3829686
0.11834767 -0.11807873 1.1786997 3829431
-0.096792653 -0.10566466 1.1811799 3501231
-0.092286833 -0.1026025 1.1828654 3567024
0.12091918 -0.10878455 1.1794181 3830201
-0.096406899 -0.091571122 1.1816645 3632818
-0.093159251 -0.092446737 1.183571 3698612
0.12331256 -0.098217137 1.1790724 3896507
-0.096144587 -0.081987515 1.181994 3633333
-0.092251651 -0.082383275 1.184705 3764919
0.12341741 -0.08799658 1.1789269 4093886
-0.096355051 -0.073181123 1.1823057 3633334
-0.092230454 -0.072467737 1.1854513 3830201
0.12069286 -0.078326166 1.1800416 4291523
-0.09155602 -0.062133253 1.1842642 3896506
0.12047785 -0.067816861 1.1797901 4619975
-0.088015564 -0.052680422 1.1845717 4028348
0.11496937 -0.056331385 1.1827025 5146320
0.11931485 -0.058633283 1.181535 4883148
-0.086069606 -0.043270174 1.1834321 3962814
-0.081003584 -0.04213487 1.1859447 3963072
0.11418942 -0.047433741 1.1815275 5146577
0.11786658 -0.049085032 1.1793953 5080527
-0.084453002 -0.034233339 1.1834297 4028607
-0.078187652 -0.032727286 1.1854929 4291526
-0.028203569 -0.032136828 1.1863894 5147865
-0.020727925 -0.032109678 1.1862421 5344731
-0.0044061765 -0.031639062 1.1859345 5345501
0.0023842314 -0.031820074 1.1857934 5739743
0.012470949 -0.034274347 1.1841731 5936862
0.021527404 -0.034535468 1.1843178 5871068
0.031778365 -0.033735737 1.185143 5739228
0.049917083 -0.033087142 1.1848056 5213656
0.11255496 -0.038506873 1.1817716 4949970
-0.076249592 -0.025256328 1.1835804 4422856
-0.067655623 -0.020786524 1.1853855 4686797
-0.057256959 -0.019942008 1.1853906 4884690
-0.046876047 -0.02170828 1.1866239 4950486
-0.03646373 -0.02271609 1.1855481 5213659
-0.027967967 -0.024049677 1.1834648 5279707
-0.017835978 -0.02547057 1.1836143 5345244
-0.0076336376 -0.024107553 1.1833705 5411808
0.0021857796 -0.025475912 1.1829256 5806052
0.011413317 -0.028815448 1.181716 6068964
0.023434255 -0.029511988 1.181453 6068963
0.033549003 -0.027433157 1.1822486 6003173
0.042065397 -0.025972217 1.1830082 5608417
0.052271709 -0.026274197 1.1833955 5411038
0.059156746 -0.026540741 1.1848508 5279709
0.10385329 -0.025944121 1.1830606 5212630
0.10936339 -0.029620983 1.1810778 5015248
-0.063838929 -0.015150324 1.183687 4949712
-0.057071365 -0.015330724 1.1835463 4949713
-0.046920013 -0.01560133 1.1833353 5016279
-0.037530903 -0.016227707 1.1831272 5213659
-0.028904032 -0.017209865 1.1829215 5345501
0.043862708 -0.018585436 1.1814291 5871590
0.052337594 -0.018247195 1.1812726 5871847
0.062689729 -0.016359754 1.1831347 5543139
0.070007697 -0.015435785 1.1833076 5280225
0.09455017 -0.016163081 1.1845107 5411294
0.10031941 -0.01764255 1.181797 5279196
0.072307773 -0.010317236 1.1811532 5411556
0.081941456 -0.0088815764 1.1810122 5412066
0.093220733 -0.0091822445 1.1807778 5477344
0.099926569 -0.011617616 1.1805595 5213404
-0.0011420995 -0.19137046 1.1842943 3105189
-0.021250177 -0.18240517 1.1860074 3039906
-0.011604531 -0.18481106 1.1861608 3039908
-0.0020693094 -0.18629149 1.1878262 3105447
0.0085039511 -0.18570796 1.1850512 3105702
0.017601857 -0.18467593 1.1841561 3171750
0.026594261 -0.18450257 1.1839837 3237289
0.038103748 -0.1829506 1.1838094 3237548
0.048323628 -0.18322302 1.183597 3171752
0.057407964 -0.18346518 1.1834083 3171752
-0.048592933 -0.17018907 1.185976 3039909
-0.040750127 -0.17115976 1.186676 3105701
-0.032637909 -0.17408213 1.1880708 3105443
-0.023162637 -0.1797772 1.1891395 3040163
0.0076247351 -0.17968611 1.1885316 3105960
0.019048709 -0.17887622 1.1883332 3105958
0.028166883 -0.17758071 1.1873968 3237545
0.038566582 -0.17675957 1.1861234 3237547
0.048602574 -0.17669688 1.1854206 3237544
0.058668997 -0.17674093 1.1853036 3237545
0.067350879 -0.17494965 1.1841755 3303339
-0.059576929 -0.1604681 1.1865336 3172009
-0.051197909 -0.16393748 1.188648 3105961
-0.041896045 -0.16645586 1.1899767 3171752
0.042092003 -0.17011936 1.1881815 3303337
0.048928101 -0.17030159 1.1880394 3303593
0.059046198 -0.16959441 1.1878633 3303594
0.06829527 -0.16718382 1.1865129 3303596
0.075100422 -0.16576201 1.1836753 3238062
-0.066724934 -0.15175813 1.1869797 3434409
-0.060978793 -0.15377092 1.1896211 3237547
-0.052685812 -0.15640283 1.190542 3237805
0.069481075 -0.15995869 1.1879927 3238318
0.078830913 -0.15723716 1.1867813 3238572
0.088922046 -0.157234 1.1848998 3434926
0.09541183 -0.15676171 1.1835865 3369134
-0.068793155 -0.14271528 1.1885682 3435179
-0.062861703 -0.14496328 1.1906986 3369388
0.0836697 -0.15071252 1.1880341 3500977
0.089365333 -0.14729175 1.1870396 3435186
0.094760232 -0.14735404 1.183928 3500720
-0.077014841 -0.13174811 1.1888835 3566511
-0.071361251 -0.13483448 1.1903316 3566767
-0.064196326 -0.13765304 1.1914252 3500977
0.09104719 -0.13972247 1.187771 3501234
0.098944083 -0.13739724 1.1849433 3501490
-0.086263694 -0.11829554 1.1885362 3566770
-0.079580836 -0.12314538 1.1908362 3632306
-0.073061742 -0.12829885 1.1919279 3632563
0.10101825 -0.12885347 1.1870402 3699127
0.10845109 -0.12769197 1.1848139 3633076
-0.08729893 -0.11271505 1.1897525 3566770
-0.081262238 -0.11387746 1.1925944 3763892
0.10218686 -0.11986348 1.1887438 3633335
0.10887188 -0.11776376 1.1862381 3764407
-0.087119319 -0.10270368 1.1918999 3698868
-0.082770549 -0.10347252 1.1929877 3699126
0.10308386 -0.10792021 1.1891432 3962811
0.1095944 -0.10814206 1.1878386 3830969
0.11725331 -0.10846678 1.1848396 3830714
-0.088057242 -0.09266042 1.1903909 3699126
-0.082750104 -0.093468748 1.1933367 3830712
0.11057609 -0.098249629 1.1887317 4028606
0.11866406 -0.098443352 1.1851617 3962300
-0.087204494 -0.08322303 1.1913811 3830970
-0.082249559 -0.083115958 1.1936884 3962813
0.11110727 -0.08922796 1.1896367 4291522
0.1189239 -0.088898741 1.1858538 4094399
-0.087228231 -0.073159635 1.1918473 3962044
-0.082316794 -0.07367067 1.1940196 4093630
0.11297891 -0.078526556 1.1897064 4554438
0.11772779 -0.079269975 1.1858499 4357059
-0.086337686 -0.063128881 1.1917988 4093886
-0.081688449 -0.062615737 1.1943932 4291009
0.11142334 -0.067921534 1.189485 4686026
0.11738516 -0.068063885 1.1862481 4685769
-0.084554911 -0.05586531 1.1906826 4159935
-0.079431698 -0.053632073 1.1935184 4225985
0.10445547 -0.057808578 1.1908661 5015248
0.11045167 -0.05915086 1.1880314 5014991
-0.076163463 -0.043877773 1.1930541 4292037
-0.070817292 -0.046298012 1.1947473 4619977
-0.047843263 -0.040072031 1.1945087 5279449
-0.039867826 -0.04028463 1.194343 5016538
-0.027366154 -0.041757613 1.1940434 4950743
-0.017895069 -0.043686163 1.1937879 4950488
-0.0087983441 -0.043772217 1.1936045 5147351
0.0016716691 -0.043101534 1.1934201 5278422
0.012153763 -0.045664411 1.1922328 5212886
0.021501372 -0.045221496 1.191201 5278423
0.031501591 -0.044668075 1.1915221 5147094
0.042410694 -0.045408636 1.1925308 4885460
0.051919181 -0.044133395 1.1916587 4950741
0.061053593 -0.043886639 1.1922139 5016279
0.1032081 -0.047876015 1.1898366 5212370
0.11051677 -0.049138058 1.1870455 5212369
-0.073894501 -0.036968462 1.1931326 4423370
-0.071742922 -0.033817768 1.1927996 4554187
-0.047244817 -0.035057396 1.1944051 5147610
-0.037406307 -0.034530967 1.1924934 5081818
-0.028367519 -0.037046127 1.1922262 5016538
-0.017180912 -0.035912611 1.1921772 5278938
-0.0080632344 -0.035549335 1.1920089 5344730
0.0023558363 -0.036668658 1.1906954 5673948
0.012494326 -0.039141614 1.1893404 5805277
0.021578662 -0.039383773 1.1891515 5541848
0.03182961 -0.038521089 1.1889782 5475544
0.04211162 -0.036523342 1.1888438 5213397
0.052757468 -0.037454274 1.1893065 5082070
0.062498052 -0.036990635 1.1908247 5016536
0.071522787 -0.03511297 1.1923125 5213915
0.082291953 -0.034423143 1.1921228 5279453
0.093217216 -0.035170257 1.1918799 5213659
0.10253761 -0.038282841 1.1899848 5212628
0.1091086 -0.038309257 1.1874516 5146833
-0.07128723 -0.0278209 1.1913987 4554443
-0.046028491 -0.026676737 1.1909373 5016281
-0.038785879 -0.027778536 1.1907551 5147611
-0.00769688 -0.029515997 1.1900773 5411294
0.063209511 -0.02686245 1.1887624 5148123
0.071930975 -0.027106375 1.188781 5213915
0.0819856 -0.027657025 1.1901025 5213917
0.092749253 -0.027897947 1.1904576 5213659
0.10066368 -0.029773094 1.1882509 5212887
0.093677051 -0.020859055 1.1883674 5279708
0.098219223 -0.020980135 1.188273 5411037
-0.017453663 -0.18084392 1.193993 3106213
-0.011733117 -0.18099642 1.1938741 3105959
-0.00047336612 -0.18195055 1.1936172 3105706
0.010004945 -0.18157586 1.1934223 3105960
-0.028134879 -0.17369224 1.1944548 3105700
-0.020728905 -0.17516562 1.195007 3105957
-0.011571279 -0.17540973 1.1948166 3106216
-0.0012529436 -0.17583491 1.1954477 3106217
0.0093935225 -0.17559758 1.195073 3171752
0.01729379 -0.17530254 1.1945885 3303337
0.028561108 -0.17291456 1.1933565 3369130
0.035425756 -0.17309755 1.1932138 3369132
-0.040416993 -0.16216592 1.1954348 3171753
-0.030766424 -0.16492036 1.1975356 3171752
-0.020445917 -0.16555029 1.1993904 3172010
-0.011281984 -0.16710699 1.200105 3172012
-0.0012224093 -0.16698757 1.2007055 3237802
0.0094481837 -0.16655102 1.1999631 3303338
0.018650318 -0.16683137 1.1999707 3369133
0.028931946 -0.16681114 1.198046 3369388
0.03905705 -0.16672105 1.197157 3303853
0.048329368 -0.1657216 1.1949668 3369643
0.058423594 -0.16513225 1.193271 3303851
-0.057827689 -0.15001088 1.1958712 3303598
-0.049766295 -0.15311341 1.1973186 3303341
-0.041186284 -0.15520486 1.2005066 3303340
-0.031829406 -0.15699649 1.2031177 3369132
-0.0237142 -0.15909807 1.2028832 3303600
0.0096857715 -0.1599884 1.2021891 3303598
0.022354728 -0.16032612 1.2019259 3435186
0.029840928 -0.16052568 1.2017703 3369391
0.039630573 -0.16078663 1.2015668 3369392
0.049505699 -0.15811306 1.2008483 3369390
0.059027437 -0.15716943 1.1971048 3435184
0.068377689 -0.15566407 1.1931686 3369392
-0.058572151 -0.14301635 1.196931 3369646
-0.051413238 -0.14569962 1.2014991 3303853
-0.04419313 -0.14933529 1.2036307 3173034
0.051680662 -0.15004759 1.2017027 3566773
0.05988463 -0.1489332 1.2009115 3566516
0.069684133 -0.14720681 1.1978416 3500977
0.079524145 -0.14802456 1.1948998 3500975
-0.068423152 -0.13076256 1.1967539 3632562
-0.059574269 -0.13418037 1.1994612 3501236
-0.05197899 -0.13472433 1.2038507 3501494
0.072229013 -0.13832536 1.2017043 3698612
0.079735518 -0.13877954 1.1991738 3567283
0.088606037 -0.13647741 1.196373 3567283
0.096046314 -0.13351178 1.1933931 3501747
-0.075350851 -0.12093145 1.1972347 3895478
-0.069791578 -0.12370735 1.1995294 3698613
-0.060851343 -0.12505116 1.2034751 3633080
0.073849842 -0.13174395 1.2019019 3699128
0.080493085 -0.12873058 1.2018753 3830713
0.089955568 -0.1285523 1.2004927 3699126
0.096679255 -0.12711948 1.1936038 3633333
-0.076439284 -0.11289099 1.1975372 3961271
-0.069609471 -0.11370879 1.2023771 3896247
-0.062890105 -0.11657783 1.2051458 3764921
0.0805768 -0.12178469 1.2021163 3962300
0.091493398 -0.1195474 1.2015067 3896506
0.098973438 -0.11765604 1.1958904 3764920
-0.077516608 -0.10359792 1.1993843 3830712
-0.07054767 -0.10354168 1.2044188 4093627
0.094763011 -0.10879838 1.2022882 4028352
0.10006462 -0.10814627 1.1968681 3962812
-0.077624425 -0.093298204 1.2002466 3962556
-0.071112536 -0.094801769 1.2056248 4028606
0.094521023 -0.09839002 1.2026565 4357317
0.10084496 -0.098607816 1.1985201 4225985
0.10626348 -0.094871372 1.1945398 4225985
-0.076886684 -0.084311277 1.2005458 4028606
-0.07201039 -0.08484371 1.2064352 4094655
0.095267199 -0.090378061 1.2029215 4554695
0.10106751 -0.08821433 1.1982782 4554182
0.10725578 -0.086504877 1.1948123 4619462
-0.077307813 -0.073596448 1.1993977 4159424
-0.069185749 -0.073046617 1.2055595 4160448
-0.06281288 -0.071647607 1.2067136 4554440
0.096093416 -0.077035613 1.203371 4620747
0.10158972 -0.07812123 1.2009723 4686026
0.10784586 -0.078890659 1.1950666 4619977
