# .PCD v0.7 - Point Cloud Data file format
VERSION 0.7
FIELDS x y z rgba
SIZE 4 4 4 4
TYPE F F F U
COUNT 1 1 1 1
WIDTH 174
HEIGHT 1
VIEWPOINT 0 0 0 1 0 0 0
POINTS 174
DATA ascii
-0.015294436 -0.18133916 0.85115659 5134174
-0.011416569 -0.18624406 0.84816545 5134176
-0.012486629 -0.17809564 0.85308743 4871515
-0.033199638 -0.1913984 0.85342324 4936281
-0.027235284 -0.19902965 0.84877008 5199967
-0.023643903 -0.20184529 0.84704101 5397348
-0.034699727 -0.18224689 0.85860336 4673880
-0.029379107 -0.18605112 0.85402417 4870232
-0.022287261 -0.1918893 0.85127985 5068382
-0.014808156 -0.1975956 0.84841084 5068384
-0.0079897195 -0.20162962 0.84703356 4476504
-0.028600741 -0.17532483 0.86112714 4607822
-0.023390286 -0.17870586 0.85748607 4673623
-0.015807953 -0.18552271 0.85330969 5134174
-0.0075230002 -0.19097668 0.84994882 4739419
-0.0019402206 -0.19629006 0.84819782 4081746
-0.023052864 -0.17077672 0.86576658 4410445
-0.016200166 -0.17336771 0.86064118 4213839
-0.0082612932 -0.1789955 0.85717857 4345429
-0.0011239573 -0.18507184 0.85345256 4016211
0.0046444908 -0.19058621 0.85142475 3621193
-0.012063324 -0.17027807 0.86246759 3884109
-0.0044865459 -0.17507564 0.85950863 3752784
0.0031420812 -0.18113527 0.85578841 3621192
0.007771112 -0.1860331 0.85279495 3686459
-0.047551095 -0.1996448 0.86075521 4673626
-0.042209584 -0.20344454 0.85510075 4870741
-0.036255915 -0.20956463 0.85157418 5265754
-0.02835644 -0.21506469 0.84850103 5397604
-0.02019354 -0.21978945 0.84903735 4608350
-0.042203117 -0.19133992 0.86112761 4673629
-0.037100997 -0.19602661 0.8557272 4870744
-0.031945687 -0.20172346 0.85185814 5134174
-0.021501541 -0.20792094 0.84879166 5397606
-0.014837354 -0.21435843 0.84971678 4476760
-0.0074717402 -0.21654077 0.8508842 4015442
-0.041676912 -0.18442477 0.87054682 3883351
-0.0391437 -0.18374133 0.86486441 4475995
-0.016404651 -0.20399302 0.85035342 5068641
-0.0074811876 -0.20832705 0.85005903 4082513
-0.0022850558 -0.21334037 0.85218424 3752531
-0.033268314 -0.17610368 0.86801618 4079443
0.00015158206 -0.20342958 0.85229927 3621705
0.0018967912 -0.20913923 0.85246164 3751503
0.0041004941 -0.19693604 0.85442787 3490378
-0.051386572 -0.22382621 0.85972226 5002588
-0.049045719 -0.22568563 0.85858071 5528419
-0.052644186 -0.21158859 0.86711121 4739163
-0.04931923 -0.21609063 0.86092955 5002333
-0.04257964 -0.22177388 0.85737914 5397092
-0.034447029 -0.22655107 0.85601234 5332066
-0.029235829 -0.23018248 0.85569566 4740695
-0.05101379 -0.2055451 0.86460996 4082256
-0.046726845 -0.20940748 0.86020023 5068120
-0.029588345 -0.22342044 0.85393697 5200736
-0.021270622 -0.22718142 0.85409111 4345175
-0.014745448 -0.23127341 0.85424346 4278096
-0.012862831 -0.22107962 0.85386682 4147028
-0.0096282884 -0.22628349 0.85547 3819087
-0.0046646968 -0.21950598 0.8551439 3687502
-0.05417645 -0.24118564 0.86212587 5528423
-0.050657488 -0.24335034 0.86078995 5397348
-0.056398425 -0.22748877 0.86417526 4804702
-0.04960404 -0.23282982 0.86021864 5462626
-0.042266585 -0.2392246 0.85931122 5003105
-0.033918165 -0.24217315 0.85855019 4804440
-0.056230273 -0.21651793 0.87234485 3817824
-0.054446571 -0.22027522 0.86539316 4673622
-0.042711008 -0.22959709 0.85967004 5660265
-0.036244925 -0.23291205 0.85761476 5069150
-0.027701236 -0.23742503 0.85715437 4475986
-0.020794541 -0.23788948 0.85681373 4014924
-0.0213365 -0.23405458 0.85679501 4606547
-0.015478134 -0.23611477 0.85608536 3620428
-0.063569471 -0.24529037 0.86790764 4079956
-0.059427649 -0.2485677 0.86322641 5266270
-0.05482151 -0.25287351 0.86325908 5002845
-0.061482903 -0.23870397 0.86952478 4079963
-0.057699129 -0.24372923 0.8641265 5330781
-0.048471358 -0.24929833 0.86261117 5002331
-0.041990593 -0.24659789 0.86225909 5001816
-0.036982987 -0.24784979 0.86286157 4540755
-0.029043362 -0.24550307 0.86280543 4213074
-0.066342235 -0.26168582 0.87206006 5265766
-0.064258061 -0.25664142 0.8717466 5068639
-0.056763459 -0.2604124 0.86885124 4214103
-0.065999411 -0.24528557 0.87260276 1580089
-0.049246263 -0.25679034 0.86629808 4145996
-0.043305419 -0.25439912 0.86690909 4212054
-0.071736939 -0.26016361 0.87652814 3618132
-0.068469256 -0.26404476 0.87415957 5199718
-0.06290096 -0.26718226 0.87221909 4214875
-0.10474876 -0.3122212 0.86411673 528927
-0.10145788 -0.31561726 0.8620404 1517876
-0.10876315 -0.32752895 0.86893582 4419983
-0.11518978 -0.31341371 0.87516659 1651559
-0.11070451 -0.314473 0.87081861 1782104
-0.1035763 -0.32200119 0.86375695 4154236
-0.097452506 -0.32482782 0.86646134 3028033
-0.10373078 -0.31440851 0.87680173 2369321
-0.098106787 -0.31715748 0.87089121 2040105
-0.090614267 -0.30032089 0.88050878 4146252
-0.1182534 -0.32184988 0.8817845 5077683
-0.11503673 -0.32674646 0.87724727 4617364
-0.10839857 -0.33246121 0.87374365 4549258
-0.10086767 -0.33077103 0.87158263 6582660
-0.11122338 -0.31197548 0.88300508 7695014
-0.1030388 -0.31443965 0.88222611 2040625
-0.096279919 -0.31803215 0.87922239 2172202
-0.094712108 -0.32509086 0.87495309 2760198
-0.12216173 -0.33658421 0.88227743 4683677
-0.1179921 -0.33989626 0.88024402 3831442
-0.12305234 -0.32722613 0.88659257 3299734
-0.11941153 -0.33198708 0.88205248 4683420
-0.11347552 -0.33777189 0.8796168 3960460
-0.17676482 -0.3851102 0.86868161 3829135
-0.17048943 -0.38953078 0.86596143 4223637
-0.16624126 -0.39343083 0.86357284 3960467
-0.17096718 -0.37873593 0.87247366 3498881
-0.16449437 -0.38313746 0.86929613 3895695
-0.15783963 -0.38706911 0.86733443 3631246
-0.16328008 -0.37021434 0.87404054 3499128
-0.15852591 -0.37492973 0.87115598 4025235
-0.15142104 -0.38040334 0.86996222 3499655
-0.15645549 -0.36363357 0.87561268 3826560
-0.15155287 -0.36783597 0.87361991 4156303
-0.14608106 -0.37410173 0.87271363 3630985
-0.14976929 -0.35933611 0.88164794 3893387
-0.14474052 -0.36216885 0.87807959 4157333
-0.1390032 -0.36718476 0.87740541 3762828
-0.14273182 -0.35602152 0.88591987 3762325
-0.13684037 -0.35582423 0.88170552 4420507
-0.13238965 -0.3607465 0.88142347 3828877
-0.13414665 -0.34665191 0.89149326 4222878
-0.13017565 -0.3500523 0.88504899 4552347
-0.12590759 -0.35542661 0.88519663 3631755
-0.13007337 -0.33776534 0.89027596 3627913
-0.12493325 -0.34280035 0.88478196 4683676
-0.11879463 -0.34766912 0.88522512 3892613
-0.11274463 -0.34156761 0.88502884 3563127
-0.18460992 -0.39316988 0.8702305 3033484
-0.17917362 -0.39987129 0.86893922 2897991
-0.17126101 -0.40496647 0.86522549 3891064
-0.16521306 -0.40973827 0.86424172 2638186
-0.18136862 -0.38437158 0.87383825 666715
-0.17492577 -0.39211908 0.86911082 4813457
-0.1629779 -0.39815804 0.86536509 3499654
-0.15762311 -0.40415531 0.86600453 3561592
-0.17408177 -0.37681764 0.87832844 6722
-0.15657073 -0.39208066 0.86897278 3694979
-0.15157844 -0.39677182 0.86843616 3233144
-0.14832294 -0.3864502 0.8722949 3104639
-0.14486654 -0.39080709 0.87335324 2640231
-0.14220887 -0.37993699 0.87616795 2907007
-0.13907161 -0.38489497 0.87845904 3099492
-0.15026101 -0.35919335 0.88874465 4089741
-0.13596287 -0.37385947 0.88019413 3496061
-0.13201036 -0.3780582 0.88304961 4278874
-0.14305155 -0.35544521 0.89094102 2972810
-0.12938243 -0.36748356 0.88515562 3757171
-0.12731895 -0.37227088 0.8864975 3748927
-0.1382644 -0.35248005 0.89268667 3630740
-0.12394387 -0.36250168 0.88651901 3953004
-0.18385831 -0.40610087 0.87126923 984897
-0.17354292 -0.40974939 0.86897898 4350584
-0.14963832 -0.40097576 0.87483704 4674411
-0.14385791 -0.39678469 0.88003767 6974583
-0.13757783 -0.38878793 0.88480365 3815753
-0.15352473 -0.36201662 0.89758056 5799072
-0.13046181 -0.38169968 0.8855114 5064001
-0.15353915 -0.41117013 0.88312697 7039097
-0.14978829 -0.40788767 0.88624072 7565430
-0.14438784 -0.40185905 0.88943863 8223350
-0.13899308 -0.39408502 0.88862884 9076613
