# .PCD v0.7 - Point Cloud Data file format
VERSION 0.7
FIELDS x y z rgba
SIZE 4 4 4 4
TYPE F F F U
COUNT 1 1 1 1
WIDTH 174
HEIGHT 1
VIEWPOINT 0 0 0 1 0 0 0
POINTS 174
DATA ascii
-0.032058395 -0.19958258 0.80733442 5134174
-0.028438613 -0.20481467 0.80458397 5134176
-0.029086113 -0.1963546 0.80903089 4871515
-0.050328236 -0.20871937 0.81044155 4936281
-0.044765349 -0.21685672 0.80616385 5199967
-0.041323707 -0.21991912 0.80455381 5397348
-0.051359165 -0.19922541 0.81509304 4673880
-0.046278328 -0.20351398 0.81067222 4870232
-0.039482724 -0.20979962 0.80817819 5068382
-0.032296792 -0.21597749 0.80554646 5068384
-0.025676422 -0.22037223 0.8043142 4476504
-0.04493561 -0.19243431 0.81711811 4607822
-0.039931692 -0.1962413 0.81361026 4673623
-0.032710582 -0.20360756 0.80973768 5134174
-0.024717197 -0.2095969 0.80658877 4739419
-0.019390836 -0.21523675 0.80507636 4081746
-0.039126862 -0.18786392 0.82140285 4410445
-0.032473832 -0.19103965 0.81634378 4213839
-0.024835117 -0.19719352 0.81310838 4345429
-0.018020205 -0.20377594 0.80964786 4016211
-0.012521319 -0.20964032 0.80786842 3621193
-0.028182 -0.18802796 0.81792641 3884109
-0.020862035 -0.19330893 0.8151499 3752784
-0.013555534 -0.19989529 0.81168723 3621192
-0.0091850981 -0.20515251 0.80892348 3686459
-0.064888641 -0.21590395 0.81844795 4673626
-0.059804477 -0.22025168 0.81295329 4870741
-0.054170579 -0.22681561 0.80971104 5265754
-0.046559464 -0.23281765 0.80685741 5397604
-0.038593259 -0.23784697 0.80755717 4608350
-0.059193078 -0.20782721 0.81825453 4673629
-0.054380924 -0.21303453 0.81306916 4870744
-0.049532555 -0.21916226 0.80947125 5134174
-0.039408349 -0.22596806 0.80662978 5397606
-0.033004463 -0.23261897 0.80783975 4476760
-0.025718145 -0.23504165 0.80903059 4015442
-0.058223218 -0.20040271 0.82724082 3883351
-0.055757768 -0.20016086 0.82149309 4475995
-0.034126796 -0.22217667 0.80788535 5068641
-0.025398187 -0.22689721 0.80772227 4082513
-0.020381607 -0.231995 0.81006664 3752531
-0.049517356 -0.19260985 0.82410586 4079443
-0.017531626 -0.22220737 0.80956233 3621705
-0.016023941 -0.22796705 0.81003696 3751503
-0.013280399 -0.21577503 0.81124842 3490378
-0.069747135 -0.23991877 0.8188979 5002588
-0.067505121 -0.2419398 0.81783539 5528419
-0.070370518 -0.22722816 0.82556856 4739163
-0.067338914 -0.23222114 0.81961745 5002333
-0.060902029 -0.23838426 0.81631458 5397092
-0.052999675 -0.24357566 0.81511825 5332066
-0.047950603 -0.24743837 0.81494343 4740695
-0.068530649 -0.22141606 0.82269239 4082256
-0.064482078 -0.22570863 0.81845868 5068120
-0.04804939 -0.24078166 0.81279379 5200736
-0.039894573 -0.24487862 0.81305307 4345175
-0.033544354 -0.24922936 0.81335515 4278096
-0.031244151 -0.23916453 0.81235117 4147028
-0.028203741 -0.24439918 0.81421322 3819087
-0.022967488 -0.23787017 0.81341809 3687502
-0.073219493 -0.25697342 0.82236081 5528423
-0.069816522 -0.25936055 0.82110578 5397348
-0.074833423 -0.24309796 0.82362914 4804702
-0.068334207 -0.24894586 0.8198998 5462626
-0.061286177 -0.25568986 0.8192687 5003105
-0.05308187 -0.25903127 0.81856602 4804440
-0.074072495 -0.23168609 0.83113384 3817824
-0.072562188 -0.23591547 0.82439166 4673622
-0.061322175 -0.24604766 0.81906486 5660265
-0.055034965 -0.24974975 0.81711835 5069150
-0.046695955 -0.25464225 0.81680542 4475986
-0.039821241 -0.25542003 0.816396 4014924
-0.040202811 -0.25157312 0.81615859 4606547
-0.034448102 -0.25391924 0.81548971 3620428
-0.082679071 -0.26032919 0.82850587 4079956
-0.078755528 -0.26404789 0.82396865 5266270
-0.07433331 -0.26853701 0.8241908 5002845
-0.080292866 -0.25375462 0.82970202 4079963
-0.076811835 -0.25924331 0.82455724 5330781
-0.067850947 -0.26527992 0.82324409 5002331
-0.061269753 -0.26288354 0.82264239 5001816
-0.05630954 -0.26431063 0.82324749 4540755
-0.048280846 -0.262312 0.82294166 4213074
-0.086065233 -0.27632105 0.83365721 5265766
-0.083777674 -0.27139705 0.83301735 5068639
-0.076495871 -0.2756469 0.83024484 4214103
-0.085028902 -0.25994664 0.83322614 1580089
-0.068877116 -0.272504 0.82737726 4145996
-0.062832326 -0.27033684 0.82776272 4212054
-0.091317207 -0.27431184 0.83810282 3618132
-0.088253982 -0.2784605 0.83592188 5199718
-0.082854345 -0.28194061 0.83409214 4214875
-0.12667449 -0.32554948 0.82924962 528927
-0.12356302 -0.32919827 0.82733142 1517876
-0.1312446 -0.34036461 0.83501959 4419983
-0.13697249 -0.32564843 0.84049588 1651559
-0.13260771 -0.32715011 0.83615553 1782104
-0.12591758 -0.33537489 0.82945126 4154236
-0.11987339 -0.33829752 0.8322317 3028033
-0.12553962 -0.327034 0.84202605 2369321
-0.12013359 -0.33036071 0.83620989 2040105
-0.11178685 -0.31332636 0.84471095 4146252
-0.14027615 -0.33354551 0.84764242 5077683
-0.13734205 -0.33883134 0.8433575 4617364
-0.13100705 -0.34501883 0.84010458 4549258
-0.12344881 -0.34378049 0.83774221 6582660
-0.1328207 -0.32392558 0.84817946 7695014
-0.12476014 -0.32677791 0.84743255 2040625
-0.11820766 -0.33082467 0.84455174 2172202
-0.11700664 -0.33818102 0.84068489 2760198
-0.14478773 -0.34804577 0.84905893 4683677
-0.14079417 -0.35164571 0.8471663 3831442
-0.14521542 -0.3384223 0.85282624 3299734
-0.14185202 -0.34359112 0.84852451 4683420
-0.13620377 -0.34975621 0.8463515 3960460
-0.20158654 -0.39490917 0.83911765 3829135
-0.19554697 -0.39974466 0.83657539 4223637
-0.19150537 -0.40395516 0.83436185 3960467
-0.195466 -0.38857752 0.84244519 3498881
-0.18923596 -0.39342913 0.83944255 3895695
-0.18278447 -0.39774892 0.83762324 3631246
-0.18740493 -0.38031471 0.84339851 3499128
-0.18290007 -0.38538891 0.84073091 4025235
-0.17605065 -0.39122099 0.83976281 3499655
-0.18028647 -0.37395048 0.84448367 3826560
-0.17559718 -0.37846735 0.8426739 4156303
-0.1704075 -0.38500303 0.84206235 3630985
-0.17332798 -0.36959717 0.85016042 3893387
-0.16848144 -0.37284532 0.8466953 4157333
-0.16297051 -0.37813222 0.84623808 3762828
-0.1660887 -0.3663421 0.85413021 3762325
-0.16026448 -0.36664265 0.84982938 4420507
-0.15602848 -0.37175834 0.84977603 3828877
-0.15702894 -0.35703787 0.85901994 4222878
-0.15331027 -0.36097491 0.8527326 4552347
-0.14926854 -0.36650863 0.85313737 3631755
-0.15260875 -0.34841937 0.85722327 3627913
-0.14777473 -0.3539812 0.85196453 4683676
-0.14183831 -0.35907322 0.8526082 3892613
-0.13554284 -0.35325721 0.85196739 3563127
-0.20973477 -0.40252268 0.84124935 3033484
-0.20460513 -0.40951383 0.84027976 2897991
-0.19697456 -0.41515002 0.83676273 3891064
-0.19114821 -0.42022476 0.83597761 2638186
-0.20606981 -0.39367506 0.84428573 666715
-0.20003498 -0.4019531 0.83993399 4813457
-0.18841317 -0.40870458 0.83638412 3499654
-0.18330368 -0.41487727 0.83730125 3561592
-0.19840077 -0.38618958 0.84821963 6722
-0.18169914 -0.40270585 0.83953667 3694979
-0.17691663 -0.40762901 0.83920789 3233144
-0.17316972 -0.397248 0.84240466 3104639
-0.16988128 -0.40167916 0.84366983 2640231
-0.16672592 -0.39078653 0.84580046 2907007
-0.16376108 -0.39573163 0.84833604 3099492
-0.17369618 -0.36901951 0.85724252 4089741
-0.160166 -0.38475636 0.84937298 3496061
-0.1563457 -0.388946 0.85241562 4278874
-0.16630121 -0.36546052 0.85911262 2972810
-0.15324405 -0.3783882 0.85385674 3757171
-0.15136045 -0.38317266 0.8554498 3748927
-0.16136625 -0.36260539 0.86061287 3630740
-0.14758043 -0.37357175 0.85484737 3953004
-0.20950681 -0.41539121 0.8430388 984897
-0.19939196 -0.41960394 0.84082353 4350584
-0.17504844 -0.41153103 0.84581792 4674411
-0.16901302 -0.40729392 0.85068059 6974583
-0.16232669 -0.39930773 0.85487777 3815753
-0.1769287 -0.37118036 0.86627454 5799072
-0.15491018 -0.39250028 0.85506606 5064001
-0.1792343 -0.42104837 0.85474896 7039097
-0.17529875 -0.41775274 0.85761064 7565430
-0.16959924 -0.41178358 0.86037117 8223350
-0.16389862 -0.40430731 0.8590284 9076613
