# .PCD v0.7 - Point Cloud Data file format
VERSION 0.7
FIELDS x y z rgba
SIZE 4 4 4 4
TYPE F F F U
COUNT 1 1 1 1
WIDTH 1132
HEIGHT 1
VIEWPOINT 0 0 0 1 0 0 0
POINTS 1132
DATA ascii
-0.0083865989 0.029739693 0.99522209 4743815
0.00025277957 0.03121148 0.99488777 4678280
0.010756455 0.033585966 0.99486405 4809598
0.023760477 0.032217205 0.99351919 4612484
0.031542122 0.031298324 0.9945268 4677249
0.040909022 0.031043753 0.99560136 5005437
0.050993275 0.031876624 0.9975152 5268860
-0.017009828 0.034564659 0.99911714 5006720
-0.09419547 -0.014171764 1.0081729 5932737
-0.09004432 -0.01216507 1.007532 5933251
-0.094886184 -0.008836329 1.0090934 6192539
-0.087126076 -0.0048725829 1.0045701 5930664
0.08681117 0.0095484629 1.0037905 6983363
0.094101921 0.0089189038 1.0069451 6061227
0.099383295 0.0099093318 1.0068524 5400966
-0.084895864 0.0035698935 1.0062057 6189971
-0.07844986 0.0070564225 1.0037762 5861520
-0.070992827 0.010232411 1.0026916 5664907
0.065827549 0.01811754 0.99981976 5996731
0.073914751 0.017151162 1.0011585 5731750
0.083500817 0.01608412 1.0043712 5927827
0.092005402 0.013894044 1.0071237 5861518
-0.076132581 0.011753686 1.0082508 6058377
-0.065393537 0.01580555 1.0060481 5467271
-0.060159665 0.019484401 1.0054438 5466762
0.063175768 0.024545223 1.0014501 5268360
0.071776889 0.023240849 1.0046906 5663111
0.080210015 0.021294631 1.0060837 6517124
-0.058463003 0.02245865 1.0067348 5532297
-0.044862684 0.025856562 1.0045172 5204613
-0.038765192 0.028639048 1.0057484 5138821
-0.029144727 0.02870746 1.0030562 4876167
-0.021624699 0.032383233 1.0021653 5138310
-0.010185689 0.03308247 1.0019262 5138050
0.032392863 0.035685182 1.0010364 5006203
0.042088084 0.035322189 1.0011837 5202812
0.050198279 0.034477606 1.0006037 5203582
0.060328506 0.03087379 1.0040827 5597049
-0.036095034 0.033449262 1.010524 5269636
-0.027690422 0.034722254 1.0078669 5204101
-0.01819519 0.035726711 1.0060537 5072257
-0.0083856396 0.036083654 1.005367 5006718
0.0011419151 0.03665866 1.0038669 4875393
0.010817035 0.037267089 1.006667 4875390
0.021279611 0.037820369 1.0066189 4874877
0.031418465 0.038415745 1.0053552 5006460
0.038686197 0.038008794 1.0064595 5202811
-0.10471959 -0.01720044 1.0149338 6980776
-0.098621339 -0.016539998 1.0136132 6129600
-0.10398614 -0.010677233 1.0180914 7570324
-0.096965477 -0.0070269182 1.0144275 6651024
-0.091107786 -0.0008481741 1.0138586 6781327
0.092229635 0.0064901635 1.0099249 6854356
0.1038163 0.0072537139 1.0115187 7111067
-0.087186888 0.0051717013 1.0150549 6583439
0.094478607 0.017832711 1.0109743 6845830
0.10291825 0.015677087 1.0129287 7436672
-0.075487688 0.016792774 1.0176178 6321290
-0.069391668 0.018106125 1.0164968 5795463
0.073039554 0.026558585 1.0148894 5860223
0.082947627 0.022532873 1.0123587 6649473
0.090524524 0.022260189 1.0163834 6977411
-0.076184288 0.021322951 1.0178604 7372164
-0.066805616 0.022226632 1.0164223 6123396
-0.057680275 0.02709423 1.0185134 5729669
-0.049192574 0.028192103 1.0183722 5336195
-0.042745348 0.031122431 1.0136141 5270149
0.062561095 0.033207372 1.0112984 5532277
0.07034412 0.030663863 1.015859 5860472
-0.058454584 0.03212443 1.0199978 6714755
-0.049406778 0.032677501 1.0198088 5794947
-0.038762938 0.035068348 1.017531 5466498
-0.028507855 0.038306281 1.016235 5466240
-0.018053878 0.039440557 1.0171803 5334655
-0.0076508913 0.04025659 1.0154667 5138044
0.001353696 0.041451514 1.015896 5072252
0.011011958 0.041874677 1.0149969 5072247
0.020673191 0.041928858 1.0144016 5137530
0.031009195 0.04175891 1.0178094 5137788
0.040156446 0.039111137 1.0149605 5268347
0.11127715 -0.00041843951 1.018319 7374502
-0.10468368 -0.0076142401 1.0271362 9214113
-0.096155599 -0.0031245574 1.0252045 6978442
0.1072704 0.0012880936 1.0184543 7112109
0.11150409 0.0057385713 1.0191085 8686741
-0.094624281 0.0027363375 1.0259395 7636109
-0.089549839 0.0071777776 1.0250419 7437970
0.11106206 0.013879113 1.0187014 9277068
0.075830884 0.027980894 1.0208676 5992060
0.082564145 0.026254185 1.0232553 6451580
0.089481011 0.025549345 1.0218303 6516347
-0.065921888 0.024525546 1.0239676 6254982
-0.062481221 0.028977677 1.0300114 6648965
-0.046638671 0.028957754 1.0226499 5270660
0.056553219 0.037225321 1.0235469 5662844
0.062494278 0.036219105 1.0234867 5794679
0.071223781 0.033992589 1.0221307 5926261
0.079666331 0.030799672 1.0248582 6253428
-0.056758311 0.034201697 1.0247673 7043204
-0.047714319 0.035415873 1.0250127 6188928
-0.037520319 0.039111406 1.0258148 5991293
-0.027900171 0.041851297 1.0257705 5794427
-0.018149547 0.042437479 1.024766 5597052
-0.0099660177 0.042532653 1.0233836 5399930
-0.00067654997 0.04347606 1.0219986 5203324
0.010018299 0.044129804 1.0217751 5269365
0.022710063 0.044917896 1.0225109 5334394
0.031974316 0.044424623 1.0242904 5466234
0.038641803 0.042991146 1.0249363 5597049
0.056376126 0.04015027 1.0236282 5991033
0.061043277 0.04030858 1.0258145 6055795
-0.026064422 0.043918207 1.0255837 6056827
-0.017060637 0.045500681 1.0289249 5859449
-0.008735884 0.046188891 1.027655 5728377
0.00048361719 0.046159208 1.0290477 5532027
0.01114567 0.046249554 1.02881 5532021
-0.10185145 -0.0059373528 1.0329773 7306630
-0.099947363 -0.004835695 1.0329635 7438985
-0.083414242 0.013840392 1.0390882 7044228
-0.079564825 0.014110379 1.0360069 6255491
0.084759459 0.028623447 1.0296891 6187632
0.09012945 0.029444322 1.0295898 6119529
-0.066029876 0.027386755 1.033051 6780808
0.052228089 0.036980182 1.030642 5465215
0.076286003 0.03318499 1.0350033 6056820
0.082386672 0.032905743 1.0331576 5988198
-0.054158922 0.036388636 1.0330215 7108737
-0.047905397 0.039569065 1.0362667 7108222
-0.039670225 0.041215375 1.0328228 6582396
0.043284893 0.043521762 1.0332675 5859705
0.048712879 0.042031422 1.0318552 5728122
-0.035302721 0.044806838 1.0353209 6713719
-0.028923295 0.04607667 1.0366116 6450807
-0.020777315 0.046843022 1.0347974 6122104
-0.0090271626 0.048547983 1.034578 6122617
0.0032542357 0.04980202 1.0347515 6057083
0.0096001662 0.050008252 1.035548 6057334
-0.08826904 0.012231164 1.0421568 7832202
0.075832978 0.036460146 1.0391024 5792617
0.078803927 0.036641762 1.0390403 5724767
-0.04681531 0.042876914 1.042033 7764863
-0.027248789 0.048048377 1.0417291 6384242
-0.018335946 0.048593193 1.0415429 6121843
0.16305169 -0.068497464 1.0533785 13950701
0.16607682 -0.068312548 1.0533152 13160147
0.16488531 -0.06534946 1.0534203 13423577
0.1648718 -0.078275889 1.0600834 12898285
0.16890086 -0.078995258 1.0594734 12832198
0.16302541 -0.072369441 1.0584227 10136266
0.16980885 -0.072436899 1.0583754 13159885
0.16302611 -0.066114783 1.0599458 12175571
0.16821599 -0.064634755 1.056366 13093836
-0.13804802 -0.11747377 1.0776747 1720740
-0.13923888 -0.1106345 1.0776703 3628972
-0.14060988 -0.10458759 1.0792735 4745397
0.16452052 -0.080332786 1.0690423 6256041
0.16922393 -0.082737476 1.0690731 12767188
0.16226992 -0.071428627 1.0713295 7312841
-0.13426091 -0.14179431 1.088154 2903988
-0.13115025 -0.14160417 1.0880889 1324707
-0.13646303 -0.12985836 1.0877683 2904505
-0.13571157 -0.12100185 1.0866344 2644141
0.16609204 -0.10054164 1.0824817 5801403
0.17053704 -0.10061678 1.0823797 11779799
-0.13611351 -0.10986193 1.0850365 3039906
0.16467851 -0.09148933 1.0817521 3630254
0.17092314 -0.091912694 1.0810117 11516624
0.1780325 -0.09148705 1.0824521 13685195
-0.13909735 -0.10112986 1.0876994 2708908
0.1639294 -0.083029538 1.0811168 3762605
0.16887793 -0.086491428 1.0797882 10465738
0.16358331 -0.076114148 1.0771797 6721740
-0.13777614 -0.083736308 1.0897664 1588628
-0.13466547 -0.083546162 1.0897014 3826867
-0.12665704 -0.15688364 1.0935878 3694011
-0.13206142 -0.15061831 1.0918738 7178192
-0.12682311 -0.15007813 1.0929246 2114980
-0.1329626 -0.13918498 1.092196 1063065
-0.12830074 -0.14174917 1.0929239 2447769
-0.13295104 -0.13161235 1.0923957 2578847
-0.1304135 -0.13109489 1.0953541 2907546
0.16666287 -0.11167911 1.087678 6851775
0.17217679 -0.11083461 1.0860753 13029078
-0.13285603 -0.12152027 1.0934106 3104917
-0.1311716 -0.11857407 1.0957018 3170462
0.16462141 -0.100996 1.0880061 3040417
0.17448926 -0.10368083 1.0862122 13422807
0.17721419 -0.10038106 1.0862379 13619661
-0.13569537 -0.10915242 1.0938011 3104162
0.16287594 -0.092859477 1.087617 2973607
-0.13552837 -0.10081159 1.0942678 3169952
0.16272816 -0.082805283 1.0900301 2843043
-0.13792671 -0.091242768 1.0937319 3301299
-0.12059867 -0.16871437 1.103145 4750553
-0.11678267 -0.17076582 1.1050061 1196192
-0.12312052 -0.16150367 1.1001903 3036848
-0.11897531 -0.16367187 1.1052428 1789334
0.16428038 -0.14224274 1.0969305 12898004
-0.12269859 -0.15060699 1.1018916 2776475
0.16420311 -0.13310426 1.0960729 9087435
0.16964415 -0.12802954 1.0926824 13488846
-0.12559511 -0.14002368 1.1020139 3038106
0.16339098 -0.12246 1.0953717 4354994
0.17104751 -0.11995556 1.092864 13752800
-0.1280193 -0.13048825 1.1037657 2973083
0.16279329 -0.1127354 1.0965502 2121388
-0.13376528 -0.11714593 1.0998002 3301280
-0.13000937 -0.12197652 1.1032268 3039132
0.16298501 -0.10459065 1.0946187 2646946
0.17890666 -0.098414034 1.0962578 13817039
-0.13414571 -0.11086271 1.0999748 3366820
-0.1314646 -0.11130504 1.1049058 3105183
0.16069965 -0.092562109 1.0985233 3631271
0.1798297 -0.096249729 1.0962942 13817037
-0.13482203 -0.099692553 1.1002851 3499424
-0.13198857 -0.10064569 1.1039984 3302563
0.15972941 -0.082333423 1.098056 3369127
-0.13253288 -0.091154546 1.1039611 3434147
0.16108352 -0.072678678 1.099249 2908578
0.16662458 -0.069654487 1.0972939 8233160
-0.13789038 -0.080238447 1.1017256 3365295
-0.13243987 -0.081201732 1.1045682 3499689
0.16128919 -0.063066483 1.099236 4024485
0.16611595 -0.061254047 1.0975271 11192030
-0.13684791 -0.071341895 1.1040812 2181536
-0.13161266 -0.070913076 1.1051754 3433908
0.16024308 -0.057752542 1.1017543 2708114
-0.1356408 -0.063146055 1.1082729 8233201
-0.13179278 -0.063983791 1.1064489 3564980
-0.00010176562 0.11739138 1.1059872 9935247
0.0055447817 0.11863989 1.105893 9934992
-0.11044098 -0.17954585 1.1133289 929696
-0.10619222 -0.17970416 1.1155382 1984411
0.15540418 -0.15944049 1.1101842 13424882
-0.11208071 -0.17000523 1.1113242 2512540
-0.10727939 -0.17170393 1.1144398 2906513
0.15631239 -0.15338515 1.1078777 8955594
0.16179469 -0.15160581 1.1042436 14080986
-0.12005693 -0.15640503 1.1124634 2381461
-0.11659311 -0.1614362 1.1141911 2776212
0.15592365 -0.14375919 1.1069045 3697834
-0.12084197 -0.1505461 1.1134695 2841752
-0.11838329 -0.15481143 1.1164701 2906774
0.1571857 -0.13376376 1.1076204 2646183
-0.12334213 -0.14015001 1.1148248 2907034
-0.11902769 -0.14416835 1.1167656 2775704
0.15725866 -0.12504217 1.1089497 3696546
0.15902212 -0.12037554 1.1084663 3761571
-0.12496166 -0.13074394 1.1136961 2973083
0.16031384 -0.11416871 1.107934 3368880
-0.12668258 -0.12061047 1.1134577 3039134
0.15989943 -0.10255748 1.1078558 3500454
-0.12749743 -0.11018656 1.1134512 3171232
0.15834309 -0.094229504 1.1091244 3631529
-0.12859912 -0.10145233 1.1130062 3302564
0.15611579 -0.08383777 1.1051607 3697839
0.15661475 -0.084142379 1.1081432 3763633
-0.12931153 -0.090947598 1.1141002 3368355
0.15649317 -0.072869688 1.1081578 3436468
0.17056486 -0.068387605 1.1082453 10992842
-0.12760651 -0.080410413 1.1143401 3697068
0.15366898 -0.060199574 1.1128442 3765679
0.15690602 -0.062371526 1.107893 3830452
0.16995446 -0.064167187 1.1083704 11387079
-0.12702978 -0.072526738 1.112334 3631022
-0.12506326 -0.069178365 1.1118779 3500456
0.15255129 -0.053260811 1.110162 3830449
0.159228 -0.053277913 1.1075302 5207985
0.16588774 -0.053995561 1.1113989 10334913
-0.12794675 -0.060598683 1.1147424 3434161
0.15114766 -0.044395048 1.1101737 3893939
0.15823881 -0.044423908 1.1092112 8428221
-0.1287276 -0.050700668 1.1185949 6194370
-0.12429513 -0.048348095 1.1194149 4421311
0.1483438 -0.032780014 1.1125968 5734064
0.1548802 -0.036089975 1.1134537 10203587
-0.12336731 -0.041614834 1.1195718 6852289
0.14645654 -0.026906379 1.110684 8955077
0.0086247195 0.094376057 1.1201919 9737616
-0.077478275 -0.21462539 1.1223079 7635861
-0.074010789 -0.21498092 1.1248887 8100012
-0.088255256 -0.20542383 1.1254618 10535920
-0.081133425 -0.20760383 1.1228895 5996227
-0.074227706 -0.21139838 1.1249882 6394567
-0.099090636 -0.19481242 1.1179812 8431615
-0.09189567 -0.1968971 1.120535 1526185
-0.085488707 -0.19901557 1.1244252 1262491
0.13764854 -0.18262547 1.1209782 11717846
-0.10814594 -0.18679708 1.1183966 7571711
-0.10100424 -0.18867618 1.1197428 1917611
-0.093803197 -0.19086573 1.1233029 2379673
-0.086821273 -0.19347005 1.1257452 2644619
0.13882007 -0.17567046 1.1211356 5010097
0.14585982 -0.17218359 1.1179245 10599906
0.1528559 -0.17051986 1.1169533 14081762
-0.1015432 -0.17993908 1.1226423 2709143
0.13922043 -0.16502982 1.1214075 2909858
0.14574271 -0.16404931 1.1174662 4026283
0.15325361 -0.16368055 1.1136228 12307424
-0.10937358 -0.16652107 1.1189598 2775446
-0.10467963 -0.17053494 1.121659 2775442
0.14646907 -0.15506665 1.1185057 3105445
0.15124121 -0.15380371 1.1134286 2578854
-0.11178851 -0.15951833 1.1213543 2775449
-0.1073336 -0.16178074 1.1257098 2906778
0.14823394 -0.14518246 1.1201279 3564451
0.15143141 -0.14389658 1.1160874 3433893
-0.11613235 -0.15112445 1.1228148 2840984
0.14926918 -0.13696767 1.1219225 3565217
0.15279551 -0.13448404 1.1165721 3499430
-0.12172653 -0.13942733 1.1199535 2841497
-0.11850689 -0.14117789 1.1258384 2907290
0.15447786 -0.12380757 1.119151 3237547
-0.12244126 -0.13004489 1.1218183 2973083
-0.11958568 -0.13047552 1.1261454 3038877
0.15700559 -0.11398534 1.120536 3827369
0.15945892 -0.11259927 1.1143318 3564710
-0.12407105 -0.12019551 1.123373 3039391
-0.1212348 -0.12204505 1.1270722 3170977
0.1566603 -0.10389787 1.1206282 3565735
0.15894201 -0.104062 1.1145689 3500198
-0.1246437 -0.11208574 1.1257442 3170977
0.15636753 -0.094865166 1.1202064 3631790
0.15761049 -0.096544452 1.1228023 3434923
-0.12545846 -0.10153856 1.1250405 3302823
0.15534388 -0.0834627 1.1206973 3566513
-0.12606177 -0.091521792 1.1239846 3368614
0.15388244 -0.074282825 1.1210111 3632560
-0.12599459 -0.083837003 1.1255201 3565995
0.15204354 -0.064176261 1.1200469 3895728
-0.12393834 -0.068684399 1.127475 3697842
0.14907518 -0.054344516 1.1189058 4158132
-0.1228092 -0.060264498 1.1264348 3502262
0.14732897 -0.043800198 1.1204244 4027837
-0.12075695 -0.05059398 1.1260579 3698611
0.14188217 -0.032781556 1.1248404 4619197
0.14773883 -0.035374127 1.1190983 4946612
-0.12747709 -0.044450209 1.1225913 7180220
-0.11992402 -0.041185733 1.1297119 4815032
0.14139067 -0.026301578 1.1243556 5209534
0.14583489 -0.024071008 1.1169766 8425655
0.01005125 0.090347335 1.1230552 9474444
-0.049771581 -0.22357327 1.1311203 8300241
-0.068526849 -0.21641156 1.1280931 7642055
-0.060961422 -0.21666679 1.1300538 4815810
-0.053973917 -0.21973658 1.1313162 5210825
-0.078375161 -0.20507202 1.1282505 932767
-0.071173683 -0.20812771 1.1296929 2382238
-0.062337305 -0.21069616 1.1317433 2251168
0.1206096 -0.19625688 1.128006 6518691
0.12634097 -0.19483921 1.126485 11319227
-0.080464602 -0.19850001 1.1303389 2447513
-0.074823692 -0.20169067 1.1322622 2513045
0.12769312 -0.18653232 1.1270502 4617903
0.13465756 -0.18604103 1.1239572 10929103
-0.090577736 -0.18806334 1.1304297 2971544
-0.084437951 -0.19147399 1.1307473 2774929
0.12918778 -0.17714229 1.1266501 2909086
0.13397405 -0.17583492 1.1242422 3105187
-0.098926604 -0.17532241 1.1294988 2709911
-0.093955964 -0.18015113 1.1316137 2644371
0.13491039 -0.1659646 1.1250975 3368356
-0.10161158 -0.16891216 1.1315478 2775444
-0.09638387 -0.1727459 1.1321778 2709910
0.13874725 -0.15587647 1.1262628 3368613
0.14273021 -0.15261886 1.1246581 3499683
-0.10534346 -0.16054857 1.1315343 2841497
0.14014626 -0.14838979 1.1288304 3237027
0.14464225 -0.14532737 1.1261418 3302821
-0.1119834 -0.14932068 1.1310513 2645144
-0.10834402 -0.15089761 1.1334689 2775964
0.14717452 -0.13524714 1.1272 3237542
0.1510191 -0.13140358 1.126366 3106215
-0.11429791 -0.14107522 1.1322048 2907291
0.14797899 -0.12564489 1.1279206 3499683
0.15092064 -0.12343914 1.126388 3303338
-0.11585975 -0.13125634 1.1334453 3039134
0.15202515 -0.11487515 1.1268584 3499947
-0.12191471 -0.11723959 1.1315503 3236770
-0.11942565 -0.12147652 1.1347177 3236770
0.15312755 -0.10429596 1.1275196 3500458
-0.12230618 -0.11077392 1.13173 3237027
-0.12047218 -0.11113533 1.1356814 3302821
0.1548626 -0.093638383 1.1282297 3632048
-0.12289339 -0.10107542 1.1319993 3302824
-0.12102872 -0.10194331 1.1359367 3302569
0.15259904 -0.084871635 1.1284083 3632047
-0.12387256 -0.09204983 1.1322597 3434408
-0.12115434 -0.089623779 1.1362649 3434665
0.14853765 -0.074046507 1.1284218 4026292
-0.12406783 -0.081678405 1.132538 3631531
-0.12230551 -0.080855772 1.1365224 3631531
0.14813145 -0.066043042 1.1272677 4157366
-0.1244593 -0.075212732 1.1327176 4025255
-0.12157342 -0.06996949 1.1350782 3632304
0.14687361 -0.054300483 1.1271615 4289211
-0.11867604 -0.060771074 1.1346841 3568048
0.14308843 -0.043766163 1.1281919 4094399
0.14571005 -0.048036743 1.1293542 4224702
-0.11777368 -0.05461419 1.1331111 3764911
-0.11454476 -0.05016508 1.1356573 3895729
0.14004599 -0.035540186 1.129266 4487616
-0.12001179 -0.036701761 1.1366363 6458567
-0.11487179 -0.04014926 1.1358292 3895996
0.1392853 -0.024503618 1.1285195 5735616
0.14592873 -0.020828642 1.1280668 9477559
-0.11971322 -0.034024447 1.1377009 6852289
-0.11646856 -0.033826113 1.1376331 5933254
0.043679804 0.077836379 1.1329744 9474701
-0.012182327 -0.23207544 1.1420568 7248329
0.020675503 -0.2316387 1.1405282 5801654
0.028601695 -0.23000829 1.1398591 5210039
0.041438878 -0.22989459 1.1409073 6328255
0.049089599 -0.22942692 1.1407474 7379645
0.060619045 -0.22860029 1.1405096 8430007
0.068356887 -0.22624002 1.1363953 8625323
-0.050681036 -0.22606884 1.1350774 9678537
-0.039730933 -0.22558253 1.1413739 4422071
-0.030338213 -0.22572657 1.1426332 2778029
-0.02048561 -0.22694197 1.1423793 2513574
-0.012723092 -0.22918351 1.1421454 2315684
0.017195258 -0.22808592 1.1415008 2120102
0.029217817 -0.22735102 1.1412495 2185635
0.04226717 -0.22545649 1.1410059 2186146
0.047798134 -0.22621526 1.1408613 2316696
0.062967241 -0.22309427 1.1406022 4486314
0.070443295 -0.22218624 1.1384567 5997746
0.081410155 -0.21857566 1.1391628 6063288
0.090000123 -0.21661566 1.1401647 6589614
0.098101243 -0.21633983 1.1399896 8757678
-0.056830589 -0.2144632 1.1355222 1855898
-0.049898434 -0.21664187 1.1385487 2249885
-0.042000435 -0.21858466 1.1423566 2381985
-0.033742562 -0.22023103 1.142855 3039902
0.083651379 -0.21140975 1.1404451 2841504
0.089629576 -0.2104959 1.1403347 3302564
0.09901008 -0.20762658 1.1388651 4420011
0.10864419 -0.20608163 1.1343055 6984117
0.11784613 -0.20269646 1.1319007 6254993
-0.068571985 -0.20466754 1.1368458 2710418
-0.060583774 -0.20754758 1.140173 2775447
-0.053675909 -0.20943621 1.1427884 2906776
0.10099731 -0.1996263 1.1399657 3171492
0.10934488 -0.19766252 1.1370279 3237285
0.11749634 -0.19583073 1.1326616 3629215
-0.071783409 -0.19801569 1.1410961 2775191
-0.0633955 -0.20107029 1.1433616 2906012
0.1107769 -0.1883986 1.1387745 3040421
0.11752886 -0.18620634 1.1352924 3105703
0.12337267 -0.18602017 1.1322167 2777257
-0.088040709 -0.18478331 1.1370088 2710677
-0.080973834 -0.18833992 1.1402873 2709909
-0.074495271 -0.19162637 1.1425267 2709910
0.11825265 -0.17786971 1.1390774 3368100
0.12561016 -0.17546022 1.1345798 3302561
-0.089591876 -0.1784105 1.140325 2710421
-0.084552214 -0.18107235 1.1442325 2644886
0.11987071 -0.17003784 1.1407224 3040936
0.1276632 -0.16639999 1.1385548 3237031
0.13381426 -0.16303775 1.1355903 3368615
-0.10007697 -0.16591291 1.137778 2776209
-0.094278544 -0.17017844 1.1422877 2841240
0.12922606 -0.15786362 1.1408334 3237287
0.13541925 -0.15511242 1.1356206 3302822
-0.10137545 -0.15945588 1.1425139 2710683
-0.096427426 -0.16252849 1.145123 2841499
0.13722643 -0.1466431 1.1383597 3237541
0.14193872 -0.14353019 1.1345217 3237798
-0.10400307 -0.15106502 1.1434046 2907293
0.13843656 -0.13786179 1.1411542 3237797
0.1428946 -0.13490333 1.1361289 3303334
-0.11109494 -0.1396727 1.1398627 2907805
-0.10866538 -0.14133106 1.145825 2907805
0.14422327 -0.12551598 1.1389041 3434407
-0.11212099 -0.13045661 1.1416539 3039392
-0.10931614 -0.13161746 1.1468967 3039391
0.14558183 -0.11584246 1.1390018 3500202
0.14942606 -0.1125384 1.1335708 3631274
-0.11577608 -0.12155063 1.1438391 3170979
0.14695746 -0.10553478 1.1413715 3631791
0.1501786 -0.10460769 1.1355422 3566510
-0.11677811 -0.1112793 1.1453147 3105957
0.14543787 -0.09446308 1.140475 3632305
0.15059732 -0.095079526 1.1343391 3501227
-0.11781593 -0.10123856 1.1433161 3237546
0.14441352 -0.085416593 1.1398578 3698099
0.14893059 -0.085380316 1.1346995 3698094
-0.11777762 -0.091480084 1.1438112 3434923
0.14509936 -0.076102093 1.1406341 3895479
0.14732346 -0.077811547 1.1345353 3895477
-0.11801723 -0.081039011 1.1447119 3566256
0.14470488 -0.064843789 1.1422745 4027579
0.14708388 -0.064029068 1.138907 4157882
-0.11757977 -0.072068095 1.1441821 3567024
0.14208165 -0.055437967 1.1420718 4159422
0.14631157 -0.055203553 1.1375566 4289724
-0.11591353 -0.062053632 1.1422117 3567791
-0.11281332 -0.060075391 1.1475307 3764403
0.13973548 -0.045487512 1.1408963 4356797
-0.11175242 -0.050892439 1.1416504 3830196
0.13647835 -0.036063634 1.1402847 4619718
-0.11088844 -0.039986812 1.144258 3896507
0.13168843 -0.024459533 1.1411881 4817095
0.13616909 -0.024674259 1.1378574 4948420
-0.11901075 -0.031326272 1.1457611 6916535
-0.11151192 -0.031390414 1.1452827 5210049
0.13050501 -0.018189706 1.1434927 5013440
0.13487896 -0.017439775 1.1410793 5998788
0.025819879 0.049711913 1.1434973 5859448
0.033954188 0.050338238 1.1414726 6122362
0.039562352 0.050726488 1.1443583 6319482
0.050665092 0.052562654 1.1481594 5330522
0.026097663 0.054225057 1.1420856 5792108
0.033844098 0.055559829 1.1414129 5527648
0.039298601 0.055082545 1.1444793 5067354
-0.00638422 -0.2317768 1.1449358 4354997
0.0010671355 -0.23240586 1.1467527 4684224
0.010893475 -0.23146968 1.1450887 4289976
0.021699006 -0.2284891 1.1443905 2054307
0.032142378 -0.22840059 1.1441578 2777510
0.037687778 -0.22916134 1.1440128 4026798
0.054124936 -0.22815657 1.1436692 5604271
0.057860769 -0.22627863 1.1436348 4881326
-0.025951583 -0.22260407 1.1456187 3039902
-0.017951656 -0.22304815 1.1459271 2710943
-0.0093218423 -0.2245104 1.1485003 2645152
0.00078430772 -0.22684844 1.1515753 2514339
0.010686891 -0.22612453 1.1508379 2514851
0.020398673 -0.22297892 1.1491681 2842787
0.03018884 -0.22189505 1.146775 2908579
0.039827578 -0.2209239 1.1470728 3039651
0.050068412 -0.22103289 1.1479512 2908578
0.059341125 -0.21958593 1.1475306 2778020
0.069199964 -0.21725485 1.1450473 2646433
0.07888633 -0.21931151 1.1433455 5012145
0.090469733 -0.21988645 1.1430695 8955830
-0.039458394 -0.21500587 1.1464093 2841242
-0.029464275 -0.2165277 1.148193 2775960
-0.020353556 -0.21730162 1.1499019 2841500
-0.010749837 -0.21899363 1.1533766 2907551
0.020836838 -0.2163246 1.1527359 3105184
0.030009691 -0.21539479 1.152554 3170722
0.039940417 -0.21478774 1.1523465 3302053
0.050021648 -0.21361783 1.1521505 3170723
0.060448419 -0.21205766 1.1519569 3105188
0.069674879 -0.2106514 1.150071 3170467
0.079161957 -0.20975362 1.1459931 3236258
0.089034766 -0.20564847 1.1439226 3171236
-0.056732591 -0.20469064 1.1467847 2906776
-0.050054487 -0.2065538 1.1477287 2907033
-0.041479275 -0.20711866 1.1512134 2841497
-0.031925838 -0.21069102 1.1540726 2775704
0.070368424 -0.20517628 1.1519153 3105443
0.079195738 -0.20463669 1.1517309 3105443
0.089715391 -0.20023522 1.1503464 3105956
0.097811788 -0.19676688 1.1467167 3105956
-0.068354085 -0.19440378 1.147318 2644884
-0.061016206 -0.19761224 1.15007 2775705
-0.052428652 -0.20003818 1.1524808 2841497
0.092872128 -0.19272718 1.1517376 3172006
0.10034788 -0.18985668 1.1506444 3040421
0.1060008 -0.18708831 1.1480888 2974628
-0.077651292 -0.18617433 1.1477447 2645144
-0.070846453 -0.18761423 1.1506141 2710425
-0.065355659 -0.19004613 1.1519399 2776216
0.10894498 -0.17826259 1.1485058 3171493
0.11370821 -0.17565 1.1453156 3237026
-0.081110001 -0.17842817 1.1506169 2710424
-0.074531108 -0.18034863 1.1543777 2710937
0.11153118 -0.17165425 1.1518739 3302823
0.1175317 -0.16710839 1.1486992 3172005
0.12310705 -0.16359884 1.1478237 3172006
-0.090511933 -0.16753204 1.1485265 2841498
-0.085862979 -0.16990888 1.1532851 2907290
0.11969051 -0.16008197 1.1519959 3303592
0.12569165 -0.15629086 1.1506268 3237544
0.13141765 -0.15140007 1.1439564 3303337
-0.092745855 -0.15924607 1.150511 2973342
-0.087834254 -0.16224754 1.1566106 3038879
0.1288619 -0.14834027 1.1514325 3237544
0.13292885 -0.1449319 1.1468949 3303336
-0.10146926 -0.14818917 1.1502846 2973342
-0.095123857 -0.15109558 1.1545678 2973600
0.13580692 -0.13565014 1.148276 3368872
-0.10348895 -0.14047551 1.1518877 3039392
-0.097894892 -0.14111096 1.1573954 3236259
0.13657424 -0.12619761 1.1502594 3500460
0.14071727 -0.12333856 1.1444881 3434923
-0.10515732 -0.13093509 1.1527134 3170978
0.13709514 -0.11724883 1.1514013 3500719
0.14155407 -0.11437952 1.1480412 3500718
-0.11244704 -0.12011853 1.1502725 3237029
-0.1084244 -0.12141176 1.1561515 3237286
0.1414185 -0.10559464 1.15105 3697329
-0.11297776 -0.11135319 1.150516 3237543
-0.11028157 -0.11096077 1.1579702 3172263
0.14207245 -0.096415676 1.1507721 3697843
-0.11379468 -0.10183502 1.1537876 3303340
-0.11167607 -0.10077039 1.158771 3303852
0.14122511 -0.086017296 1.151466 3764149
-0.11451504 -0.092018731 1.1510612 3500716
-0.11170565 -0.090700559 1.1590376 3501229
0.14349779 -0.075386427 1.1502662 3764661
-0.11463623 -0.083961509 1.1512767 3566512
-0.11158013 -0.080468729 1.1556665 3632306
0.13990332 -0.065379679 1.1505104 3896764
-0.11156087 -0.070832521 1.1559205 3698357
0.13337366 -0.055784401 1.1531084 4291265
0.13714585 -0.056570955 1.1474755 4225217
-0.11050552 -0.06173671 1.1557732 3764408
0.13355942 -0.046137139 1.1526918 4554434
0.13600719 -0.0455462 1.1466486 4488640
-0.10818508 -0.050888877 1.1568079 3895997
-0.10419382 -0.047529217 1.1600087 4027323
0.13249373 -0.035360649 1.1519998 4817354
-0.10729912 -0.041190334 1.1535753 3962044
-0.10327175 -0.039900035 1.1593889 4093118
0.12250832 -0.023705363 1.1555343 5014224
0.12796605 -0.025996953 1.1513485 4751563
-0.10686241 -0.030699663 1.1525084 4290235
-0.10189654 -0.030393615 1.1569408 4158908
-0.095788762 -0.027821325 1.16034 4028609
0.12038265 -0.016737081 1.1539873 4817874
0.1269182 -0.015907206 1.1486367 5145287
-0.099966988 -0.023558564 1.1549432 4487616
-0.094662637 -0.020685703 1.159169 4356800
0.11078583 -0.0047840774 1.1542966 5276623
0.11721264 -0.0073045045 1.1503689 5604813
0.12663929 -0.0079086423 1.148743 6720449
-0.092956841 -0.013621755 1.1606512 5671109
0.10862629 0.00061793625 1.1559174 5802961
0.11493492 0.00034721196 1.1516705 6787017
0.031763587 0.011719711 1.1585127 12972031
-0.024018697 0.018293448 1.157941 5869264
0.0085811652 0.016577631 1.1591629 7515376
0.016082129 0.016667016 1.1589965 8764660
0.025696294 0.016811781 1.1587838 10146554
0.032379121 0.016186737 1.1586168 10870005
-0.082264021 0.023224048 1.1533787 8028800
-0.077172354 0.023901865 1.153282 7305855
-0.01966146 0.019649759 1.1598798 5671370
-0.016351219 0.019852102 1.1598107 5869265
0.0068204813 0.021268532 1.1593264 6988787
0.011234138 0.021538325 1.1592342 7185904
0.096766055 0.035625488 1.1576807 6314850
-0.07625699 0.028967664 1.1533952 8028802
0.093462735 0.038967088 1.1578434 6117979
0.068737581 0.048217058 1.1506394 5593178
0.070929199 0.048351035 1.1505936 5658970
-0.0050168242 -0.22172439 1.1571779 2973083
0.00058628619 -0.22249305 1.1570314 2973595
0.0099847233 -0.22150612 1.157513 2973598
-0.025617007 -0.21187195 1.1579019 2842012
-0.019166727 -0.21286663 1.1577303 2776219
-0.0096606966 -0.21481204 1.1589897 2907806
3.4540892e-005 -0.21564612 1.1603844 2907807
0.010607598 -0.21554607 1.1603246 2973599
0.019268436 -0.2125998 1.1575392 3039136
0.029945077 -0.21097405 1.1580088 3170723
0.039880842 -0.21022865 1.1571378 3236770
0.049616773 -0.20915356 1.1562799 3170979
0.058631949 -0.20838881 1.1560972 3170980
0.065174699 -0.2063221 1.1560044 3171236
-0.037225403 -0.2036922 1.1583792 2842012
-0.030360583 -0.20558193 1.1596302 2842011
-0.020607118 -0.20727599 1.1603734 2842012
-0.012214027 -0.20825732 1.161698 2907805
0.034255028 -0.2068105 1.1606901 3302309
0.040159173 -0.20525943 1.1594546 3302308
0.048757024 -0.20457488 1.1579211 3171236
0.059504561 -0.20444638 1.1561817 3171236
0.070063166 -0.2024717 1.1576638 3105443
0.079734311 -0.19993636 1.1568459 3171492
0.086134002 -0.19763315 1.1557621 3040420
-0.0589328 -0.19390744 1.1591263 2841497
-0.049996663 -0.19612931 1.1594001 2907291
-0.041385185 -0.19829506 1.1604989 2907549
-0.034604814 -0.19912656 1.1624432 2907551
0.082467183 -0.19271359 1.159977 3040420
0.089315578 -0.19039813 1.1579881 3106213
0.09691602 -0.18726987 1.1557931 3106214
-0.060780134 -0.18757948 1.1613362 2907290
-0.053998996 -0.1900903 1.1626182 2973340
0.093039289 -0.18314748 1.1599916 3302823
0.09887436 -0.18033567 1.157533 3237030
0.10479988 -0.17656654 1.1576771 3237031
-0.078961998 -0.17513075 1.1600732 2841497
-0.07035993 -0.17810464 1.1603346 2842012
-0.064062014 -0.18002768 1.1626102 2907547
0.10949108 -0.16856009 1.1569277 3368361
0.11434771 -0.16498101 1.1559893 3237285
-0.08079578 -0.16931662 1.1602679 2973085
-0.073953807 -0.16919956 1.1628555 3039135
0.11134507 -0.16127546 1.1561548 3368615
0.11767134 -0.15757363 1.1568378 3237799
0.12201506 -0.15395623 1.1561079 3303337
-0.088959247 -0.15685201 1.1607809 2973857
-0.083293185 -0.16008413 1.1621245 3039137
-0.077264011 -0.16066566 1.1644193 3104930
0.11923186 -0.15000238 1.1582761 3172264
0.1252373 -0.14670339 1.156894 3238059
-0.090621218 -0.14876683 1.1620325 3039650
-0.086363658 -0.15219054 1.164848 3105700
0.12791423 -0.13682291 1.1585827 3369132
0.13208176 -0.13667336 1.1563377 3434410
-0.093873069 -0.14040956 1.1630411 3171236
0.1293349 -0.12863079 1.1598138 3500719
0.13253403 -0.12609437 1.1586081 3435183
-0.10177417 -0.12874499 1.1618117 3302823
-0.09695296 -0.13050687 1.1643249 3171495
0.1326803 -0.11596786 1.1586903 3566514
-0.10400634 -0.12027362 1.1635411 3368873
-0.10022424 -0.1212692 1.1651762 3368875
0.13481209 -0.10660244 1.1578709 3697588
-0.10542901 -0.11131447 1.1650226 3303850
0.1358557 -0.096997604 1.1607312 3763892
0.13895589 -0.096028894 1.1572564 3698099
-0.10741051 -0.10118511 1.1642674 3435181
-0.10148349 -0.10137957 1.1665303 3435438
0.13627425 -0.086846083 1.1615616 3829942
0.13901767 -0.086049393 1.1586621 3764149
-0.10695195 -0.091480389 1.1649137 3501229
0.13546711 -0.073515624 1.1619319 3896505
0.13997905 -0.076066107 1.1595798 3830455
-0.10696106 -0.081592351 1.1647131 3632563
-0.10289596 -0.078051269 1.1671782 3567542
0.13262238 -0.066448867 1.1596096 4027837
0.13802493 -0.069640011 1.1579742 3896505
-0.1068159 -0.071504153 1.1647711 3829940
-0.10329951 -0.071386039 1.1673633 3699127
0.13057095 -0.056980662 1.1611446 4291009
-0.10702285 -0.061345719 1.1645104 3895737
-0.10332763 -0.060397215 1.1676542 4027576
0.13024503 -0.046928149 1.1607504 4422849
-0.10626516 -0.054571271 1.1638718 4158911
-0.10196517 -0.050659239 1.1658795 4093372
0.12958899 -0.037195407 1.160522 4817355
-0.098802656 -0.041039959 1.1656005 4093630
-0.094207123 -0.037380762 1.1680567 4094397
0.12151854 -0.026944898 1.161697 5080014
0.12616701 -0.029807225 1.1592932 4883149
-0.097182378 -0.033274263 1.1642298 4028348
-0.092806607 -0.030487187 1.1657058 4028864
0.11644298 -0.017584711 1.1616137 4949202
-0.089823574 -0.020706572 1.1662153 4029123
-0.085699305 -0.01827766 1.1683697 3963586
0.10979439 -0.0081362054 1.1629024 5146069
0.11343525 -0.012251213 1.1600435 5080276
-0.089531168 -0.012805536 1.1645981 5342665
-0.082463294 -0.010332145 1.1685067 4882633
-0.019362941 -0.0027012005 1.1672877 6070261
-0.012696836 -0.0022937208 1.1671484 6528744
-0.0060307309 -0.0018862337 1.1670091 8827627
0.0095235137 -0.0009354502 1.166684 10340848
0.018291369 -0.0010366216 1.166484 8895736
0.02582508 -0.001276955 1.166308 6266608
0.099993229 0.0040649921 1.1637788 5475287
0.10464101 0.00087223202 1.1619222 5475028
-0.079404116 -0.0040896684 1.1666015 5999306
-0.072824046 -0.0025762692 1.1664933 5540557
-0.064489767 0.0012915581 1.1657408 5803727
-0.051843736 0.0037376508 1.1681889 4950220
-0.042831559 0.0031623244 1.1679709 5016280
-0.033097979 0.0031563938 1.1673514 5411294
-0.023111187 0.0038043782 1.1653025 5806569
-0.013106776 0.0043832064 1.1667336 7120874
-0.0035693236 0.0056974441 1.167154 12379901
0.0069785286 0.0058872923 1.1643937 13891069
0.016773416 0.0062657297 1.1635091 12969723
0.026713766 0.0070862025 1.1641917 9946095
0.036788151 0.0074589178 1.1643777 10013177
0.046385773 0.0099356622 1.1639861 7449069
0.052966118 0.012126587 1.166051 5411552
0.096819639 0.0078074634 1.1624482 6526426
-0.050167535 0.0087955967 1.1682848 6264275
-0.042693119 0.010126673 1.1656502 5803990
-0.033207159 0.011379182 1.1639688 5345755
-0.02329674 0.01324866 1.1637951 5412839
-0.013750482 0.014412299 1.1641113 5676266
-0.0046225619 0.013982095 1.166253 7253489
0.0051590931 0.01444982 1.1641868 8436213
0.015230643 0.012858495 1.1629175 12051453
0.029356327 0.018166639 1.1627396 10082302
0.037225343 0.017906882 1.1625557 10607102
0.04574398 0.017580993 1.1623553 7515119
0.052835323 0.017362833 1.163524 6068200
-0.011878777 0.020090714 1.1637188 6001365
-0.0074499138 0.020361438 1.1636262 6396124
0.10447322 0.032981083 1.1614399 6447199
0.0033915127 -0.21175539 1.1652567 3039391
0.010918578 -0.21076396 1.1666143 3039135
0.022343438 -0.21059692 1.1648606 3104930
-0.026268683 -0.20238048 1.166172 2776478
-0.019805927 -0.20293802 1.168013 2842271
-0.0097750388 -0.20402735 1.1699415 2907807
-0.0004427731 -0.20533332 1.1702111 2908063
0.0096317893 -0.20559919 1.1710823 2973600
0.019861989 -0.20397696 1.1704279 3105187
0.029728265 -0.20299661 1.1693115 3236773
0.039317489 -0.20105016 1.1684662 3237029
0.050249487 -0.20046952 1.1683022 3171237
0.059887234 -0.20076767 1.1657759 3171236
0.069281287 -0.19861546 1.1650441 3105444
0.07800065 -0.19656618 1.1639782 3171493
-0.03890188 -0.19435795 1.1698703 2841758
-0.030661121 -0.1961873 1.1704369 2907551
-0.021638468 -0.19682246 1.1730422 2842271
-0.010875903 -0.19738777 1.1739622 2908064
-0.0040734168 -0.19809839 1.1737903 2973857
0.017252609 -0.19679478 1.1733446 3105444
0.030037709 -0.19501199 1.1731039 3237030
0.040074691 -0.19479266 1.1720833 3302823
0.049666844 -0.19342031 1.1717803 3171495
0.058914196 -0.19143054 1.1711562 3105703
0.068615437 -0.19109076 1.170738 3105703
0.078329772 -0.18994519 1.1686484 3105702
0.086432993 -0.18686433 1.1657599 3105958
-0.050658267 -0.18732379 1.1687667 2973598
-0.042477179 -0.18866813 1.1729027 2907551
-0.032447942 -0.1899766 1.1746435 2908065
0.079677328 -0.18154135 1.1723422 3237288
0.088381723 -0.18022659 1.169735 3302823
0.09683761 -0.17758092 1.1666285 3237287
-0.060697358 -0.17668569 1.1704845 3105183
-0.052972201 -0.17968334 1.173494 2974112
-0.044513352 -0.18142109 1.1751411 2842786
0.089517459 -0.17345344 1.1723342 3171750
0.097881675 -0.16928959 1.1709217 3172008
0.10572816 -0.16693145 1.1664714 3303081
-0.069440186 -0.16746202 1.1687332 3104930
-0.062950924 -0.16955671 1.1745354 3170978
0.099891201 -0.16084699 1.1724336 3303337
0.1075111 -0.15879659 1.1700648 3368873
0.11428782 -0.15698485 1.1667536 3237543
-0.079981595 -0.15535474 1.1712915 3040164
-0.073019966 -0.15872294 1.1721692 3105701
-0.066291556 -0.16285211 1.1761218 3302822
0.10858655 -0.14975922 1.1725307 3303597
0.11572999 -0.14677024 1.1680825 3238059
0.12256753 -0.14324395 1.1663843 3303852
-0.082776025 -0.14921221 1.1726284 3106213
-0.074808076 -0.1508881 1.1766295 3172007
0.116174 -0.1377755 1.1724763 3369387
0.12399636 -0.13695203 1.1685196 3435181
-0.090588391 -0.13936883 1.1706183 3237030
-0.083890393 -0.13975453 1.1747932 3237800
-0.077264965 -0.14287168 1.1768966 3303594
0.11762832 -0.13163424 1.1728058 3500972
0.125689 -0.12676637 1.1695009 3500976
0.13008088 -0.12345776 1.1647366 3500977
-0.092244759 -0.13024816 1.1726754 3237545
-0.087400168 -0.13173097 1.1765295 3303852
0.12697144 -0.1172456 1.1729755 3566772
0.13021703 -0.11726739 1.1688994 3566515
-0.095335424 -0.1207167 1.1731356 3369389
0.12725066 -0.10768071 1.1732218 3763639
0.13044091 -0.10641282 1.1682916 3763639
-0.10298537 -0.10727293 1.1717451 3435181
-0.097328305 -0.11071013 1.174767 3435438
0.12722224 -0.096579075 1.1735157 3895737
0.13207303 -0.096018575 1.1682416 3764149
-0.10285336 -0.10080819 1.1729801 3435438
-0.097363293 -0.10121779 1.1769097 3501231
0.12688249 -0.0909677 1.1736715 3961530
0.1318935 -0.086531125 1.1684963 3961528
0.13879944 -0.082648091 1.1656181 3895735
-0.10311794 -0.0915756 1.1738303 3501489
-0.098807365 -0.091169715 1.1766281 3501490
0.12579529 -0.073011301 1.1741703 4159679
0.1316708 -0.07720425 1.1691971 3962041
0.13866447 -0.080418751 1.1656801 3895735
-0.10405204 -0.084252626 1.1730441 3501747
-0.099386036 -0.08084657 1.1756973 3567541
0.12466195 -0.066697486 1.1743624 4225473
0.12828825 -0.066867709 1.1702739 4159424
-0.098252907 -0.070580699 1.1748756 3764919
0.12387648 -0.057859231 1.1746136 4422597
0.12767878 -0.056801438 1.1705534 4357059
-0.098355532 -0.060795136 1.1749648 3896505
-0.093517512 -0.060509443 1.1794376 3962298
0.12311001 -0.04726759 1.1749105 4685767
0.12706929 -0.046735179 1.170833 4422851
-0.097489804 -0.051551856 1.1733598 4027836
-0.092473224 -0.04962559 1.17861 4028094
0.12055126 -0.036755722 1.1731268 4948684
0.12644275 -0.038158976 1.1680719 4751818
-0.096322447 -0.043318152 1.17195 4093632
-0.090839207 -0.039690383 1.177772 4094399
0.11323637 -0.026844479 1.1756722 5080784
0.11749674 -0.027519502 1.1707555 5211343
-0.08814083 -0.031029113 1.1764566 4094402
-0.081751704 -0.027643353 1.1790402 4226244
-0.075352415 -0.025606208 1.1799505 4620744
-0.021544088 -0.021190628 1.1788558 5412064
0.00090435892 -0.019818403 1.1783867 6463211
0.0091912206 -0.023154981 1.178112 6397929
0.018819937 -0.021924704 1.1779277 6397929
0.027920153 -0.01945436 1.177788 6003432
0.10962169 -0.017703176 1.1734935 5081042
0.11488576 -0.020338379 1.1678021 5081041
-0.080982015 -0.019630164 1.174098 4160963
-0.072859779 -0.018342547 1.1792285 4752075
-0.05800521 -0.01440797 1.1798557 4949201
-0.0512367 -0.014557444 1.1796994 5016022
-0.041622553 -0.015072577 1.1788023 5213659
-0.031770337 -0.015360162 1.1780084 5411552
-0.021887764 -0.015551165 1.1782119 5740773
-0.011782041 -0.014961757 1.1788005 6003172
-0.001690561 -0.014330737 1.1781898 6331366
0.0083266785 -0.01362063 1.1753814 6989552
0.018417014 -0.013019145 1.1755704 6792432
0.028467428 -0.012379199 1.1747106 5937640
0.036933225 -0.011007935 1.1768076 5806054
0.047570445 -0.0090808496 1.1776197 5674725
0.05423703 -0.0075469092 1.1775101 5674983
0.10012864 -0.0072761402 1.1764841 5146841
0.10613032 -0.0088157058 1.1705905 5080789
-0.078145415 -0.010880686 1.1723975 4554184
-0.074688107 -0.0099250078 1.1753466 4751049
-0.059415426 -0.008806482 1.1780342 4818129
-0.052006196 -0.0083290711 1.1770796 5015507
-0.042562798 -0.0076436698 1.173483 5147609
-0.032505337 -0.0069883168 1.1719731 5346018
-0.022802703 -0.006850563 1.174371 5937898
-0.012325035 -0.0069638267 1.1743544 6462952
-0.0019554477 -0.0055564344 1.1732688 8303605
0.0073825708 -0.0050605834 1.1720551 8501495
0.017260427 -0.005413644 1.1710098 7252467
0.028532136 -0.0042043924 1.1716276 6069484
0.037615284 -0.002583839 1.1723276 6135528
0.047799457 -0.0024315789 1.1752002 5741031
0.05719351 -0.0017053038 1.1765972 5543655
0.066597223 0.00014051795 1.1774348 5477092
0.076561317 0.0020781979 1.1772617 5739747
0.087925345 0.0025225207 1.1770176 5280481
0.097202241 0.00056297332 1.1730624 5015513
0.10274713 -0.0010090023 1.1705871 4949463
-0.071861461 -0.0037837699 1.1724434 4818122
-0.062507406 -0.0022175089 1.1722742 5147606
-0.053881582 -0.00094437599 1.1721137 4818639
-0.045105796 -0.0021482632 1.1718843 5344472
-0.00054677017 0.0011349022 1.1709678 12971007
0.003946255 0.00085014105 1.1708592 12905215
0.028472271 0.0023493543 1.1703466 5807584
0.041850101 0.0031671077 1.1700671 6004710
0.047844127 0.0044924691 1.1699672 5807083
0.056516279 0.007442981 1.1719844 5477863
0.065086022 0.0074604005 1.1743268 5542628
0.077128395 0.0051166639 1.1773292 5673698
0.087523371 0.0077554509 1.1756639 5804766
0.093131781 0.0063018128 1.1689954 5147865
0.059012309 0.015404165 1.1700039 5412324
0.0029047085 -0.20070723 1.1775666 3039650
0.0093792332 -0.2009573 1.1774143 3039650
-0.01784458 -0.19406389 1.1782092 2842271
-0.011087241 -0.19365084 1.178068 2973857
-0.00068904273 -0.19414338 1.1790848 2973857
0.0091771642 -0.1953308 1.1800952 3039395
0.01968124 -0.19273046 1.1791785 3171237
0.028866678 -0.1907289 1.178313 3237030
0.039168324 -0.18956101 1.178584 3302569
0.047494039 -0.18918779 1.1782012 3237546
-0.038106162 -0.1848073 1.1789098 2908065
-0.030485932 -0.18531027 1.178725 2973857
-0.021692809 -0.18656701 1.1794944 2973857
-0.011826562 -0.18789892 1.1803554 2973858
-0.0034586526 -0.18827003 1.1820407 3105444
0.028182058 -0.18633592 1.1813796 3237030
0.039767772 -0.18411565 1.1811773 3302825
0.048646539 -0.18310854 1.1806961 3171754
0.058476716 -0.18297975 1.178785 3171752
0.068760127 -0.18191071 1.1779931 3171753
0.076982796 -0.17827424 1.177492 3237546
0.085018024 -0.17534348 1.1763879 3303592
-0.049832564 -0.17605157 1.1794051 2908579
-0.041479692 -0.17776975 1.1811728 2908579
-0.031556126 -0.17866054 1.1818355 3105444
-0.022791725 -0.17992572 1.1826963 3105443
0.071705759 -0.17460299 1.1807096 3303339
0.079555206 -0.17180929 1.1792725 3303082
0.087760061 -0.1691379 1.1770619 3237545
0.093482375 -0.16578414 1.1764499 3303850
-0.05952416 -0.16534156 1.1799061 3302822
-0.052614655 -0.16929364 1.1818975 3040165
-0.045234133 -0.17267871 1.183393 3040167
0.082458735 -0.16487318 1.1807244 3303598
0.088246331 -0.16049218 1.1797681 3238061
0.096624866 -0.1578604 1.1777002 3303596
0.10413098 -0.15496102 1.1764959 3369131
-0.069921106 -0.15542816 1.1804019 3171751
-0.06325756 -0.15869859 1.1815782 3368615
-0.056088474 -0.16200162 1.1839193 3171751
0.10557848 -0.1483292 1.1781394 3369134
-0.072318137 -0.14851065 1.1806387 3369130
-0.066025972 -0.15017232 1.1834549 3434922
0.10615295 -0.1386572 1.1799304 3435183
-0.07452932 -0.14007148 1.1822454 3434923
0.1084743 -0.131414 1.1802219 3501232
0.11501783 -0.12785989 1.1795564 3435694
0.12157229 -0.12563878 1.1768777 3501232
-0.083415657 -0.12944508 1.1823926 3369646
-0.077444673 -0.13288605 1.1838349 3435182
0.1182116 -0.11845943 1.1811453 3567282
0.12222713 -0.11761796 1.178894 3567027
-0.092579454 -0.11725467 1.1819203 3501231
-0.087704644 -0.12096959 1.184464 3435439
0.11773273 -0.1105503 1.181365 3829686
0.12261672 -0.10738541 1.1795598 3829431
-0.092784002 -0.11387645 1.1820141 3501231
-0.088564709 -0.11041969 1.183678 3567024
0.12436274 -0.097896919 1.1802158 3830201
-0.093636259 -0.099800497 1.182405 3632818
-0.090324908 -0.10037517 1.1843164 3698612
0.12581997 -0.087162815 1.1797994 3896507
-0.094215795 -0.090228856 1.1826708 3633333
-0.090304002 -0.090263583 1.1853836 3764919
0.12502787 -0.076973654 1.1795861 4093886
-0.09519808 -0.081472993 1.1829242 3633334
-0.091152981 -0.08037968 1.1860639 3830201
0.12146512 -0.067572355 1.1806372 4291523
-0.091387361 -0.070033975 1.1848081 3896506
0.12032907 -0.057124332 1.1803161 4619975
-0.088689908 -0.060305174 1.185052 4028348
0.11383332 -0.046147309 1.1831537 5146320
0.11836435 -0.048066813 1.1820004 4883148
-0.087576613 -0.050768256 1.1838495 3962814
-0.08263053 -0.049176265 1.1863531 3963072
0.11227621 -0.037360378 1.1819199 5146577
0.11608472 -0.038696826 1.1797978 5080527
-0.086759016 -0.041624658 1.1837866 4028607
-0.080650598 -0.039561123 1.1858382 4291526
-0.030911304 -0.034582101 1.1867177 5147865
-0.023466818 -0.033900224 1.1865681 5344731
-0.0072491802 -0.032001637 1.1862532 5345501
-0.00046902522 -0.031587183 1.1861115 5739743
0.0097946255 -0.033157825 1.1845047 5936862
0.018839026 -0.032622486 1.1846489 5871068
0.028980045 -0.030921094 1.1854661 5739228
0.046992045 -0.028686017 1.1851196 5213656
0.10986485 -0.028609887 1.1821053 4949970
-0.079374805 -0.031961806 1.1838756 4422856
-0.071206644 -0.026743442 1.1856488 4686797
-0.060922157 -0.02498994 1.1856455 4884690
-0.050426725 -0.0258305 1.1868879 4950486
-0.039965793 -0.025928102 1.1858159 5213659
-0.031385124 -0.026525036 1.1837393 5279707
-0.021167595 -0.027050592 1.1838956 5345244
-0.011124084 -0.024799474 1.18364 5411808
-0.0012223423 -0.025304049 1.1832017 5806052
0.0082629723 -0.02782917 1.1820117 6068964
0.020298753 -0.027470201 1.1817503 6068963
0.030191887 -0.02450683 1.1825294 6003173
0.038547039 -0.022299409 1.1832771 5608417
0.048740372 -0.021702282 1.1836637 5411038
0.05562178 -0.021354154 1.185119 5279709
0.10009423 -0.016850658 1.1833131 5212630
0.10590629 -0.02004303 1.1813533 5015248
-0.067898557 -0.020805538 1.1839118 4949712
-0.061141226 -0.020392478 1.1837707 4949713
-0.051005203 -0.019772895 1.1835588 5016279
-0.041597273 -0.019574553 1.1833522 5213659
-0.032917436 -0.019797467 1.183151 5345501
0.039689913 -0.014794067 1.1816485 5871590
0.048102506 -0.013714708 1.1814877 5871847
0.058248553 -0.010914087 1.1833344 5543139
0.065457195 -0.0093505755 1.1834993 5280225
0.089968458 -0.007914044 1.1847007 5411294
0.095846131 -0.0088996813 1.1819954 5279196
0.067300066 -0.0040643886 1.1813103 5411556
0.076770708 -0.0017900988 1.1811572 5412066
0.088032946 -0.0011016726 1.1809218 5477344
0.09492664 -0.002940774 1.1807181 5213404
0.010015412 -0.19083822 1.185672 3105189
-0.010802181 -0.18366033 1.1873308 3039906
-0.00098271109 -0.18520969 1.1874977 3039908
0.0086450893 -0.18583685 1.1891702 3105447
0.019127283 -0.18434644 1.1863889 3105702
0.028099865 -0.18252623 1.1854844 3171750
0.037042446 -0.18156582 1.1853085 3237289
0.048371471 -0.17901134 1.1851209 3237548
0.058575913 -0.17838757 1.1849077 3171752
0.067646533 -0.17783311 1.1847181 3171752
-0.039111175 -0.17389047 1.1872256 3039909
-0.031213678 -0.17416474 1.18793 3105701
-0.022876814 -0.17635489 1.189342 3105443
-0.012938807 -0.18118957 1.190446 3040163
0.017722072 -0.17840199 1.1898293 3105960
0.029031018 -0.17659438 1.1896225 3105958
0.038000688 -0.17451021 1.1886752 3237545
0.048288666 -0.17278835 1.1873937 3237547
0.058280692 -0.17185016 1.1866879 3237544
0.068312213 -0.17101172 1.1865685 3237545
0.076803833 -0.16847324 1.1854262 3303339
-0.05090579 -0.16516709 1.1877215 3172009
-0.04225539 -0.16787393 1.1898566 3105961
-0.032768887 -0.16955772 1.1911997 3171752
0.051217318 -0.16585098 1.1894068 3303337
0.058043092 -0.16543373 1.1892641 3303593
0.068060204 -0.16384284 1.1890806 3303594
0.07706257 -0.16063918 1.1877118 3303596
0.083717659 -0.15864472 1.1848631 3238062
-0.058790471 -0.157115 1.1881117 3434409
-0.052890752 -0.15859836 1.1907649 3237547
-0.04439915 -0.16048646 1.1917011 3237805
0.077609502 -0.15332823 1.1891433 3238318
0.086684927 -0.14980505 1.1879114 3238572
0.096737489 -0.14892913 1.1860273 3434926
0.10316123 -0.14789806 1.1847092 3369134
-0.061644506 -0.14827809 1.1896408 3435179
-0.055539411 -0.14998291 1.1917845 3369388
0.09093228 -0.14287291 1.1891196 3500977
0.096306175 -0.13897234 1.1881009 3435186
0.10168673 -0.13858175 1.1849884 3500720
-0.070796713 -0.13807261 1.1898855 3566511
-0.064894617 -0.14064147 1.1913524 3566767
-0.057510417 -0.14281328 1.1924629 3500977
0.097317293 -0.13128002 1.1887816 3501234
0.10498068 -0.1282898 1.1859365 3501490
-0.08118993 -0.12548588 1.1894512 3566770
-0.074108109 -0.12971541 1.1917816 3632306
-0.067162409 -0.13426977 1.1929059 3632563
0.10629666 -0.1195833 1.1879761 3699127
0.11359966 -0.11778902 1.1857402 3633076
-0.082711115 -0.12000979 1.1906307 3566770
-0.076596633 -0.12061926 1.1934787 3763892
0.10667156 -0.11051435 1.1896198 3633335
0.11314742 -0.10785294 1.1870984 3764407
-0.083411142 -0.11000724 1.1927117 3698868
-0.079012036 -0.11038437 1.1938034 3699126
0.10651726 -0.098536052 1.1899396 3962811
0.11302257 -0.098194547 1.1886349 3830969
0.12068139 -0.097866014 1.185636 3830714
