# .PCD v0.7 - Point Cloud Data file format
VERSION 0.7
FIELDS x y z rgba
SIZE 4 4 4 4
TYPE F F F U
COUNT 1 1 1 1
WIDTH 174
HEIGHT 1
VIEWPOINT 0 0 0 1 0 0 0
POINTS 174
DATA ascii
-0.35694492 0.094108932 1.0848498 5134174
-0.35017705 0.093413368 1.0861745 5134176
-0.35803264 0.098681934 1.0846581 4871515
-0.36393738 0.075512044 1.0905229 4936281
-0.35345113 0.074377023 1.092575 5199967
-0.34870505 0.07502304 1.0935093 5397348
-0.37275246 0.081088223 1.0885141 4673880
-0.36479405 0.081599966 1.088124 4870232
-0.35564485 0.082937047 1.0906566 5068382
-0.34625551 0.084604643 1.0930628 5068384
-0.33902332 0.087169327 1.0954667 4476504
-0.37411496 0.090416402 1.0868983 4607822
-0.36697993 0.091379188 1.0869441 4673623
-0.35619104 0.092091389 1.0890644 5134174
-0.34616008 0.094359741 1.0910434 4739419
-0.33879569 0.095146835 1.0938023 4081746
-0.37571153 0.098687477 1.0883229 4410445
-0.36714998 0.10087233 1.0869559 4213839
-0.35718408 0.10274585 1.0889202 4345429
-0.34732839 0.1036706 1.0908585 4016211
-0.33958378 0.1044002 1.0935574 3621193
-0.36726394 0.1063479 1.0869596 3884109
-0.35825804 0.10856448 1.0887372 3752784
-0.34810725 0.10987785 1.0907352 3621192
-0.34087187 0.10976267 1.0921543 3686459
-0.37252274 0.062277164 1.0994029 4673626
-0.36395308 0.062461872 1.0981907 4870741
-0.3549256 0.06251692 1.1001502 5265754
-0.34527147 0.06455604 1.1023266 5397604
-0.33789086 0.068386696 1.1068095 4608350
-0.37390637 0.071101986 1.0951699 4673629
-0.3651455 0.070693582 1.0946789 4870744
-0.3566567 0.070259258 1.0960027 5134174
-0.3450343 0.07387004 1.0989649 5397606
-0.33787608 0.075726248 1.1046238 4476760
-0.33273116 0.080553912 1.1078798 4015442
-0.38260376 0.078360215 1.0980839 3883351
-0.37821671 0.078858659 1.0936477 4475995
-0.3448562 0.080462158 1.0983666 5068641
-0.33674842 0.084826469 1.10207 4082513
-0.33195457 0.086728357 1.1075519 3752531
-0.38045955 0.088612832 1.0920311 4079443
-0.3358905 0.094121873 1.1017194 3621705
-0.33178034 0.092355721 1.1056767 3751503
-0.33814424 0.10143371 1.0997833 3490378
-0.36117917 0.045617089 1.1133416 5002588
-0.35806438 0.046020098 1.1139545 5528419
-0.37275666 0.053797193 1.1111088 4739163
-0.36477193 0.05187422 1.1096658 5002333
-0.35547721 0.052767284 1.1114371 5397092
-0.34702396 0.055933975 1.1144938 5332066
-0.34160909 0.05782726 1.1172395 4740695
-0.37362996 0.057590302 1.1056054 4082256
-0.36638135 0.057330027 1.105243 5068120
-0.34452912 0.060732882 1.111585 5200736
-0.33736292 0.065092988 1.115189 4345175
-0.33113709 0.067891873 1.1187598 4278096
-0.33529913 0.074858226 1.1122985 4147028
-0.33133733 0.074979521 1.1172384 3819087
-0.33173966 0.082439251 1.1133825 3687502
-0.35481548 0.034639958 1.1257478 5528423
-0.35068873 0.035716858 1.1265626 5397348
-0.36480832 0.041170318 1.118383 4804702
-0.35543874 0.042164266 1.1196355 5462626
-0.34685886 0.043972496 1.1239564 5003105
-0.33960459 0.048511587 1.1263525 4804440
-0.37524003 0.049995989 1.1177371 3817824
-0.368195 0.047053251 1.115029 4673622
-0.35257944 0.049073685 1.1181026 5660265
-0.34558052 0.051547576 1.1194876 5069150
-0.33752021 0.055467688 1.1231259 4475986
-0.33275542 0.060408596 1.1240844 4014924
-0.33517215 0.062108163 1.1215801 4606547
-0.32998836 0.065241888 1.1231216 3620428
-0.36168742 0.027008902 1.1314967 4079956
-0.35469651 0.02687357 1.1305385 5266270
-0.34948817 0.028041003 1.1338952 5002845
-0.36487135 0.032776631 1.1288613 4079963
-0.35675222 0.031168481 1.1284086 5330781
-0.34709954 0.034690823 1.1319977 5002331
-0.34431812 0.041052032 1.1308953 5001816
-0.34083971 0.044400997 1.1328166 4540755
-0.33711821 0.051782653 1.132359 4213074
-0.35681471 0.017140387 1.1446348 5265766
-0.35808215 0.021432528 1.1414949 5068639
-0.34972215 0.024174443 1.142663 4214103
-0.36583313 0.026653329 1.1347579 1580089
-0.34556457 0.031134659 1.1394355 4145996
-0.34349057 0.037219394 1.139192 4212054
-0.3635149 0.015273261 1.1463684 3618132
-0.35803398 0.014875389 1.147442 5199718
-0.35175759 0.016794493 1.1486826 4214875
-0.34889325 -0.042889506 1.1652659 528927
-0.34382519 -0.042907212 1.1662602 1517876
-0.34576207 -0.052895989 1.1780617 4419983
-0.36094931 -0.048021223 1.1730669 1651559
-0.35513735 -0.046558175 1.1710113 1782104
-0.34263358 -0.047515932 1.1713128 4154236
-0.3387734 -0.043505058 1.1759837 3028033
-0.35415095 -0.039240576 1.1764807 2369321
-0.34583369 -0.038339656 1.1744483 2040105
-0.35568506 -0.020174453 1.172194 4146252
-0.3619695 -0.052916568 1.1830341 5077683
-0.35475624 -0.054612529 1.1830826 4617364
-0.345534 -0.053799827 1.1848959 4549258
-0.34053499 -0.04777205 1.183188 6582660
-0.36362904 -0.041658107 1.1786858 7695014
-0.356731 -0.036982644 1.1807408 2040625
-0.34886801 -0.034742136 1.1816149 2172202
-0.34165883 -0.038815469 1.18301 2760198
-0.3566677 -0.063914672 1.1921747 4683677
-0.35111952 -0.063196816 1.1932666 3831442
-0.36473069 -0.058033865 1.189456 3299734
-0.35732427 -0.059329789 1.1894736 4683420
-0.34909976 -0.058752164 1.1920536 3960460
-0.35681728 -0.13709556 1.2050451 3829135
-0.34896427 -0.13559368 1.2065932 4223637
-0.34284839 -0.13525501 1.2077948 3960467
-0.35877848 -0.12789445 1.204704 3498881
-0.35055688 -0.1263773 1.2059169 3895695
-0.3431564 -0.1240696 1.2077875 3631246
-0.35948375 -0.11676832 1.2015615 3499128
-0.35233027 -0.11665139 1.2029656 4025235
-0.34423751 -0.1146042 1.2064558 3499655
-0.35967484 -0.10737726 1.1995305 3826560
-0.35320592 -0.10657576 1.2013131 4156303
-0.34586427 -0.10612945 1.2053034 3630985
-0.36120233 -0.097921543 1.202333 3893387
-0.35452011 -0.096771605 1.2020644 4157333
-0.34782255 -0.095355041 1.20548 3762828
-0.36098987 -0.089306526 1.2044538 3762325
-0.35505688 -0.086024605 1.2018969 4420507
-0.34943435 -0.085418873 1.2053809 3828877
-0.36383286 -0.075733334 1.2039605 4222878
-0.35589701 -0.076634668 1.2017088 4552347
-0.35038269 -0.076281317 1.2057818 3631755
-0.36544281 -0.068077125 1.1979743 3627913
-0.35641623 -0.068679154 1.1976364 4683676
-0.35017177 -0.06651368 1.2018675 3892613
-0.3495988 -0.058551405 1.1986825 3563127
-0.35820284 -0.14708607 1.210258 3033484
-0.35043111 -0.14703186 1.2142237 2897991
-0.34063146 -0.14496446 1.2156568 3891064
-0.33369946 -0.14327362 1.2187234 2638186
-0.36298051 -0.13856725 1.2079052 666715
-0.35209006 -0.13942276 1.2100379 4813457
-0.3392337 -0.13478708 1.2125826 3499654
-0.33297485 -0.13378529 1.2175698 3561592
-0.36504221 -0.12734459 1.2075541 6722
-0.3405489 -0.12534109 1.2123694 3694979
-0.33457112 -0.12427312 1.2155856 3233144
-0.34030956 -0.11481978 1.2124665 3104639
-0.33636576 -0.11423445 1.2164856 2640231
-0.34219369 -0.10527258 1.2121422 2907007
-0.33881092 -0.10486887 1.21744 3099492
-0.36555186 -0.095939502 1.2076036 4089741
-0.34384361 -0.09581586 1.2122275 3496061
-0.34067932 -0.094184183 1.2175875 4278874
-0.36430848 -0.087619476 1.2078871 2972810
-0.34596914 -0.085636422 1.2128845 3757171
-0.34282094 -0.086268514 1.2172049 3748927
-0.36390266 -0.081739008 1.2079947 3630740
-0.34604034 -0.078262277 1.211516 3953004
-0.35127199 -0.15333 1.219304 984897
-0.34155163 -0.14815822 1.2212358 4350584
-0.3346436 -0.12305123 1.2233901 4674411
-0.33621374 -0.11461867 1.2255 6974583
-0.33930057 -0.10383595 1.2249457 3815753
-0.37099233 -0.097169809 1.2157018 5799072
-0.33910277 -0.094217971 1.2219729 5064001
-0.33616436 -0.12902538 1.2356319 7039097
-0.3373439 -0.12332594 1.2364466 7565430
-0.33903363 -0.11481225 1.2358159 8223350
-0.33943859 -0.10662521 1.2310197 9076613
