# .PCD v0.7 - Point Cloud Data file format
VERSION 0.7
FIELDS x y z rgba
SIZE 4 4 4 4
TYPE F F F U
COUNT 1 1 1 1
WIDTH 1130
HEIGHT 1
VIEWPOINT 0 0 0 1 0 0 0
POINTS 1130
DATA ascii
-0.049417436 0.0077404007 0.98576164 6132172
-0.043108031 0.010213122 0.98572254 5672135
-0.029849092 0.016727045 0.98562419 5668533
-0.006228203 0.02033747 0.98554802 5604028
0.0022658687 0.020278282 0.98553741 5670854
0.010739155 0.020169206 0.98402739 5802194
0.020137088 0.019129001 0.98302764 6132189
0.027699322 0.01910869 0.98401791 5737423
-0.0065253004 0.022856236 0.98551714 4350608
0.002278992 0.022165716 0.98551399 4285852
0.011498826 0.023521259 0.98415148 4022164
0.020572228 0.024248943 0.98396373 4153228
0.028724685 0.024812691 0.98544598 4284293
-0.075949259 -0.00078011304 0.99490321 6128822
-0.071750946 0.00033343583 0.99488378 5801146
-0.068213187 0.0053371862 0.99369204 5272735
-0.060348816 0.0074384138 0.99109852 5536936
-0.051009841 0.0098799467 0.98948753 5801142
-0.041335374 0.011216007 0.98870796 6263759
0.081255868 0.0076477006 0.99458933 5864111
-0.057659246 0.014291137 0.99319196 5270664
-0.048722081 0.016324505 0.99083656 5008273
-0.039447494 0.016918249 0.98983496 5206430
-0.029929942 0.018930949 0.98893052 5074073
-0.021044226 0.018866517 0.99115777 5274031
-0.010976987 0.020470634 0.98855287 5405876
-0.0024571996 0.020411253 0.98854226 5998788
0.0060625868 0.020351887 0.98853165 5802444
0.032597765 0.019252762 0.98951 5538507
0.04053206 0.018950298 0.98986685 4944316
0.049698494 0.018217094 0.99050015 5008558
0.060244821 0.017885774 0.99232364 4612496
0.067023478 0.015365526 0.99451268 4546960
-0.045308307 0.022814639 0.99457002 5401735
-0.03952828 0.022710912 0.99276346 5270150
-0.029199185 0.02318614 0.9928295 5203846
-0.016712384 0.024730943 0.99375808 4875914
-0.0092393346 0.026478909 0.99019051 4875142
0.00024922844 0.026533306 0.99089158 4743815
0.0089734467 0.027407587 0.99069053 4678280
0.019612601 0.029069215 0.99080575 4809598
0.032517232 0.026778206 0.98980153 4612484
0.040197596 0.025380686 0.99101502 4677249
0.049503066 0.024541765 0.9923045 5005437
0.059581712 0.024772622 0.99440598 5268860
-0.0081001632 0.032078654 0.99440563 5006720
-0.088577494 -0.010966234 1.003647 5932737
-0.084288046 -0.0092699528 1.0030202 5933251
-0.088922001 -0.0055637881 1.0043441 6192539
-0.080824666 -0.0023147538 0.99984217 5930664
0.093672842 0.00036267191 1.0023304 6983363
0.10084167 -0.00062710792 1.0056667 6061227
0.10617891 2.2649765e-006 1.0056518 5400966
-0.078058399 0.0060180575 1.0011973 6189971
-0.07134477 0.0089637265 0.99877661 5861520
-0.063669726 0.011586115 0.99773383 5664907
0.073400185 0.010153331 0.99756902 5996731
0.081375703 0.0087012798 0.99912196 5731750
0.090803303 0.0071237236 1.0025837 5927827
0.09908475 0.0044806078 1.0056057 5861518
-0.068800829 0.013671204 1.0031153 6058377
-0.057770878 0.01690162 1.0009937 5467271
-0.052288584 0.020193785 1.0003623 5466762
0.071159929 0.016804799 0.99888974 5268360
0.079588398 0.015057839 1.002367 5663111
0.087841399 0.01260794 1.0040199 6517124
-0.050419167 0.023097061 1.0015738 5532297
-0.036579192 0.025482982 0.99952567 5204613
-0.030331777 0.02789744 1.0007817 5138821
-0.020678634 0.027211957 0.99830121 4876167
-0.012910558 0.030336156 0.9974339 5138310
-0.0014479887 0.030256271 0.9974196 5138050
0.041218244 0.029958948 0.99736643 5006203
0.050861783 0.028952643 0.9977411 5202812
0.058905609 0.027543232 0.99737281 5203582
0.068698607 0.023410901 1.0012113 5597049
-0.027433978 0.032705978 1.0054245 5269636
-0.018912544 0.033304334 1.0029055 5204101
-0.0093377456 0.0335958 1.001264 5072257
0.00048483815 0.033265978 1.00078 5006718
0.01005666 0.033139721 0.99946868 4875393
0.019694826 0.033209935 1.0024552 4875390
0.030169792 0.033057749 1.0026159 4874877
0.040348202 0.032920301 1.0015534 5006460
0.047548823 0.032071501 1.0028323 5202811
-0.099411696 -0.013007611 1.0102873 6980776
-0.093258284 -0.012811415 1.0090765 6129600
-0.098298185 -0.006426543 1.0132045 7570324
-0.090976372 -0.003405802 1.009557 6651024
-0.08470273 0.0023381636 1.0088774 6781327
0.098751545 -0.0028029084 1.0086967 6854356
0.11033034 -0.0027548149 1.0105141 7111067
-0.080405995 0.008124724 1.009925 6583439
0.10174477 0.0083962455 1.009354 6845830
0.10997921 0.0057597309 1.0115759 7436672
-0.067996465 0.019028507 1.0122914 6321290
-0.061804794 0.019883797 1.0112547 5795463
0.080876037 0.0186911 1.0124545 5860223
0.090534948 0.013911232 1.0103006 6649473
0.09799663 0.013293058 1.0144987 6977411
-0.068388402 0.023601294 1.0123425 7372164
-0.058943972 0.0238152 1.0110772 6123396
-0.049551308 0.028139882 1.0131779 5729669
-0.041007511 0.028659344 1.0131809 5336195
-0.034285426 0.03095673 1.0084555 5270149
0.070944585 0.025877938 1.0083783 5532277
0.078447342 0.023003623 1.0132043 5860472
-0.05001083 0.033266336 1.0144484 6714755
-0.040944397 0.033203155 1.0144371 5794947
-0.030120736 0.034781024 1.0123029 5466498
-0.01964633 0.037268937 1.011108 5466240
-0.0091596972 0.03773652 1.0122384 5334655
0.0013058651 0.037783235 1.0107237 5138044
0.010360824 0.038387716 1.0113043 5072252
0.020041099 0.03812553 1.0106022 5072247
0.029693415 0.037507489 1.0102179 5137530
0.039926209 0.036781818 1.0138564 5137788
0.048925921 0.033413902 1.0113145 5268347
0.11712018 -0.01063031 1.0177699 7374502
-0.098960839 -0.0029621944 1.0221059 9214113
-0.090111837 0.00086392462 1.0201894 6978442
0.11323668 -0.0086547807 1.0177506 7112109
0.11774935 -0.0044756308 1.0183244 8686741
-0.088200606 0.0066337138 1.0207297 7636109
-0.082819894 0.010685027 1.0197723 7437970
0.11786904 0.0036532432 1.0175918 9277068
0.083641417 0.020162359 1.018433 5992060
0.090194471 0.018085331 1.0210335 6451580
0.097073764 0.01686132 1.0197895 6516347
-0.058052205 0.026351392 1.018545 6254982
-0.054434657 0.030802265 1.0244856 6648965
-0.038490683 0.02942346 1.0174809 5270660
0.064987764 0.030779451 1.0203264 5662844
0.070846826 0.029375359 1.020436 5794679
0.079429597 0.026515514 1.0193599 5926261
0.087581545 0.022875778 1.0223944 6253428
-0.048269935 0.035415351 1.0191697 7043204
-0.039170809 0.036029011 1.0195667 6188928
-0.028766824 0.039061651 1.0204487 5991293
-0.018983787 0.041146025 1.0205098 5794427
-0.0091982707 0.041035905 1.019698 5597052
-0.0010019727 0.040526211 1.0184934 5399930
0.0083551425 0.040787816 1.0172776 5203324
0.019072017 0.040713131 1.0172642 5269365
0.031771403 0.040677026 1.0182478 5334394
0.040944643 0.03963542 1.0202487 5466234
0.047485672 0.037785038 1.0210963 5597049
0.065008141 0.033710584 1.02029 5991033
0.069632135 0.033643305 1.0225706 6055795
-0.01700866 0.043075949 1.0202832 6056827
-0.0079844818 0.044184029 1.0237578 5859449
0.00039078202 0.044260576 1.0226456 5728377
0.0095583424 0.043668568 1.0242409 5532027
0.02020452 0.043033823 1.0242345 5532021
-0.096134722 -0.0012453943 1.0279384 7306630
-0.094160311 -0.00027540326 1.0279238 7438985
-0.076518729 0.01748085 1.0336807 7044228
-0.07260102 0.01736778 1.0306766 6255491
0.092420824 0.020558953 1.0274171 6187632
0.097835071 0.021013096 1.0274042 6119529
-0.058141232 0.0295766 1.0275059 6780808
0.060519628 0.031110719 1.0273287 5465215
0.084175505 0.025888778 1.0323623 6056820
0.090277687 0.02512686 1.0306636 5988198
-0.045688093 0.037753373 1.0273879 7108737
-0.039296947 0.040635139 1.0306439 7108222
-0.030903971 0.041585386 1.0273207 6582396
0.051992171 0.038337812 1.0295007 5859705
0.057332717 0.036431074 1.0282671 5728122
-0.026351793 0.044973388 1.0297729 6713719
-0.019927012 0.045863315 1.0311534 6450807
-0.01171425 0.046007887 1.0294906 6122104
0.00012659002 0.046910554 1.0294635 6122617
0.01245914 0.04734388 1.0298585 6057083
0.018787842 0.047155827 1.0307858 6057334
-0.081529997 0.016325697 1.0367019 7832202
0.083866768 0.029349223 1.0363202 5792617
0.086843833 0.02932848 1.0363165 5724767
-0.03809645 0.044091746 1.0363001 7764863
-0.018221727 0.047922581 1.036226 6384242
-0.0092905257 0.047860339 1.0362149 6121843
0.16346522 -0.080563128 1.0565779 13950701
0.16649657 -0.08058425 1.0565741 13160147
0.16550721 -0.07754609 1.0565377 13423577
0.1644872 -0.090163887 1.063696 12898285
0.16846916 -0.091175877 1.0632032 12832198
0.16307859 -0.084218495 1.0617669 10136266
0.16984141 -0.084742703 1.0618715 13159885
0.16347453 -0.077921763 1.0630456 12175571
0.16882116 -0.07693848 1.059526 13093836
-0.14067838 -0.10821334 1.0761271 1720740
-0.1414018 -0.1013153 1.0758308 3628972
-0.14238976 -0.095130451 1.0771673 4745397
0.16382396 -0.091830418 1.0727183 6256041
0.16835177 -0.094542019 1.0729458 12767188
0.16213936 -0.082710542 1.0746076 7312841
-0.13875467 -0.13229172 1.0876238 2903988
-0.1356376 -0.13231346 1.0876199 1324707
-0.1401334 -0.12026014 1.0867264 2904505
-0.13876051 -0.11152682 1.0852662 2644141
0.16375957 -0.11154198 1.0869637 5801403
0.16819035 -0.11191918 1.0869625 11779799
-0.13837416 -0.10045835 1.0832285 3039906
0.16297837 -0.10245195 1.085852 3630254
0.16919294 -0.10332271 1.0852662 11516624
0.17628562 -0.10331732 1.086845 13685195
-0.1408091 -0.091445729 1.0854838 2708908
0.16281781 -0.093993396 1.0848724 3762605
0.1675446 -0.097830087 1.0837885 10465738
0.16301824 -0.0872344 1.080663 6721740
-0.13835013 -0.074110925 1.0869023 1588628
-0.13523306 -0.074132651 1.0868983 3826867
-0.13229936 -0.14762625 1.0938057 3694011
-0.13723174 -0.14108655 1.091731 7178192
-0.13199012 -0.14085713 1.0928751 2114980
-0.13736056 -0.12961483 1.091589 1063065
-0.13289851 -0.1324546 1.0925183 2447769
-0.13683869 -0.12205815 1.0914947 2578847
-0.13432954 -0.12159345 1.0944858 2907546
0.16347231 -0.12247452 1.0926 6851775
0.16906078 -0.12206699 1.0910873 13029078
-0.13607828 -0.11196253 1.0921186 3104917
-0.1342423 -0.10904615 1.0943302 3170462
0.16215499 -0.111674 1.0924679 3040417
0.17185059 -0.11508475 1.0909971 13422807
0.17479227 -0.11197685 1.0909547 13619661
-0.1380783 -0.099426396 1.0919659 3104162
0.16097385 -0.10346097 1.0917248 2973607
-0.13735439 -0.091103539 1.0921118 3169952
0.16146249 -0.093330592 1.0937415 2843043
-0.13908668 -0.081424721 1.091152 3301299
-0.12724419 -0.15944257 1.1039461 4750553
-0.12361296 -0.16166881 1.1059691 1196192
-0.12921301 -0.15220368 1.1006588 3036848
-0.12532306 -0.15443999 1.1058818 1789334
0.15884162 -0.15241238 1.1029779 12898004
-0.12808514 -0.14130023 1.1019444 2776475
0.15940163 -0.14333123 1.1017646 9087435
0.16523919 -0.13877347 1.0983 13488846
-0.13025816 -0.13055012 1.1015919 3038106
0.15932782 -0.13269332 1.1006327 4354994
0.16718376 -0.13081107 1.0981987 13752800
-0.13206272 -0.12081081 1.1029181 2973083
0.15936914 -0.12291099 1.1014192 2121388
-0.13681178 -0.10728349 1.098312 3301280
-0.13345943 -0.11221336 1.1020054 3039132
0.16015078 -0.11488179 1.0991775 2646946
0.17642041 -0.10972619 1.1009253 13817039
-0.136768 -0.10098698 1.0982339 3366820
-0.13421893 -0.10140938 1.1032362 3105183
0.15861239 -0.10257968 1.1025606 3631271
0.17748739 -0.10762898 1.1008979 13817037
-0.13669017 -0.08979319 1.0980952 3499424
-0.13400026 -0.090784058 1.1019042 3302563
0.15834813 -0.092336051 1.1016752 3369127
-0.13389803 -0.081286997 1.1014863 3434147
0.16033132 -0.082753725 1.1025218 2908578
0.16610174 -0.080189176 1.1005731 8233160
-0.13845776 -0.070134901 1.0987111 3365295
-0.1331412 -0.071346484 1.1017083 3499689
0.16118944 -0.07318531 1.1021401 4024485
0.16616027 -0.071770974 1.1004686 11192030
-0.13685933 -0.061240755 1.1007417 2181536
-0.13162918 -0.06112041 1.1019335 3433908
0.16045806 -0.067716137 1.1044264 2708114
-0.13517976 -0.052982334 1.1046376 8233201
-0.13136296 -0.054149035 1.1029325 3564980
0.012323853 0.11781767 1.0983241 9935247
0.018042907 0.11867979 1.0983057 9934992
-0.11804416 -0.17051247 1.1147642 929696
-0.11385947 -0.1708664 1.1170708 1984411
0.14856362 -0.16842869 1.1166911 13424882
-0.11899322 -0.16097175 1.1123548 2512540
-0.11437946 -0.16286194 1.115639 2906513
0.14992531 -0.16254562 1.1141717 8955594
0.15558501 -0.16128573 1.1105928 14080986
-0.1260481 -0.14683232 1.1127889 2381461
-0.12296795 -0.1520109 1.1147866 2776212
0.15020998 -0.15296225 1.1128169 3697834
-0.12645283 -0.1408982 1.1135494 2841752
-0.12434789 -0.14519465 1.1167667 2906774
0.15213372 -0.14305331 1.1131717 2646183
-0.12826703 -0.13031171 1.1144445 2907034
-0.12427372 -0.13452905 1.1166344 2775704
0.15277299 -0.13430984 1.1141626 3696546
0.15485829 -0.12979525 1.1135371 3761571
-0.12922204 -0.12087124 1.1129159 2973083
0.1565785 -0.12371552 1.1127927 3368880
-0.130246 -0.11066297 1.1122463 3039134
0.15695505 -0.11211521 1.1122545 3500454
-0.13035089 -0.1002166 1.111817 3171232
0.15594354 -0.10365731 1.1131641 3631529
-0.13084818 -0.091453135 1.111009 3302564
0.15450405 -0.093307495 1.1087518 3697839
0.15492339 -0.093524635 1.1117541 3763633
-0.13086666 -0.080888785 1.1116781 3368355
0.15556726 -0.082277745 1.1113281 3436468
0.16990648 -0.078749835 1.111551 10992842
-0.12845507 -0.070488609 1.111546 3697068
0.15351985 -0.06926842 1.1154556 3765679
0.15669705 -0.071850099 1.1106648 3830452
0.16958179 -0.074496359 1.1114987 11387079
-0.12730567 -0.062748507 1.1092484 3631022
-0.12510788 -0.059560668 1.1087059 3500456
0.15292794 -0.062383875 1.1124821 3830449
0.1596377 -0.062954709 1.1100005 5207985
0.16615732 -0.063961238 1.1140397 10334913
-0.12745699 -0.050698582 1.1111709 3434161
0.15212958 -0.053450651 1.1121184 3893939
0.1592197 -0.05399384 1.1113141 8428221
-0.12763828 -0.040623497 1.1146179 6194370
-0.12307297 -0.038542476 1.1154432 4421311
0.15007454 -0.041585624 1.1140262 5734064
0.15635329 -0.045289434 1.1151547 10203587
-0.12169332 -0.031885773 1.1153589 6852289
0.14862779 -0.035680354 1.1118457 8955077
0.01919123 0.094859079 1.1136006 9737616
-0.087719195 -0.20733441 1.1258221 7635861
-0.084334381 -0.2078176 1.1284903 8100012
-0.09790545 -0.19731119 1.1283782 10535920
-0.090899698 -0.20006576 1.1260499 5996227
-0.084309414 -0.20422748 1.1284459 6394567
-0.10784867 -0.18630646 1.1202544 8431615
-0.10086259 -0.18876463 1.1230451 1526185
-0.094690636 -0.19114988 1.1271546 1262491
0.12906937 -0.18991718 1.1279843 11717846
-0.11634516 -0.17769152 1.120159 7571711
-0.1093749 -0.17998976 1.1217339 1917611
-0.10240933 -0.1825124 1.1255339 2379673
-0.095668852 -0.18547884 1.1282285 2644619
0.13070717 -0.18305576 1.127897 5010097
0.13802819 -0.18018101 1.1247087 10599906
0.14513856 -0.17903078 1.1238277 14081762
-0.10937531 -0.1711266 1.1242793 2709143
0.13182379 -0.17246364 1.1277642 2909858
0.13847256 -0.17208225 1.1239322 4026283
0.14606406 -0.17237312 1.1202435 12307424
-0.11620388 -0.15737261 1.119907 2775446
-0.11184638 -0.16158044 1.1228627 2775442
0.13978693 -0.16313401 1.1246378 3105445
0.14473107 -0.16239937 1.1196218 2578854
-0.11818359 -0.15013298 1.121974 2775449
-0.1139776 -0.15251206 1.126511 2906778
0.14218718 -0.15333322 1.1259133 3564451
0.14554209 -0.15242836 1.1218973 3433893
-0.12197486 -0.14141467 1.1230114 2840984
0.14374293 -0.14514084 1.1274098 3565217
0.14753254 -0.14311665 1.1220459 3499430
-0.12670554 -0.12949327 1.1195755 2841497
-0.12372654 -0.13121763 1.1255934 2907290
0.14988577 -0.13248199 1.1242446 3237547
-0.12681748 -0.12001657 1.1210583 2973083
-0.12408186 -0.12046333 1.1254606 3038877
0.15304738 -0.1228037 1.1253023 3827369
0.15570863 -0.1218361 1.1191044 3564710
-0.12780446 -0.11002549 1.1221931 3039391
-0.12517239 -0.11191078 1.1260228 3170977
0.15338612 -0.11272027 1.124995 3565735
0.15576811 -0.11328077 1.1189983 3500198
-0.12787089 -0.10180674 1.1242343 3170977
0.15371552 -0.10371257 1.1242163 3631790
0.15479119 -0.10536564 1.1269022 3434923
-0.12795383 -0.091265544 1.1231037 3302823
0.15345918 -0.092256621 1.1242414 3566513
-0.12785506 -0.081281491 1.1216464 3368614
0.15261863 -0.082994208 1.1241661 3632560
-0.12729596 -0.073562965 1.1228834 3565995
0.15148921 -0.07283406 1.1227698 3895728
-0.12425373 -0.058516067 1.1242931 3697842
0.14921789 -0.062879235 1.1211827 4158132
-0.12253561 -0.050239563 1.1229517 3502262
0.14816265 -0.052188985 1.1222517 4027837
-0.11982457 -0.040751517 1.1222447 3698611
0.14339225 -0.040661026 1.1261154 4619197
0.14916925 -0.043869589 1.1206087 4946612
-0.12604375 -0.034315262 1.1183951 7180220
-0.1184255 -0.03128095 1.1255479 4815032
0.14335133 -0.034187444 1.1253686 5209534
0.14807858 -0.032558769 1.1180083 8425655
0.020285299 0.090862215 1.1166489 9474444
-0.060859539 -0.21775889 1.1355828 8300241
-0.079023212 -0.20948279 1.1318678 7642055
-0.071531884 -0.21016586 1.1340028 4815810
-0.064794667 -0.21364418 1.135537 5210825
-0.088080034 -0.19751105 1.1313678 932767
-0.08113189 -0.20098241 1.133086 2382238
-0.072531596 -0.20405325 1.1354284 2251168
0.11101151 -0.20208102 1.1351596 6518691
0.11685424 -0.2011134 1.1337111 11319227
-0.089758381 -0.19073495 1.1331528 2447513
-0.08438538 -0.19421685 1.1353223 2513045
0.11875614 -0.19289991 1.1339828 4617903
0.12579635 -0.19300178 1.1310271 10929103
-0.099139392 -0.17964819 1.1326158 2971544
-0.093252644 -0.18344748 1.1332005 2774929
0.12089238 -0.18365502 1.1332513 2909086
0.12580203 -0.18276963 1.1309003 3105187
-0.10658431 -0.16642371 1.1310072 2709911
-0.10199483 -0.17148598 1.133417 2644371
0.1273897 -0.17295794 1.131392 3368356
-0.10886694 -0.15977055 1.1327461 2775444
-0.10392477 -0.16391787 1.1336395 2709910
0.13187943 -0.16311122 1.1322486 3368613
0.13610467 -0.16019534 1.1306068 3499683
-0.11202135 -0.15118277 1.1323256 2841497
0.13373367 -0.15563801 1.1345538 3237027
0.13847837 -0.15299477 1.1318479 3302821
-0.11787301 -0.13956331 1.1312609 2645144
-0.11439651 -0.14128226 1.1338174 2775964
0.14166833 -0.14307269 1.1325692 3237542
0.1457804 -0.13953239 1.1316713 3106215
-0.11964416 -0.13114144 1.1320421 2907291
0.14310886 -0.13352484 1.1329337 3499683
0.14622256 -0.13158487 1.1313818 3303338
-0.12055939 -0.12119797 1.1328655 3039134
0.14789674 -0.12310228 1.1315433 3499947
-0.12561086 -0.10689425 1.1302948 3236770
-0.12347693 -0.11115771 1.1336784 3236770
0.14970191 -0.11260285 1.1318172 3500458
-0.12556581 -0.10041489 1.1302145 3237027
-0.1238373 -0.10073922 1.1342164 3302821
0.15214257 -0.10206574 1.1321509 3632048
-0.12549824 -0.09069588 1.1300939 3302824
-0.12377324 -0.091527767 1.1341022 3302569
0.15047649 -0.093166836 1.1319389 3632047
-0.12586716 -0.081621781 1.129982 3434408
-0.12306837 -0.079224348 1.1339488 3434665
0.14715999 -0.082101889 1.1314425 4026292
-0.12536307 -0.071257845 1.1298529 3631531
-0.12362631 -0.070395619 1.1338402 3631531
0.14732054 -0.074142128 1.12997 4157366
-0.12531802 -0.064778492 1.1297725 4025255
-0.12212896 -0.059649922 1.1319906 3632304
0.14686523 -0.062355455 1.12938 4289211
-0.1186066 -0.050689913 1.1313034 3568048
0.14378487 -0.051558033 1.129917 4094399
0.1460875 -0.055944622 1.1313016 4224702
-0.11725803 -0.044675719 1.1295127 3764911
-0.11378432 -0.040354386 1.1319547 3895729
0.1412878 -0.04310995 1.1306036 4487616
-0.11834242 -0.026526198 1.1322894 6458567
-0.11343376 -0.030340411 1.1317301 3895996
0.14129281 -0.032086208 1.1294123 5735616
0.14817795 -0.02888637 1.1289635 9477559
-0.11788341 -0.023834281 1.1332555 6852289
-0.11463206 -0.023856938 1.1332514 5933254
0.052788705 0.076532856 1.1277841 9474701
-0.024152787 -0.22831652 1.1476657 7248329
0.0086822622 -0.23014678 1.1468446 5801654
0.016712315 -0.22908001 1.1462873 5210039
0.029504929 -0.22978561 1.1476125 6328255
0.037171405 -0.22983903 1.1476029 7379645
0.04873281 -0.22979793 1.1475871 8430007
0.05669114 -0.22812951 1.1435554 8625323
-0.062012665 -0.22002658 1.1396128 9678537
-0.051178582 -0.22002295 1.1461252 4422071
-0.041843422 -0.22074598 1.1475955 2778029
-0.032093018 -0.2226288 1.1476058 2513574
-0.024497548 -0.22539359 1.14763 2315684
0.0054331338 -0.22633229 1.1476017 2120102
0.017480452 -0.22641625 1.1475867 2185635
0.030630598 -0.22541271 1.1475568 2186146
0.036099032 -0.22654599 1.1475636 2316696
0.05144722 -0.22446258 1.1475173 4486314
0.059007742 -0.22414516 1.145503 5997746
0.070178755 -0.22125292 1.1463096 6063288
0.078860991 -0.21983483 1.1474234 6589614
0.086964019 -0.22011034 1.147416 8757678
-0.067367449 -0.2080261 1.1394712 1855898
-0.060659029 -0.21054131 1.1427318 2249885
-0.052986264 -0.21285474 1.1467851 2381985
-0.044870414 -0.21502995 1.1475286 3039902
0.072876163 -0.21420772 1.1473616 2841504
0.07890363 -0.21370214 1.1473473 3302564
0.088483952 -0.21153 1.1459742 4420011
0.098287076 -0.21081953 1.141571 6984117
0.10774241 -0.20815879 1.1392397 6254993
-0.078440011 -0.19741955 1.1401546 2710418
-0.070731595 -0.20069273 1.143766 2775447
-0.064019762 -0.20293373 1.1466042 2906776
0.090988204 -0.20364326 1.1468066 3171492
0.099505067 -0.20236367 1.1439791 3237285
0.10784497 -0.20126002 1.1397254 3629215
-0.081273913 -0.19040161 1.1440717 2775191
-0.073158138 -0.19391838 1.146638 2906012
0.10152876 -0.19315392 1.1453958 3040421
0.10848004 -0.19156143 1.1419805 3105703
0.11438138 -0.19189164 1.1390291 2777257
-0.096513145 -0.17628369 1.1391166 2710677
-0.089768775 -0.18017152 1.1426855 2709909
-0.083572805 -0.18379241 1.145193 2709910
0.10969493 -0.18314661 1.1454538 3368100
0.11728462 -0.18141904 1.141029 3302561
-0.097691827 -0.1696929 1.1421479 2710421
-0.092921019 -0.17252743 1.1462659 2644886
0.11180894 -0.17538108 1.1468287 3040936
0.11987089 -0.17236434 1.1446934 3237031
0.12629221 -0.16954431 1.1417365 3368615
-0.10725296 -0.15663274 1.1388874 2776209
-0.10184579 -0.1610927 1.1436858 2841240
0.12196543 -0.16386728 1.1466724 3237287
0.12843075 -0.16174969 1.1414943 3302822
-0.10820128 -0.14991781 1.1433392 2710683
-0.10352467 -0.15320796 1.146174 2841499
0.13075554 -0.15331736 1.1439415 3237541
0.13574162 -0.15068452 1.1400901 3237798
-0.11026981 -0.14134057 1.1438452 2907293
0.13250488 -0.14453168 1.1464188 3237797
0.13724983 -0.14208356 1.1413816 3303334
-0.11650196 -0.12964994 1.1397083 2907805
-0.11430634 -0.13122629 1.1457826 2907805
0.13915895 -0.13270243 1.1438186 3434407
-0.11693431 -0.12032118 1.1411172 3039392
-0.11431665 -0.12145566 1.1464615 3039391
0.14116907 -0.12314576 1.1435705 3500202
0.14533302 -0.12032823 1.1381011 3631274
-0.12001782 -0.11110938 1.142874 3170979
0.14319535 -0.11286659 1.1455677 3631791
0.14658409 -0.11239299 1.139779 3566510
-0.12034843 -0.10074293 1.143927 3105957
0.14244865 -0.10176295 1.1442087 3632305
0.14767197 -0.10297052 1.1382163 3501227
-0.12066326 -0.090743758 1.1415176 3237546
0.14205302 -0.092700303 1.143218 3698099
0.14666101 -0.093174718 1.1381629 3698094
-0.11997201 -0.080997832 1.141634 3434923
0.14335462 -0.08342912 1.1436468 3895479
0.145575 -0.085527942 1.1376694 3895477
-0.11951948 -0.070536442 1.1421229 3566256
0.14369386 -0.072112843 1.1448396 4027579
0.14618734 -0.071595713 1.1414963 4157882
-0.11846376 -0.061643668 1.1412549 3567024
0.14171976 -0.062568024 1.1442142 4159422
0.14604232 -0.062799767 1.1397873 4289724
-0.11608358 -0.051850952 1.1389341 3567791
-0.1129596 -0.049872711 1.1442392 3764403
0.1400778 -0.052537981 1.1426017 4356797
-0.11116416 -0.041025683 1.1380315 3830196
0.13748051 -0.042949099 1.1415529 4619718
-0.10961224 -0.030106507 1.1402318 3896507
0.13347301 -0.031022877 1.1418995 4817095
0.13799229 -0.031671539 1.1386789 4948420
-0.11715528 -0.020867147 1.1412184 6916535
-0.10967027 -0.021453388 1.140908 5210049
0.13267371 -0.024600141 1.1439322 5013440
0.13713433 -0.024243034 1.1415882 5998788
0.032860264 0.050116077 1.138996 5859448
0.041055944 0.050113335 1.1371279 6122362
0.046620689 0.050240323 1.1401191 6319482
0.057746932 0.051478997 1.1440892 5330522
0.033471089 0.054539949 1.1374164 5792108
0.041301832 0.055323929 1.1368629 5527648
0.046651043 0.054605588 1.1400648 5067354
-0.018404527 -0.22829187 1.1506579 4354997
-0.011049595 -0.22934575 1.1526613 4684224
-0.0011520386 -0.22913858 1.1511788 4289976
0.0098424107 -0.22692007 1.1506033 2054307
0.020270236 -0.22754177 1.1505971 2777510
0.025752943 -0.228678 1.1506039 4026798
0.042223953 -0.22879279 1.1505834 5604271
0.046078645 -0.22717258 1.1505581 4881326
-0.037313432 -0.21780717 1.1505531 3039902
-0.02936958 -0.21877414 1.1510546 2710943
-0.020910325 -0.22070727 1.1538719 2645152
-0.011047589 -0.22359233 1.1572571 2514339
-0.0011063032 -0.22356461 1.1567101 2514851
0.0088271126 -0.22114731 1.1551335 2842787
0.018712709 -0.2208198 1.1529161 2908579
0.02838758 -0.22048622 1.153388 3039651
0.038578484 -0.2212465 1.154495 2908578
0.047934435 -0.22044295 1.1542226 2778020
0.057974957 -0.21888028 1.1518682 2646433
0.067530409 -0.2216489 1.1504611 5012145
0.079051219 -0.22301021 1.1504626 8955830
-0.050285883 -0.20929435 1.1507506 2841242
-0.040454522 -0.21141016 1.1528116 2775960
-0.031452127 -0.21272415 1.1547494 2841500
-0.022054425 -0.21491539 1.1584977 2907551
0.0096470471 -0.21439922 1.1584491 3105184
0.018863665 -0.21409491 1.158433 3170722
0.028814845 -0.21416423 1.1584206 3302053
0.038954146 -0.21368209 1.1584011 3170723
0.049464583 -0.21283391 1.1583766 3105188
0.05879996 -0.21212676 1.156641 3170467
0.06840314 -0.21203226 1.152741 3236258
0.07857009 -0.20868528 1.1507303 3171236
-0.066823833 -0.19783685 1.150345 2906776
-0.060307153 -0.2001043 1.1515074 2907033
-0.051859058 -0.20110244 1.1551993 2841497
-0.04262729 -0.20518968 1.1584045 2775704
0.059827879 -0.20664075 1.158286 3105443
0.06867338 -0.20670238 1.158275 3105443
0.079492405 -0.2030758 1.1569524 3105956
0.087874286 -0.20030725 1.1533698 3105956
-0.077728167 -0.18678047 1.1502225 2644884
-0.070679642 -0.19036061 1.1532577 2775705
-0.062324837 -0.19325817 1.1559494 2841497
0.083124183 -0.19574654 1.15812 3172006
0.090797313 -0.1934303 1.157081 3040421
0.096673496 -0.19115245 1.1545447 2974628
-0.086451627 -0.17793538 1.1501245 2645144
-0.079817012 -0.17971189 1.1531968 2710425
-0.074530669 -0.18245134 1.1547364 2776216
0.10020156 -0.18253452 1.1546832 3171493
0.10519196 -0.18037784 1.1514996 3237026
-0.089431264 -0.16986537 1.1526169 2710424
-0.083071873 -0.17206994 1.1565933 2710937
0.10316491 -0.17598438 1.1578484 3302823
0.10952047 -0.17198274 1.1546322 3172005
0.11533714 -0.16889316 1.153744 3172006
-0.098029479 -0.15845604 1.1498985 2841498
-0.093645498 -0.16094598 1.154847 2907290
0.11208728 -0.16499001 1.1577003 3303592
0.11835732 -0.16166817 1.1563174 3237544
0.12453005 -0.15744488 1.1495895 3303337
-0.099733569 -0.14996576 1.15151 2973342
-0.095155925 -0.15304206 1.1578282 3038879
0.12204395 -0.15392219 1.1568831 3237544
0.12641987 -0.15097967 1.1523072 3303336
-0.10768007 -0.13836665 1.1506625 2973342
-0.10163063 -0.14151748 1.1551938 2973600
0.12989432 -0.14186384 1.1533897 3368872
-0.10920193 -0.13047665 1.1519198 3039392
-0.10377146 -0.13126378 1.1575698 3236259
0.13126321 -0.13241194 1.1550208 3500460
0.13570158 -0.13007179 1.1492355 3434923
-0.11023431 -0.12082031 1.1523376 3170978
0.13236836 -0.12347957 1.1558254 3500719
0.13707595 -0.12105337 1.1524554 3500718
-0.11672419 -0.10964611 1.1493186 3237029
-0.11291305 -0.11096866 1.1553303 3237286
0.13747905 -0.11216525 1.1551169 3697329
-0.11666311 -0.10086223 1.1492096 3237543
-0.11409112 -0.10035193 1.1567005 3172263
0.13876002 -0.10306946 1.1544971 3697843
-0.11689497 -0.091186777 1.1520903 3303340
-0.11480568 -0.090067007 1.157074 3303852
0.13860741 -0.092618182 1.1547679 3764149
-0.11689428 -0.081461959 1.1489695 3500716
-0.11415658 -0.080015324 1.1569486 3501229
0.14161946 -0.082220629 1.1532063 3764661
-0.11647225 -0.07341262 1.1488692 3566512
-0.11327148 -0.06995891 1.1531861 3632306
0.1387087 -0.071993589 1.1529826 3896764
-0.11260287 -0.060343299 1.153066 3698357
0.13279663 -0.061885159 1.1550615 4291265
0.13661489 -0.063149005 1.1495478 4225217
-0.11092972 -0.051352091 1.1525887 3764408
0.13364503 -0.052296672 1.1542748 4554434
0.13624364 -0.052114915 1.1482686 4488640
-0.10789848 -0.040651523 1.1532521 3895997
-0.10375093 -0.037441097 1.1564071 4027323
0.13332711 -0.041509561 1.1531415 4817354
-0.10629371 -0.031172208 1.1496656 3962044
-0.10230115 -0.029922083 1.1555119 4093118
0.1240897 -0.029077932 1.1559999 5014224
0.12945913 -0.031897046 1.1520275 4751563
-0.10512513 -0.020785898 1.1482018 4290235
-0.10023656 -0.02063556 1.1527272 4158908
-0.094035067 -0.018344104 1.1561575 4028609
0.12247239 -0.022050641 1.1541371 4817874
0.1291514 -0.021877043 1.1489035 5145287
-0.097809099 -0.014031276 1.1505086 4487616
-0.092404611 -0.011353001 1.1547352 4356800
0.11370514 -0.0094780549 1.1537708 5276623
0.1200207 -0.012579933 1.1500862 5604813
0.12941425 -0.013879992 1.1486928 6720449
-0.090252072 -0.0043654889 1.1559792 5671109
0.11188647 -0.0038825125 1.1551325 5802961
0.11824308 -0.0047464892 1.1510392 6787017
0.035919197 0.012445778 1.1556028 12972031
-0.019266492 0.022718355 1.1535488 5869264
0.013111905 0.0188701 1.1555536 7515376
0.020603441 0.018449321 1.1555488 8764660
0.030207556 0.017940156 1.1555424 10146554
0.036834493 0.01686202 1.1555469 10870005
-0.076943494 0.031357497 1.1475182 8028800
-0.071816646 0.031687781 1.1475072 7305855
-0.01486551 0.02385623 1.155529 5671370
-0.011548452 0.023833118 1.155525 5869265
0.011670968 0.023671322 1.155496 6988787
0.016093714 0.023640491 1.1554905 7185904
0.10239878 0.031884328 1.1552733 6314850
-0.070561789 0.036681205 1.1474437 8028802
0.09932746 0.035443842 1.1552334 6117979
0.07543131 0.046034202 1.1471334 5593178
0.07762745 0.046018898 1.1471306 5658970
-0.016594619 -0.2178694 1.1625273 2973083
-0.011054851 -0.21901748 1.1625342 2973595
-0.001622159 -0.21864465 1.1631837 2973598
-0.036488406 -0.20663613 1.1624147 2842012
-0.030118445 -0.20806736 1.1624238 2776219
-0.020792576 -0.2105938 1.1639667 2907806
-0.011205124 -0.21201958 1.1656058 2907807
-0.00065049715 -0.21263151 1.1657747 2973599
0.0082426285 -0.21038733 1.1630683 3039136
0.01899394 -0.20946386 1.1637092 3170723
0.028972365 -0.20942232 1.1630287 3236770
0.038773581 -0.20903817 1.1623442 3170979
0.047821723 -0.20888786 1.1623303 3170980
0.054490268 -0.20727012 1.1623013 3171236
-0.047521658 -0.19768351 1.1623183 2842012
-0.040826462 -0.19997764 1.1637925 2842011
-0.03122673 -0.20229086 1.1648154 2842012
-0.02294681 -0.20377889 1.1663615 2907805
0.023524016 -0.20549431 1.1663208 3302309
0.029542629 -0.20439377 1.1651562 3302308
0.038195156 -0.20434979 1.1637869 3171236
0.04895822 -0.20501263 1.1622807 3171236
0.059595913 -0.20369267 1.1639169 3105443
0.069430888 -0.20184675 1.1632143 3171492
0.075991958 -0.20002352 1.1621829 3040420
-0.068524942 -0.18644249 1.162207 2841497
-0.059767261 -0.18924598 1.1627635 2907291
-0.051345557 -0.19193858 1.1641347 2907549
-0.044676155 -0.19314411 1.1662586 2907551
0.072586857 -0.19470346 1.1661217 3040420
0.079613805 -0.19293451 1.1641955 3106213
0.087450147 -0.19041404 1.1620486 3106214
-0.069980718 -0.17992109 1.1641283 2907290
-0.063411757 -0.18282752 1.1656557 2973340
0.083781838 -0.18587528 1.1659974 3302823
0.089840792 -0.18356244 1.1635605 3237030
0.096004672 -0.18019657 1.1636884 3237031
-0.087247521 -0.16634165 1.1619829 2841497
-0.078873888 -0.16987294 1.1625489 2842012
-0.072766252 -0.17212099 1.1650354 2907547
0.1012423 -0.1725595 1.162732 3368361
0.10634798 -0.16935493 1.1617624 3237285
-0.088685706 -0.16041447 1.1619114 2973085
-0.081902884 -0.16065261 1.1646423 3039135
0.10360124 -0.16545266 1.1617177 3368615
0.11014987 -0.16215906 1.1623955 3237799
0.11474248 -0.15887351 1.1616213 3303337
-0.095992357 -0.1474198 1.1617601 2973857
-0.090585873 -0.15096803 1.1633525 3039137
-0.084655598 -0.15185991 1.1658002 3104930
0.11219279 -0.15465781 1.1635725 3172264
0.11843397 -0.15182742 1.1621958 3238059
-0.097125389 -0.13919754 1.1626598 3039650
-0.09316536 -0.14278308 1.1656991 3105700
0.12174246 -0.14208883 1.163558 3369132
0.12595314 -0.14230964 1.1614012 3434410
-0.099821173 -0.13060714 1.1632712 3171236
0.12369204 -0.13396758 1.164501 3500719
0.1270787 -0.13170205 1.1632683 3435183
-0.10688676 -0.11849776 1.1614162 3302823
-0.1022458 -0.12047654 1.1641014 3171495
0.12791061 -0.12161308 1.1629603 3566514
-0.10857157 -0.10983303 1.1627656 3368873
-0.10489812 -0.11101347 1.164521 3368875
0.13068885 -0.11245233 1.1618248 3697588
-0.10941101 -0.10074629 1.1638664 3303850
0.13232674 -0.10283184 1.1643322 3763892
0.13555214 -0.10221388 1.1608914 3698099
-0.11068516 -0.090545423 1.1626749 3435181
-0.10482989 -0.091045834 1.1650734 3435438
0.13341747 -0.092706084 1.1647767 3829942
0.13626422 -0.092212543 1.1619095 3764149
-0.1095813 -0.080875203 1.1629536 3501229
0.13351035 -0.079347432 1.164611 3896505
0.13788332 -0.082287416 1.1624596 3830455
-0.1089151 -0.071024917 1.1623691 3632563
-0.10466735 -0.0676682 1.1647835 3567542
0.13119744 -0.07220494 1.161954 4027837
0.13640143 -0.075814523 1.1605631 3896505
-0.10808644 -0.060975045 1.1620383 3829940
-0.1046209 -0.06098887 1.1647007 3699127
0.12976433 -0.062566362 1.1630746 4291009
-0.10759806 -0.050844349 1.1613787 3895737
-0.10390843 -0.050020128 1.1645638 4027576
0.13012943 -0.052538656 1.1622832 4422849
-0.10636993 -0.044167176 1.1604943 4158911
-0.10185385 -0.040474806 1.1624427 4093372
0.1301403 -0.042800922 1.1616625 4817355
-0.098040685 -0.031108372 1.16186 4093630
-0.093255639 -0.027669825 1.1642727 4094397
0.12276329 -0.031993158 1.1622607 5080014
0.12725228 -0.035255276 1.1600727 4883149
-0.095870644 -0.023530319 1.1602246 4028348
-0.091345087 -0.020985924 1.1616871 4028864
0.11833757 -0.022324525 1.1617022 4949202
-0.087715246 -0.011414886 1.1618818 4029123
-0.083477981 -0.0091833845 1.1640306 3963586
0.11232221 -0.012407124 1.1624763 5146069
0.11572986 -0.0168688 1.1598601 5080276
-0.086855821 -0.0036227554 1.1599659 5342665
-0.079713188 -0.0014737844 1.1639299 4882633
-0.016228575 0.0018518195 1.1638042 6070261
-0.0095487405 0.0018052757 1.1637958 6528744
-0.0028689075 0.0017587245 1.1637876 8827627
0.012717369 0.0016501099 1.1637682 10340848
0.021460345 0.00095302612 1.1637651 8895736
0.02896234 0.00020097941 1.1637645 6266608
0.10335705 0.00044944137 1.1626623 5475287
0.10781232 -0.0031200349 1.1610337 5475028
-0.076200947 0.0044676811 1.1618515 5999306
-0.069532447 0.0055306777 1.1618295 5540557
-0.060941793 0.0087973028 1.1611109 5803727
-0.048208535 0.010486089 1.1637398 4950220
-0.039253704 0.0092991889 1.1637425 5016280
-0.029532833 0.0086154044 1.1633381 5411294
-0.019487364 0.0085090324 1.1614859 5806569
-0.0094962753 0.0084725395 1.1631131 7120874
9.8494813e-005 0.0091598779 1.1636919 12379901
0.010686275 0.008530505 1.161159 13891069
0.020499518 0.0082151368 1.1604762 12969723
0.030457582 0.0083937272 1.161345 9946095
0.040528536 0.0080969855 1.161738 10013177
0.050277956 0.0099065527 1.1614618 7449069
0.056950733 0.011732429 1.1635842 5411552
0.10047121 0.0043397918 1.1611178 6526426
-0.046194933 0.015419945 1.1636759 6264275
-0.038597874 0.016139537 1.1611568 5803990
-0.029018028 0.016684212 1.1596372 5345755
-0.019002037 0.017876156 1.1596091 5412839
-0.0094067026 0.018408567 1.1600897 5676266
-0.00037216768 0.017453551 1.1624467 7253489
0.0094567779 0.017180525 1.1605798 8436213
0.019419683 0.01486738 1.1595951 12051453
0.033873983 0.01920452 1.1595222 10082302
0.041709282 0.01841028 1.1595216 10607102
0.050188415 0.017505892 1.1595215 7515119
0.057224654 0.016859718 1.1608535 6068200
-0.0071465131 0.023928232 1.1595182 6001365
-0.0027085282 0.023897305 1.1595128 6396124
0.10983449 0.028882265 1.159301 6447199
-0.0076865256 -0.20816992 1.170396 3039391
-0.00013716891 -0.20763183 1.1718793 3039135
0.011304428 -0.20830226 1.1703722 3104930
-0.036653847 -0.19679724 1.1702936 2776478
-0.030280663 -0.19771251 1.1722965 2842271
-0.02038605 -0.19939381 1.1744862 2907807
-0.011170954 -0.20131096 1.1750115 2908063
-0.0011564214 -0.20221677 1.1761138 2973600
0.0091710519 -0.20131209 1.1756222 3105187
0.019100856 -0.20104155 1.1746861 3236773
0.028814659 -0.19977832 1.1739769 3237029
0.039761975 -0.1999394 1.174031 3171237
0.049404263 -0.20098481 1.1717309 3171236
0.058935165 -0.19949883 1.1711229 3105444
0.067792512 -0.19808361 1.1701704 3171493
-0.048782274 -0.18780302 1.1733985 2841758
-0.040697247 -0.19015676 1.174217 2907551
-0.031790592 -0.19129041 1.177043 2842271
-0.021111054 -0.19253892 1.1782207 2908064
-0.014370469 -0.19371061 1.1782262 2973857
0.006999474 -0.19385953 1.1781996 3105444
0.019878378 -0.19294953 1.1781713 3237030
0.029924944 -0.19344524 1.1773639 3302823
0.039592199 -0.19273275 1.1772192 3171495
0.048963644 -0.19139454 1.1767218 3105703
0.058671832 -0.19172341 1.1765043 3105703
0.068480112 -0.19131708 1.1745859 3105702
0.076828137 -0.18890546 1.171759 3105958
-0.060010381 -0.18004617 1.1717643 2973598
-0.052020937 -0.18176877 1.1761283 2907551
-0.04213921 -0.18367596 1.1781389 2908065
0.070323527 -0.18288076 1.1779792 3237288
0.079145871 -0.18225884 1.1755152 3302823
0.087820366 -0.18031353 1.1724951 3237287
-0.069335274 -0.16869809 1.1728462 3105183
-0.061891124 -0.17208369 1.176139 2974112
-0.05360321 -0.17431727 1.1780382 2842786
0.080688439 -0.17547804 1.1778737 3171750
0.089341819 -0.17194486 1.1764849 3172008
0.097414866 -0.17029938 1.1721201 3303081
-0.077396154 -0.15898669 1.1705459 3104930
-0.071177475 -0.16127679 1.1765666 3170978
0.091890357 -0.16360211 1.1777116 3303337
0.099676259 -0.16216448 1.1754332 3368873
0.1066231 -0.1609461 1.172204 3237543
-0.087138623 -0.14610642 1.1723994 3040164
-0.080440044 -0.14989598 1.1735604 3105701
-0.074085191 -0.15430479 1.1778175 3302822
0.10131501 -0.15312771 1.1775693 3303597
0.10872955 -0.15080608 1.1731666 3238059
0.1158223 -0.1478176 1.1714836 3303852
-0.089534841 -0.13974145 1.173435 3106213
-0.081777915 -0.14178573 1.1776726 3172007
0.10969827 -0.14169188 1.1772163 3369387
0.11763352 -0.14155489 1.1734037 3435181
-0.096620493 -0.12948506 1.1708727 3237030
-0.090046093 -0.1301509 1.1752058 3237800
-0.083689511 -0.13361831 1.1775739 3303594
0.11155959 -0.13565373 1.1773391 3500972
0.11999457 -0.13147449 1.1740258 3500976
0.12469225 -0.12866236 1.1692343 3500977
-0.097693197 -0.12019844 1.172537 3237545
-0.093035877 -0.12184661 1.1765515 3303852
0.12185311 -0.12192912 1.1771553 3566772
0.12516792 -0.12233259 1.1731554 3566515
-0.10013785 -0.11047035 1.1725585 3369389
0.12277633 -0.11240235 1.1770359 3763639
0.12614 -0.11155074 1.1721317 3763639
-0.10682899 -0.096610554 1.1704788 3435181
-0.10147784 -0.10029511 1.1737558 3435438
0.12349612 -0.10132101 1.1768976 3895737
0.12847482 -0.10129984 1.1717139 3764149
-0.10628222 -0.090124778 1.1714646 3435438
-0.10090964 -0.090743288 1.1755269 3501231
0.12353522 -0.095697768 1.1768279 3961530
0.12893499 -0.091819182 1.1715958 3961528
0.13614301 -0.088527128 1.1687217 3895735
-0.10593568 -0.08086852 1.1719494 3501489
-0.10166238 -0.080640465 1.1748235 3501490
0.12366033 -0.077703394 1.1766047 4159679
0.12933262 -0.082477756 1.1719288 3962041
0.13615856 -0.086293072 1.1686939 3895735
-0.10635502 -0.073536962 1.170859 3501747
-0.10152068 -0.070347592 1.1734799 3567541
0.12295482 -0.071325161 1.1765267 4225473
0.12663954 -0.07190264 1.1725285 4159424
-0.099677429 -0.060222249 1.1722852 3764919
0.12276658 -0.062451195 1.176417 4422597
0.12670968 -0.061815087 1.1724035 4357059
-0.099117078 -0.050456196 1.1719921 3896505
-0.094358183 -0.050315946 1.1765558 3962298
0.12271546 -0.051828645 1.1762854 4685767
0.12677982 -0.051727533 1.1722783 4422851
-0.097594857 -0.041363902 1.1700486 4027836
-0.092561491 -0.039568797 1.1753292 4028094
0.12091132 -0.041249115 1.1740389 4948684
0.12679055 -0.043246683 1.169173 4751818
-0.095844083 -0.033290453 1.1683462 4093632
-0.090240747 -0.029807366 1.1741421 4094399
0.11423846 -0.030775122 1.1760358 5080784
0.11853743 -0.031931713 1.171244 5211343
-0.086935565 -0.021406583 1.1725509 4094402
-0.080382444 -0.018355832 1.175141 4226244
-0.073878385 -0.016717583 1.1761122 4620744
-0.019883336 -0.015969142 1.1760309 5412064
0.002611341 -0.016125895 1.1760029 6463211
0.01065628 -0.020019196 1.1760404 6397929
0.020348072 -0.019446023 1.1760204 6397929
0.029596018 -0.017599322 1.1759852 6003432
0.11129563 -0.021507017 1.1734246 5081042
0.11647766 -0.024716288 1.1679571 5081041
-0.078975022 -0.010617688 1.1699095 4160963
-0.070884816 -0.0096724331 1.1751636 4752075
-0.055812255 -0.0067211464 1.1759641 4949201
-0.049067765 -0.0073304996 1.1759627 5016022
-0.039495245 -0.0085250959 1.1752981 5213659
-0.029671798 -0.0095046535 1.1747329 5411552
-0.019830784 -0.01034981 1.1751611 5740773
-0.0097216349 -0.010416441 1.1759486 6003172
0.00039931946 -0.01048889 1.1755359 6331366
0.010494066 -0.010565944 1.1729232 6989552
0.020596413 -0.010635577 1.1733106 6792432
0.030681822 -0.010706387 1.1726481 5937640
0.039179072 -0.0098228455 1.174876 5806054
0.049904898 -0.0085825622 1.1758465 5674725
0.056661122 -0.0075049326 1.175824 5674983
0.10247644 -0.010354787 1.1757984 5146841
0.10847253 -0.012529381 1.1701026 5080789
-0.075518548 -0.0021537319 1.1679332 4554184
-0.072061986 -0.0013142452 1.1709183 4751049
-0.05680342 -0.0011155233 1.1738958 4818129
-0.049361795 -0.0011750162 1.1730866 5015507
-0.039825894 -0.0012699142 1.1696748 5147609
-0.029719843 -0.0013520047 1.1683623 5346018
-0.020078419 -0.0017690584 1.1709659 5937898
-0.0096342657 -0.002585493 1.1711843 6462952
0.00082599651 -0.0019217208 1.1702732 8303605
0.010197842 -0.0021026358 1.169247 8501495
0.020047288 -0.0031593069 1.1684338 7252467
0.03136104 -0.0026850253 1.169252 6069484
0.040518023 -0.0016505867 1.1700883 6135528
0.050631598 -0.0020663887 1.1731763 5741031
0.060024522 -0.0019162893 1.1747502 5543655
0.06951391 -0.00067324191 1.1757222 5477092
0.079588063 0.00058312714 1.1756933 5739747
0.090958625 0.00025395304 1.1756822 5280481
0.10015578 -0.0024810657 1.1720113 5015513
0.10562793 -0.0045197904 1.1697214 4949463
-0.068769254 0.0045017451 1.1678417 4818122
-0.059328929 0.0054289028 1.1678176 5147606
-0.050635077 0.0061130375 1.1677976 4818639
-0.041958503 0.0043149069 1.1678083 5344472
0.002729984 0.0045620278 1.1677457 12971007
0.007194561 0.0039723739 1.1677471 12905215
0.031771086 0.0038011074 1.1677165 5807584
0.045176469 0.003707692 1.1676998 6004710
0.051247463 0.0046228915 1.1676804 5807083
0.060059316 0.0070637763 1.1697718 5477863
0.068563581 0.0066005215 1.1722997 5542628
0.080358736 0.0035769641 1.1756551 5673698
0.090939142 0.0054433346 1.1741178 5804766
0.096563756 0.0033495948 1.1676358 5147865
0.06312798 0.014753439 1.167539 5412324
-0.0076598953 -0.19662762 1.1822537 3039650
-0.0012155622 -0.19731736 1.1822537 3039650
-0.02791875 -0.18858686 1.1821811 2842271
-0.021147495 -0.18863405 1.1821727 2973857
-0.010828339 -0.1897817 1.1834364 2973857
-0.0010869093 -0.19158667 1.184709 3039395
0.0095852446 -0.18973583 1.1839232 3171237
0.018900402 -0.18839142 1.1831831 3237030
0.029250404 -0.18790725 1.1836351 3302569
0.037588086 -0.18810908 1.1834214 3237546
-0.047514796 -0.17797126 1.1820756 2908065
-0.039944157 -0.17899132 1.1820782 2973857
-0.031273179 -0.18080311 1.1830891 2973857
-0.021538628 -0.18275812 1.1842182 2973858
-0.013249377 -0.18362164 1.1861002 3105444
0.018456496 -0.18384258 1.1860608 3237030
0.030167971 -0.18241443 1.1860275 3302825
0.039102271 -0.18202537 1.185703 3171754
0.048953608 -0.18263331 1.184005 3171752
0.05929926 -0.18228924 1.1833987 3171753
0.067758009 -0.17923568 1.1829379 3237546
0.07599353 -0.17689735 1.1818978 3303592
-0.05862698 -0.16843581 1.1819723 2908579
-0.050445795 -0.17063791 1.1839888 2908579
-0.04062029 -0.17216502 1.1849037 3105444
-0.031980298 -0.17397961 1.1860057 3105443
0.062681228 -0.17509219 1.1858934 3303339
0.070728555 -0.17289144 1.184522 3303082
0.079137065 -0.17086759 1.1823903 3237545
0.085084654 -0.1679326 1.1817746 3303850
-0.06757687 -0.15708832 1.1818435 3302822
-0.060991451 -0.16141167 1.1841385 3040165
-0.05388809 -0.16522129 1.1859263 3040167
0.074067734 -0.16611296 1.1857669 3303598
0.080156855 -0.16217211 1.1847688 3238061
0.088733159 -0.16019364 1.182785 3303596
0.09644071 -0.15785512 1.1816345 3369131
-0.077284329 -0.14648789 1.1817251 3171751
-0.070882224 -0.15014797 1.1831738 3368615
-0.064000547 -0.15382761 1.1857986 3171751
0.098303124 -0.15127461 1.1830506 3369134
-0.079210244 -0.13942125 1.1816401 3369130
-0.073101059 -0.14138661 1.1846565 3434922
0.099498272 -0.1415987 1.1844769 3435183
-0.080873974 -0.13079497 1.1828688 3434923
0.10230001 -0.13452168 1.1845379 3501232
0.1090814 -0.1314442 1.1838789 3435694
0.11582209 -0.12977737 1.1812608 3501232
-0.089019425 -0.11959909 1.1824076 3369646
-0.083324865 -0.12337203 1.1841135 3435182
0.11287477 -0.12222286 1.1851714 3567282
0.11698095 -0.12174393 1.182978 3567027
-0.097323492 -0.10685032 1.1812606 3501231
-0.092762254 -0.11077851 1.1840534 3435439
0.11292988 -0.114297 1.1850731 3829686
0.11805149 -0.11154208 1.1832542 3829431
-0.097299956 -0.10346495 1.1812186 3501231
-0.092888646 -0.10023487 1.1828395 3567024
0.12042475 -0.10217339 1.1835794 3830201
-0.097201876 -0.089359231 1.1810436 3632818
-0.093974769 -0.090077356 1.1830484 3698612
0.12261524 -0.091586687 1.1827786 3896507
-0.097135186 -0.079767346 1.1809247 3633333
-0.09328796 -0.079955228 1.1837221 3764919
0.12252108 -0.081384197 1.1821523 4093886
-0.097525395 -0.070962228 1.1808161 3633334
-0.093476839 -0.070017278 1.1839992 3830201
0.11958526 -0.07173042 1.1827588 4291523
-0.092983894 -0.059738081 1.1823378 3896506
0.11916769 -0.061251111 1.1820072 4619975
-0.089637294 -0.050210226 1.1822628 4028348
0.11337863 -0.049757805 1.1842726 5146320
0.11779032 -0.052021783 1.1832948 4883148
-0.087855957 -0.040825613 1.1807154 3962814
-0.082862519 -0.039469548 1.1832637 3963072
0.11244589 -0.040942989 1.1826646 5146577
0.11619518 -0.042616218 1.1806802 5080527
-0.086418331 -0.031767406 1.1803156 4028607
-0.080224708 -0.030037403 1.1824194 4291526
-0.030288441 -0.028374858 1.1841991 5147865
-0.022813341 -0.028200485 1.1841869 5344731
-0.0065011643 -0.027408302 1.1841553 5345501
0.0002929531 -0.02745565 1.1841469 5739743
0.010455405 -0.029774629 1.1828287 5936862
0.019510804 -0.029841848 1.1831508 5871068
0.029726246 -0.028793067 1.1841242 5739228
0.047851764 -0.027787067 1.1840876 5213656
0.11063112 -0.032050095 1.1824567 4949970
-0.078398153 -0.022625916 1.1801916 4422856
-0.069930337 -0.017900139 1.1819401 4686797
-0.059552379 -0.016842045 1.1820949 4884690
-0.049164213 -0.018334098 1.1835997 4950486
-0.038715303 -0.019176275 1.1827629 5213659
-0.030156424 -0.020430557 1.1809002 5279707
-0.020003101 -0.02163361 1.1813016 5345244
-0.0098268539 -0.020073414 1.1811799 5411808
2.4393201e-005 -0.021258317 1.1809794 5806052
0.0093375836 -0.024459869 1.1800975 6068964
0.021372762 -0.024919905 1.1800872 6068963
0.031427361 -0.022597916 1.1809682 6003173
0.039897099 -0.020927645 1.1818131 5608417
0.050098076 -0.021000594 1.1824005 5411038
0.056957819 -0.021056592 1.1839921 5279709
0.10166001 -0.01962287 1.1829917 5212630
0.10727867 -0.023274206 1.1812857 5015248
-0.06619373 -0.012272231 1.180047 4949712
-0.059422471 -0.012319416 1.1800386 4949713
-0.049265578 -0.012390196 1.1800259 5016279
-0.039863676 -0.012831882 1.1800189 5213659
-0.031216739 -0.013644479 1.1800175 5345501
0.041578218 -0.013587505 1.1799198 5871590
0.05004622 -0.013082266 1.1799023 5871847
0.06032142 -0.010896526 1.1818616 5543139
0.067615055 -0.0098147541 1.1821243 5280225
0.092139482 -0.0099785477 1.183808 5411294
0.097987838 -0.01146429 1.181273 5279196
0.069854572 -0.0047564581 1.1797727 5411556
0.079458974 -0.0031306148 1.1797397 5412066
0.090744406 -0.0032092631 1.1797256 5477344
0.097499959 -0.0055133626 1.1797453 5213404
-5.3504482e-005 -0.18693969 1.1901242 3105189
-0.020363836 -0.17832056 1.1910444 3039906
-0.010677295 -0.18051717 1.1914874 3039908
-0.0011484344 -0.18172094 1.1933945 3105447
0.0094625717 -0.1810502 1.1907886 3105702
0.01855384 -0.17987385 1.1900119 3171750
0.027542723 -0.17952338 1.1899955 3237289
0.039020553 -0.17774424 1.1899582 3237548
0.049246013 -0.1778155 1.1899455 3171752
0.058335312 -0.17787883 1.1899341 3171752
-0.047936782 -0.16668585 1.189937 3039909
-0.040091231 -0.16746072 1.1908251 3105701
-0.031951174 -0.17014658 1.1925042 3105443
-0.022387585 -0.1755887 1.1940135 3040163
0.008397989 -0.17489126 1.1939639 3105960
0.019805454 -0.17385614 1.1939359 3105958
0.028912574 -0.17241818 1.1931058 3237545
0.039316569 -0.17144331 1.1919851 3237547
0.049361005 -0.17120668 1.1914635 3237544
0.059426732 -0.17104855 1.1915324 3237545
