# .PCD v0.7 - Point Cloud Data file format
VERSION 0.7
FIELDS x y z rgba
SIZE 4 4 4 4
TYPE F F F U
COUNT 1 1 1 1
WIDTH 1132
HEIGHT 1
VIEWPOINT 0 0 0 1 0 0 0
POINTS 1132
DATA ascii
-0.051992558 0.035985701 1.0301105 6582396
0.030573722 0.044101723 1.0281087 5859705
0.036052383 0.042965509 1.0265685 5728122
-0.04782223 0.039925955 1.0324119 6713719
-0.041515186 0.041666128 1.0334929 6450807
-0.033496652 0.042962365 1.0314293 6122104
-0.021906614 0.045480572 1.0308372 6122617
-0.0097442083 0.047594555 1.0306309 6057083
-0.003409123 0.048261203 1.0312393 6057334
-0.098149426 0.0038742945 1.0414001 7832202
0.063687302 0.039460309 1.0331324 5792617
0.066635191 0.039848067 1.0329809 5724767
-0.058980681 0.037336968 1.0394903 7764863
-0.039843671 0.043857746 1.0385212 6384242
-0.031000003 0.04502102 1.0380665 6121843
0.15845484 -0.058810417 1.0468798 13950701
0.1614565 -0.058415588 1.0467255 13160147
0.16006219 -0.055541608 1.0468084 13423577
0.16114438 -0.068293825 1.0537149 12898285
0.16519585 -0.068742126 1.0530022 12832198
0.15884078 -0.06256745 1.0519958 10136266
0.16560817 -0.062160924 1.0517533 13159885
0.15844208 -0.056297351 1.0533984 12175571
0.163414 -0.054533549 1.0496421 13093836
-0.13765466 -0.12821853 1.0808166 1720740
-0.13932484 -0.12148101 1.0807159 3628972
-0.14107442 -0.11551242 1.0822423 4745397
0.16118601 -0.070180796 1.0627179 6256041
0.16604644 -0.072249189 1.0626584 12767188
0.15837654 -0.061409749 1.0648986 7312841
-0.13187367 -0.15198784 1.0916445 2903988
-0.12878713 -0.15158185 1.0914859 1324707
-0.13492233 -0.14024609 1.0910947 2904505
-0.13482919 -0.13138461 1.0897707 2644141
0.16454917 -0.089942038 1.0764898 5801403
0.16898391 -0.089708015 1.0762606 11779799
-0.13606006 -0.12033634 1.0879725 3039906
0.16248086 -0.08102829 1.0756285 3630254
0.16871703 -0.081029058 1.0747159 11516624
0.17581561 -0.080076545 1.0759414 13685195
-0.13957813 -0.11178032 1.0905533 2708908
0.16111943 -0.072656974 1.0748537 3762605
0.16626146 -0.075791255 1.0734488 10465738
0.16017795 -0.065867379 1.0707968 6721740
-0.13943118 -0.094297215 1.0922484 1588628
-0.13634464 -0.093891218 1.0920898 3826867
-0.12307721 -0.16638993 1.0971433 3694011
-0.12895539 -0.16055579 1.095467 7178192
-0.12374129 -0.15962824 1.0963552 2114980
-0.13065189 -0.14920934 1.0955967 1063065
-0.1258024 -0.151425 1.0962381 2447769
-0.1311692 -0.14165194 1.0956513 2578847
-0.12859398 -0.14089584 1.0985245 2907546
0.16604739 -0.10090014 1.0818793 6851775
0.17144173 -0.099705763 1.0801017 13029078
-0.13175866 -0.13155881 1.0964699 3104917
-0.13022384 -0.12845425 1.0986547 3170462
0.16326702 -0.090381578 1.0820621 3040417
0.17324653 -0.092406377 1.0800349 13422807
0.17573151 -0.088924162 1.0799186 13619661
-0.13545179 -0.11941455 1.0967062 3104162
0.16094169 -0.082397208 1.0815684 2973607
-0.13586095 -0.11107451 1.0970082 3169952
0.16015133 -0.072329357 1.0837921 2843043
-0.13894239 -0.10171047 1.0963593 3301299
-0.11593819 -0.17756331 1.1067454 4750553
-0.11193714 -0.1793029 1.1085341 1196192
-0.11904297 -0.17061076 1.1037276 3036848
-0.11461755 -0.17237641 1.1086986 1789334
0.16608331 -0.13135356 1.0917792 12898004
-0.11934432 -0.1596778 1.1052074 2776475
0.16533777 -0.12226302 1.0907497 9087435
0.17031169 -0.11689257 1.0871067 13488846
-0.12297594 -0.14932297 1.1052114 3038106
0.16375756 -0.11171889 1.089869 4354994
0.17114627 -0.10873813 1.0870934 13752800
-0.12601778 -0.13994579 1.1068501 2973083
0.16250783 -0.10203727 1.0908784 2121388
-0.13279796 -0.12712502 1.1027985 3301280
-0.12861758 -0.1316075 1.1062064 3039132
0.16207111 -0.093941651 1.0887868 2646946
0.17755631 -0.086632542 1.0898459 13817039
-0.13361585 -0.12088156 1.1028639 3366820
-0.13077542 -0.12103101 1.1077228 3105183
0.15905106 -0.082022876 1.0925254 3631271
0.17832497 -0.084408656 1.0898142 13817037
-0.13506988 -0.10978208 1.10298 3499424
-0.13207504 -0.110456 1.1066273 3302563
0.15734896 -0.071899332 1.0918911 3369127
-0.13328853 -0.10102914 1.1064245 3434147
0.15805078 -0.062150478 1.0928596 2908578
0.16330865 -0.058787774 1.0906874 8233160
-0.1394625 -0.090564407 1.1041368 3365295
-0.13388139 -0.091083638 1.1068383 3499689
0.15757722 -0.05254988 1.0926571 4024485
0.16221517 -0.050440498 1.0907748 11192030
-0.13898593 -0.081569001 1.1062908 2181536
-0.13376585 -0.080751806 1.1072246 3433908
0.15622848 -0.047270253 1.0951025 2708114
-0.13824517 -0.07322216 1.1102885 8233201
-0.13439932 -0.073826805 1.1083701 3564980
-0.015897874 0.116271 1.1006294 9935247
-0.01035824 0.11790941 1.100348 9934992
-0.10476489 -0.18743998 1.116836 929696
-0.10045633 -0.18725386 1.1189239 1984411
0.15881118 -0.14884695 1.1056106 13424882
-0.10712833 -0.17808194 1.1146976 2512540
-0.10213513 -0.17937431 1.1177047 2906513
0.15922594 -0.14279291 1.1031635 8955594
0.16446686 -0.14071126 1.0993389 14080986
-0.11600996 -0.1650524 1.1158072 2381461
-0.11215348 -0.16979119 1.1175297 2776212
0.15813228 -0.13324045 1.1020181 3697834
-0.11717845 -0.15924287 1.1167235 2841752
-0.1143432 -0.16326138 1.1197326 2906774
0.15870512 -0.12316833 1.102506 2646183
-0.12036767 -0.149021 1.1179518 2907034
-0.11572862 -0.15268566 1.1198432 2775704
0.15819904 -0.11443692 1.1036658 3696546
0.15961483 -0.10966954 1.1030424 3761571
-0.12267738 -0.13977727 1.1166909 2973083
0.16045019 -0.10340014 1.1023545 3368880
-0.12511498 -0.1297964 1.1163088 3039134
0.15921548 -0.091850631 1.1020665 3500454
-0.12666321 -0.11945756 1.1161268 3171232
0.1571109 -0.083627112 1.1032202 3631529
-0.12839031 -0.1108332 1.1155471 3302564
0.15404755 -0.073502705 1.0991248 3697839
0.15464872 -0.073708653 1.1020969 3763633
-0.12981179 -0.10038336 1.1164602 3368355
0.15373245 -0.062474329 1.1018996 3436468
0.16744983 -0.057017446 1.101494 10992842
-0.12884864 -0.08974997 1.1164492 3697068
0.15015143 -0.049936924 1.1064229 3765679
0.15339604 -0.051980942 1.1014224 3830452
0.16654685 -0.052848399 1.1015561 11387079
-0.12888506 -0.081889339 1.114277 3631022
-0.12717307 -0.078421906 1.1137003 3500456
0.14847344 -0.043151546 1.1036421 3830449
0.1550597 -0.042756788 1.1008189 5207985
0.16185749 -0.042924754 1.104506 10334913
-0.13057476 -0.070006579 1.1164826 3434161
0.14644858 -0.034407508 1.103525 3893939
0.15349486 -0.033960253 1.1023583 8428221
-0.13194573 -0.060108431 1.1201663 6194370
-0.12766939 -0.0574346 1.1208124 4421311
0.1428999 -0.022968695 1.1058059 5734064
0.14967468 -0.025794208 1.1065363 10203587
-0.12721503 -0.050651103 1.1208137 6852289
0.14055091 -0.017283231 1.1038367 8955077
-0.0051811747 0.094227754 1.1150126 9737616
-0.069174238 -0.21992901 1.1255254 7635861
-0.065620542 -0.21998641 1.128011 8100012
-0.080482684 -0.21143985 1.1288135 10535920
-0.073298335 -0.2131698 1.1260782 5996227
-0.066086888 -0.21642655 1.1280482 6394567
-0.092241742 -0.20177308 1.1214484 8431615
-0.084850013 -0.20329469 1.1238322 1526185
-0.078204811 -0.20487696 1.127575 1262491
0.14303985 -0.17298497 1.1173553 11717846
-0.10182518 -0.19440424 1.1219728 7571711
-0.094534338 -0.19575003 1.1231471 1917611
-0.08710143 -0.19735458 1.1265384 2379673
-0.079888508 -0.19941171 1.1288269 2644619
0.14372158 -0.16596326 1.1173457 5010097
0.15040663 -0.16206071 1.1138661 10599906
0.15723845 -0.15993224 1.1126611 14081762
-0.095608406 -0.18701287 1.1258935 2709143
0.14337745 -0.15531734 1.1174027 2909858
0.14970323 -0.15396607 1.113256 4026283
0.15706068 -0.15315366 1.1091903 12307424
-0.10446454 -0.17425653 1.1221837 2775446
-0.099426515 -0.17787415 1.124822 2775442
0.14982229 -0.14493467 1.1141022 3105445
0.15435177 -0.1434482 1.1088659 2578854
-0.10730072 -0.16739106 1.1245128 2775449
-0.102579 -0.16924371 1.1287799 2906778
0.1509293 -0.13491917 1.1154835 3564451
0.15391555 -0.13349816 1.1113284 3433893
-0.11218414 -0.15929288 1.1259377 2840984
0.15143132 -0.12661605 1.11709 3565217
0.15462491 -0.12400511 1.1115934 3499430
-0.11866646 -0.14807898 1.1230167 2841497
-0.11517046 -0.14947534 1.1288383 2907290
0.1556201 -0.11318505 1.1139179 3237547
-0.11998983 -0.13873233 1.1247219 2973083
-0.1169929 -0.13887064 1.1289718 3038877
0.15748563 -0.10318295 1.1150413 3827369
0.1596632 -0.10175975 1.1087432 3564710
-0.12226713 -0.12899058 1.1261346 3039391
-0.11920664 -0.13055861 1.1297847 3170977
0.15643203 -0.0931447 1.1149507 3565735
0.1585519 -0.093276508 1.108832 3500198
-0.1233451 -0.12089256 1.128366 3170977
0.15549111 -0.084165558 1.1143649 3631790
0.15692049 -0.085698582 1.1169553 3434923
-0.12492112 -0.11044548 1.1274848 3302823
0.15367931 -0.072854891 1.1146673 3566513
-0.12625861 -0.10052003 1.1262555 3368614
0.15158296 -0.063795254 1.1148479 3632560
-0.12669161 -0.0928187 1.1276413 3565995
0.14900964 -0.053864792 1.1137443 3895728
-0.12565663 -0.077521473 1.129246 3697842
0.14532462 -0.044291195 1.112502 4158132
-0.12515354 -0.069067016 1.1280129 3502262
0.14288118 -0.033865288 1.1138687 4027837
-0.12379994 -0.05928668 1.1273918 3698611
0.13679415 -0.023164205 1.1182293 4619197
0.14265877 -0.025461048 1.1123705 4946612
-0.13102978 -0.05370285 1.1240046 7180220
-0.12353263 -0.049768217 1.1308397 4815032
0.13583346 -0.016746193 1.1176351 5209534
0.13990429 -0.014366202 1.1100893 8425655
-0.0033955984 0.090370066 1.1179099 9474444
-0.040673036 -0.22672769 1.133701 8300241
-0.059963152 -0.22096178 1.1310819 7642055
-0.052347451 -0.22064543 1.1328272 4815810
-0.045128629 -0.22319129 1.1339452 5210825
-0.070578992 -0.21033859 1.1313077 932767
-0.063142858 -0.21285161 1.1325991 2382238
-0.054094151 -0.21475144 1.1344415 2251168
0.12720531 -0.18762428 1.1251328 6518691
0.13277829 -0.18584135 1.1234196 11319227
-0.073068656 -0.20388636 1.1333297 2447513
-0.067165829 -0.20663308 1.1351496 2513045
0.13355595 -0.17745009 1.1237864 4617903
0.14038053 -0.1765379 1.1204844 10929103
-0.083886676 -0.19418357 1.133514 2971544
-0.077515118 -0.19714865 1.1337187 2774929
0.13437271 -0.16798902 1.1231639 2909086
0.13898665 -0.16640094 1.1205939 3105187
-0.093136244 -0.18208075 1.1325819 2709911
-0.0877809 -0.18650401 1.1346439 2644371
0.13924737 -0.15647344 1.121233 3368356
-0.096209407 -0.17583236 1.134585 2775444
-0.090708844 -0.17927663 1.1351366 2709910
0.14239343 -0.14611918 1.1220937 3368613
0.14609089 -0.14262533 1.1203125 3499683
-0.10052111 -0.16775265 1.1345198 2841497
0.14333087 -0.13850042 1.1244762 3237027
0.14752379 -0.13518822 1.1216005 3302821
-0.10794757 -0.15702975 1.1340147 2645144
-0.10414076 -0.1582967 1.1363556 2775964
0.14936665 -0.12493539 1.1223922 3237542
0.15290597 -0.12085061 1.1213739 3106215
-0.11080544 -0.14894402 1.135077 2907291
0.14951107 -0.11528733 1.1229056 3499683
0.15224642 -0.11291391 1.1212465 3303338
-0.11302152 -0.13923457 1.1361743 3039134
0.15275642 -0.10428561 1.121521 3499947
-0.12010033 -0.12571913 1.1341881 3236770
-0.11723223 -0.12970367 1.1373624 3236770
0.15312731 -0.093643613 1.1219478 3500458
-0.12094197 -0.11929437 1.1342553 3237027
-0.11897891 -0.11944307 1.1381583 3302821
0.15412492 -0.082878128 1.1224036 3632048
-0.12220445 -0.10965724 1.1343563 3302824
-0.12017544 -0.11030922 1.1382539 3302569
0.15125421 -0.074289508 1.12248 3632047
-0.12381052 -0.10071884 1.1344724 3434408
-0.12116096 -0.098024517 1.1383501 3434665
0.14644098 -0.063777335 1.1224043 4026292
-0.12472939 -0.090382956 1.134558 3631531
-0.12292045 -0.089355111 1.1384733 3631531
0.14543939 -0.055848066 1.1211098 4157366
-0.12557104 -0.083958201 1.1346252 4025255
-0.12299844 -0.078477189 1.1368006 3632304
0.14335364 -0.044227213 1.1208156 4289211
-0.1207693 -0.069108903 1.1361471 3568048
0.1388644 -0.033964284 1.1217538 4094399
0.14181183 -0.038015414 1.1229211 4224702
-0.12034731 -0.062938511 1.1344312 3764911
-0.11737148 -0.058221582 1.1367975 3895729
0.1352798 -0.025950611 1.1227582 4487616
-0.12374584 -0.045156308 1.137677 6458567
-0.11839958 -0.048251837 1.1367873 3895996
0.13372195 -0.015012577 1.1218232 5735616
0.14007452 -0.010891967 1.1211082 9477559
-0.12360772 -0.042442795 1.1386811 6852289
-0.12038825 -0.042019311 1.1385155 5933254
0.031292364 0.080455683 1.1270884 9474701
-0.0022906065 -0.23234534 1.1437049 7248329
0.030399898 -0.22964212 1.1412174 5801654
0.038169846 -0.2274754 1.140288 5210039
0.050990991 -0.22644135 1.1409616 6328255
0.058582325 -0.2254428 1.1405714 7379645
0.070013776 -0.22381639 1.1399841 8430007
0.077449515 -0.22100765 1.1356031 8625323
-0.041294787 -0.22919676 1.1377296 9678537
-0.030237034 -0.22781247 1.1436961 4422071
-0.020826455 -0.22727212 1.1446854 2778029
-0.010923389 -0.22779998 1.1441696 2513574
-0.0030314438 -0.22949713 1.1437538 2315684
0.026705746 -0.22632194 1.1422223 2120102
0.038634986 -0.22475278 1.1416091 2185635
0.051506452 -0.22195509 1.1409514 2186146
0.057071082 -0.22232774 1.1406612 2316696
0.071969241 -0.21815881 1.1399034 4486314
0.079300649 -0.21677518 1.1375253 5997746
0.090000674 -0.21239173 1.1378444 6063288
0.098455243 -0.20981459 1.1385596 6589614
0.10650881 -0.20897615 1.1381447 8757678
-0.04823336 -0.21804324 1.1381307 1855898
-0.041084025 -0.219667 1.1409962 2249885
-0.032966748 -0.22097144 1.1446103 2381985
-0.0246027 -0.22202486 1.1449007 3039902
0.091765128 -0.20506108 1.1389242 2841504
0.097658619 -0.20373356 1.1386232 3302564
0.10676922 -0.20024633 1.1368281 4420011
0.11614105 -0.19812736 1.1319627 6984117
0.12501146 -0.1941579 1.1292281 6254993
-0.060595781 -0.2090677 1.1396062 2710418
-0.05233565 -0.21131068 1.1427552 2775447
-0.045242332 -0.21265557 1.145205 2906776
0.10821655 -0.19210514 1.1377175 3171492
0.11632064 -0.18962431 1.1345022 3237285
0.12419916 -0.18731898 1.1298676 3629215
-0.064150296 -0.20256877 1.1438199 2775191
-0.055508547 -0.20498028 1.1458994 2906012
0.11714295 -0.18024808 1.1360294 3040421
0.12362491 -0.17766255 1.1323119 3105703
0.12935409 -0.17713276 1.1290653 2777257
-0.081407189 -0.19059595 1.1399529 2710677
-0.074019343 -0.19357923 1.1430928 2709909
-0.067265809 -0.19635618 1.1452061 2709910
0.12386261 -0.16921774 1.1359143 3368100
0.13090506 -0.16639459 1.1311604 3302561
-0.083312243 -0.18427879 1.1431903 2710421
-0.077991605 -0.18649834 1.1470004 2644886
0.12496868 -0.16125885 1.1373619 3040936
0.13242237 -0.15713103 1.1349005 3237031
0.13823687 -0.15340978 1.1316954 3368615
-0.094719261 -0.1726023 1.1407098 2776209
-0.088512264 -0.17635541 1.1451303 2841240
0.13344115 -0.14846003 1.1369692 3237287
0.13927883 -0.14539267 1.1315277 3302822
-0.096339181 -0.16615351 1.1453569 2710683
-0.091116697 -0.16881651 1.14788 2841499
0.14055863 -0.13676174 1.134051 3237541
0.14493203 -0.13340829 1.1300194 3237798
-0.099526815 -0.15795024 1.1461629 2907293
0.14122263 -0.12786028 1.136641 3237797
0.14532068 -0.12470371 1.1314331 3303334
-0.10749973 -0.14715952 1.1426108 2907805
-0.10479591 -0.14851759 1.1485308 2907805
0.14605957 -0.11518992 1.1339887 3434407
-0.10912382 -0.13800211 1.1442544 3039392
-0.10610074 -0.13885292 1.149435 3039391
0.14673433 -0.10544514 1.1338623 3500202
0.15018478 -0.10199542 1.12826 3631274
-0.11333667 -0.1293297 1.1463741 3170979
0.14744392 -0.095018759 1.1359936 3631791
0.15042982 -0.093991674 1.1300569 3566510
-0.11501995 -0.11912486 1.1476815 3105957
0.14512274 -0.08410196 1.1349303 3632305
0.15014187 -0.084485069 1.1286602 3501227
-0.11681835 -0.10922579 1.1455224 3237546
0.14344595 -0.0751644 1.1341701 3698099
0.14780545 -0.074920878 1.1288834 3698094
-0.1174551 -0.099480301 1.1458296 3434923
0.14349397 -0.065810442 1.1347481 3895479
0.14566433 -0.067488313 1.1286212 3895477
-0.11840599 -0.089064941 1.1465369 3566256
0.14235136 -0.054575268 1.1361837 4027579
0.1445733 -0.053667255 1.1327339 4157882
-0.11861742 -0.080098584 1.1458236 3567024
0.13906637 -0.0453825 1.1358775 4159422
0.14314324 -0.044947904 1.131238 4289724
-0.11771687 -0.070035852 1.1436146 3567791
-0.11461867 -0.06773369 1.1488029 3764403
0.13599244 -0.035647694 1.1345805 4356797
-0.11437076 -0.058625117 1.14272 3830196
0.13206282 -0.026489921 1.1338834 4619718
-0.11420698 -0.047633179 1.1450926 3896507
0.12649274 -0.01523307 1.1347033 4817095
0.13088393 -0.015203878 1.131249 4948420
-0.12287565 -0.03953262 1.1466646 6916535
-0.11540701 -0.039081804 1.1459706 5210049
0.12493376 -0.0090142339 1.136921 5013440
0.12917577 -0.0080110729 1.1343681 5998788
0.015758149 0.051378362 1.1386596 5859448
0.023769125 0.052529655 1.1363885 6122362
0.029413257 0.05337029 1.1391027 6319482
0.040459231 0.056058861 1.1425449 5330522
0.015677787 0.055869095 1.1371545 5792108
0.023289248 0.057728298 1.1362323 5527648
0.028846223 0.057698794 1.139148 5067354
0.0035490654 -0.23158091 1.1464087 4354997
0.011073443 -0.23164842 1.1480206 4684224
0.020759659 -0.23006204 1.1460552 4289976
0.031304594 -0.22634783 1.1449876 2054307
0.041705307 -0.22553349 1.1444508 2777510
0.047284462 -0.22590712 1.1441599 4026798
0.063594028 -0.22376177 1.1433214 5604271
0.06718567 -0.2216281 1.1431428 4881326
-0.016590532 -0.22378793 1.1474824 3039902
-0.0085737631 -0.22366437 1.1475675 2710943
0.00020531565 -0.22446439 1.1499171 2645152
0.010532104 -0.22602388 1.1527424 2514339
0.020334847 -0.22462437 1.1517048 2514851
0.029750768 -0.22084263 1.1496947 2842787
0.039370414 -0.21912688 1.1469988 2908579
0.048921131 -0.21747738 1.1469988 3039651
0.059164427 -0.21685073 1.1475821 2908578
0.068296812 -0.21476749 1.1468655 2778020
0.077894434 -0.21180497 1.1440537 2646433
0.087651223 -0.21321402 1.1421117 5012145
0.09923432 -0.21298246 1.1415114 8955830
-0.030572917 -0.2171388 1.1485184 2841242
-0.020450998 -0.21791938 1.1500407 2775960
-0.011264781 -0.21801749 1.1514996 2841500
-0.0014735516 -0.21895945 1.1547264 2907551
0.029816393 -0.21410018 1.1531205 3105184
0.038892269 -0.21253464 1.1526554 3170722
0.048745915 -0.21123847 1.1521487 3302053
0.058710229 -0.20937021 1.1516385 3170723
0.068991616 -0.20708847 1.1511134 3105188
0.078040391 -0.20507994 1.1489345 3170467
0.087324545 -0.20360658 1.1445671 3236258
0.096822284 -0.19886503 1.1421335 3171236
-0.048515029 -0.20805234 1.1491967 2906776
-0.041698635 -0.20942317 1.1499825 2907033
-0.033012222 -0.2093128 1.1532276 2841497
-0.023155402 -0.21214658 1.1558766 2775704
0.078396395 -0.19953203 1.150653 3105443
0.087155193 -0.19837992 1.1502028 3105443
0.097295895 -0.19328311 1.1484303 3105956
0.10502435 -0.18933392 1.1445022 3105956
-0.060814328 -0.19859523 1.1498697 2644884
-0.053195328 -0.20122343 1.1524688 2775705
-0.044394858 -0.20299092 1.1546758 2841497
0.099952094 -0.18554485 1.1495857 3172006
0.1071737 -0.18218182 1.148222 3040421
0.11254466 -0.17907912 1.1454513 2974628
-0.070653766 -0.19102953 1.1504081 2645144
-0.063687831 -0.19192874 1.1531063 2710425
-0.058004707 -0.19394185 1.1543187 2776216
0.11486909 -0.17006212 1.1456141 3171493
0.11934642 -0.16719043 1.142238 3237026
-0.074570023 -0.1834856 1.1532308 2710424
-0.067770936 -0.18486109 1.1568354 2710937
0.11707433 -0.16321939 1.1487792 3302823
0.12264938 -0.15833268 1.1453456 3172005
0.12793696 -0.15446073 1.1442422 3172006
-0.084771395 -0.17332081 1.1512057 2841498
-0.079837002 -0.17526549 1.1558722 2907290
0.12439698 -0.15110441 1.1484436 3303592
0.13007566 -0.14693227 1.1468291 3237544
0.13525635 -0.1417945 1.1399034 3303337
-0.087528937 -0.16517153 1.1530954 2973342
-0.082251646 -0.16769248 1.1591064 3038879
0.13269797 -0.13876405 1.1473906 3237544
0.13638774 -0.13517585 1.1426728 3303336
-0.097013719 -0.15475956 1.1529105 2973342
-0.090363488 -0.1571237 1.1570628 2973600
0.13864064 -0.12568836 1.1437924 3368872
-0.099527746 -0.14717411 1.1544236 3039392
-0.093753241 -0.14730009 1.1597781 3236259
0.13879338 -0.11616556 1.1455717 3500460
0.14256379 -0.11314593 1.1396294 3434923
-0.1018418 -0.13775857 1.1551149 3170978
0.13871276 -0.10718018 1.1465268 3500719
0.14286387 -0.10407732 1.1429849 3500718
-0.10994106 -0.12753269 1.1526798 3237029
-0.10567679 -0.12841687 1.1584635 3237286
0.14219168 -0.095261969 1.1458278 3697329
-0.11108205 -0.11882281 1.152771 3237543
-0.108216 -0.11808547 1.1601351 3172263
0.1421884 -0.086067654 1.1453558 3697843
-0.11247816 -0.10931827 1.1558825 3303340
-0.1103035 -0.10800306 1.1607811 3303852
0.14062884 -0.075741768 1.1458751 3764149
-0.11396421 -0.09963619 1.1529911 3500716
-0.11103622 -0.097956628 1.160856 3501229
0.14211181 -0.065005586 1.144407 3764661
-0.11464768 -0.091604464 1.1530559 3566512
-0.11172592 -0.08781451 1.1572877 3632306
0.13782826 -0.055272054 1.1445642 3896764
-0.11237968 -0.078197375 1.157357 3698357
0.13071184 -0.046104688 1.1471661 4291265
0.13437355 -0.046743937 1.1414424 4225217
-0.11197325 -0.069055147 1.1570053 3764408
0.13020484 -0.036479022 1.1465602 4554434
0.13243744 -0.035845827 1.1404384 4488640
-0.11039644 -0.058052093 1.157765 3895997
-0.10656556 -0.054354526 1.160784 4027323
0.12836275 -0.025820568 1.1456935 4817354
-0.11028642 -0.04838568 1.1543233 3962044
-0.10620154 -0.046694286 1.1599922 4093118
0.11768091 -0.014820822 1.1492922 5014224
0.12316938 -0.016812578 1.1449947 4751563
-0.11062061 -0.037915025 1.153044 4290235
-0.10556852 -0.037168697 1.1573241 4158908
-0.099566184 -0.034104075 1.1604952 4028609
0.11502705 -0.0080526024 1.1476747 4817874
0.12133789 -0.0068803877 1.1421221 5145287
-0.10418183 -0.030259028 1.1551412 4487616
-0.098979071 -0.026933417 1.1591558 4356800
0.10462286 0.0032031983 1.1480334 5276623
0.11110087 0.0010564998 1.14397 5604813
0.1204983 0.0010795072 1.1420836 6720449
-0.097735807 -0.019737706 1.1604528 5671109
0.10213299 0.0084737986 1.1496124 5802961
0.10832563 0.0085557774 1.1451905 6787017
0.024779219 0.014220633 1.1542197 12972031
-0.031322416 0.016860232 1.1551381 5869264
0.0013385154 0.017456613 1.1554481 7515376
0.0088070361 0.018067271 1.1550628 8764660
0.018377509 0.018880107 1.1545691 10146554
0.025080644 0.018720984 1.1542207 10870005
-0.089873977 0.01760453 1.1521711 8028800
-0.084847435 0.018634886 1.151914 7305855
-0.027019996 0.018558808 1.1569238 5671370
-0.023735452 0.018990852 1.1567549 5869265
-0.00074361265 0.022015177 1.1555729 6988787
0.0036357865 0.022591233 1.1553477 7185904
0.087885134 0.042594723 1.1510491 6314850
-0.084289052 0.023753576 1.1519039 8028802
0.084359989 0.045699604 1.1512434 6117979
0.05885474 0.053042211 1.1445831 5593178
0.061029349 0.053328253 1.1444713 5658970
0.004540382 -0.22120142 1.1584116 2973083
0.010177601 -0.22157893 1.1581177 2973595
0.019492656 -0.21992664 1.1583079 2973598
-0.016675904 -0.21280199 1.1595434 2842012
-0.010178685 -0.21334614 1.1592042 2776219
-0.00052800775 -0.21459439 1.1602247 2907806
0.0092366468 -0.21471819 1.1613538 2907807
0.019770619 -0.21387962 1.1609859 2973599
0.028121958 -0.21039379 1.1578951 3039136
0.03866614 -0.20801517 1.1580242 3170723
0.048496768 -0.20659468 1.1568518 3236770
0.058105234 -0.20485911 1.155692 3170979
0.067035511 -0.20346925 1.1552336 3170980
0.073411077 -0.20095207 1.154912 3171236
-0.028814994 -0.20544657 1.1602004 2842012
-0.02180209 -0.20682436 1.1612879 2842011
-0.011936639 -0.2078155 1.1617806 2842012
-0.0034619328 -0.20817879 1.1628801 2907805
0.042743757 -0.2035045 1.1604995 3302309
0.048487462 -0.20157039 1.1590641 3302308
0.056970075 -0.20031822 1.1572695 3171236
0.067629755 -0.19947448 1.1552174 3171236
0.078059509 -0.19673479 1.1563551 3105443
0.087501436 -0.19354655 1.1552093 3171492
0.093690366 -0.19082442 1.1538968 3040420
-0.051129892 -0.19719166 1.1613886 2841497
-0.042055104 -0.1987763 1.161446 2907291
-0.033285279 -0.20031032 1.162336 2907549
-0.026412167 -0.20062399 1.1640987 2907551
0.089803033 -0.18608576 1.1581212 3040420
0.096413568 -0.1833391 1.1558911 3106213
0.10371099 -0.17973353 1.1534175 3106214
-0.053357571 -0.19096331 1.1635298 2907290
-0.046383433 -0.19296572 1.1646625 2973340
0.099670142 -0.17580494 1.157647 3302823
0.10522232 -0.17264411 1.1549672 3237030
0.11086882 -0.16846728 1.1548675 3237031
-0.072400428 -0.17984718 1.1625561 2841497
-0.063606001 -0.18220548 1.1626251 2842012
-0.057127818 -0.18363452 1.1647537 2907547
0.11496095 -0.16016969 1.1538298 3368361
0.11952522 -0.15628004 1.1526829 3237285
-0.074633837 -0.17417285 1.1626928 2973085
-0.067748524 -0.17352259 1.1650784 3039135
0.11627428 -0.1527911 1.1528645 3368615
0.12233998 -0.14864194 1.1532931 3237799
0.12639585 -0.14474559 1.1523687 3303337
-0.083639264 -0.16230217 1.1632037 2973857
-0.077724405 -0.16510069 1.1644441 3039137
-0.07160832 -0.16521025 1.166574 3104930
0.12340137 -0.14095138 1.1545407 3172264
0.12911871 -0.13727003 1.1529224 3238059
-0.085832506 -0.15432854 1.1643481 3039650
-0.08126805 -0.15738569 1.167104 3105700
0.13113725 -0.127193 1.1543438 3369132
0.13522042 -0.12679949 1.1519766 3434410
-0.089636959 -0.14619996 1.1652906 3171236
0.13200969 -0.11889739 1.1553766 3500719
0.13498741 -0.11616926 1.1540304 3435183
-0.098372318 -0.13514557 1.1640679 3302823
-0.093371406 -0.13651226 1.1664736 3171495
0.13442099 -0.10605788 1.1539148 3566514
-0.10114821 -0.12681663 1.165699 3368873
-0.097261682 -0.12751031 1.1672425 3368875
0.13586321 -0.096585587 1.1528552 3697588
-0.10315818 -0.11794978 1.1670495 3303850
0.13630486 -0.086873069 1.1555001 3763892
0.1392321 -0.085763253 1.151919 3698099
-0.10586953 -0.10800214 1.1661587 3435181
-0.099883519 -0.10773349 1.1682522 3435438
0.13602874 -0.076701894 1.1561239 3829942
0.13862821 -0.075776473 1.1531314 3764149
-0.10607931 -0.098277666 1.1666058 3501229
0.1342935 -0.06345579 1.1562625 3896505
0.13890766 -0.065733254 1.1538299 3830455
-0.10679165 -0.08842095 1.1662167 3632563
-0.1029202 -0.08455281 1.1684949 3567542
0.1308943 -0.056656044 1.1538891 4027837
0.13646147 -0.059494998 1.1521592 3896505
-0.10735718 -0.078348368 1.1660777 3829940
-0.10378782 -0.077929758 1.1685642 3699127
0.12822294 -0.047324378 1.1553016 4291009
-0.10828752 -0.068237104 1.165629 3895737
-0.10458326 -0.066966161 1.1686457 4027576
0.12717775 -0.037329894 1.154725 4422849
-0.10802763 -0.061441217 1.1648394 4158911
-0.10396075 -0.057196323 1.1666466 4093372
0.12583053 -0.027673937 1.1543297 4817355
-0.10149377 -0.047387306 1.1660924 4093630
-0.097102001 -0.043364421 1.1683441 4094397
0.11709231 -0.017990962 1.1555418 5080014
0.1218632 -0.020570971 1.1530596 4883149
-0.10046387 -0.0395579 1.1645272 4028348
-0.096256696 -0.036440857 1.1658223 4028864
0.11136856 -0.0090128332 1.1554267 4949202
-0.093958348 -0.026466869 1.1660583 4029123
-0.08995799 -0.023710325 1.1680455 3963586
0.10410783 -2.7790666e-005 1.1567266 5146069
0.10794988 -0.0039372742 1.1538427 5080276
-0.094268851 -0.01860062 1.1642827 5342665
-0.087288164 -0.015556678 1.1679369 4882633
-0.024941139 -0.0035551637 1.1647456 6070261
-0.018326782 -0.0026851222 1.1644055 6528744
-0.011712413 -0.0018150732 1.1640655 8827627
0.0037210975 0.00021503121 1.163272 10340848
0.012465393 0.00072360784 1.1628201 8895736
0.019989569 0.0010075271 1.1624306 6266608
0.093498029 0.011473216 1.1576532 5475287
0.098306596 0.0085751414 1.155724 5475028
-0.084730737 -0.0091569722 1.165825 5999306
-0.078279346 -0.0071893409 1.1654974 5540557
-0.070262663 -0.0027643815 1.1644301 5803727
-0.057758145 0.00061198324 1.1664639 4950220
-0.048737265 0.00066439807 1.165996 5016280
-0.039048292 0.00132671 1.165095 5411294
-0.029192351 0.002628766 1.1627458 5806569
-0.019218113 0.0039364845 1.1638752 7120874
-0.0097892191 0.0059236512 1.1639941 12379901
0.00063890405 0.0067930594 1.1609263 13891069
0.010354583 0.0078374147 1.1597514 12969723
0.02022728 0.0093658641 1.1601301 9946095
0.03025154 0.01044666 1.1600173 10013177
0.039636038 0.0135803 1.1593006 7449069
0.046099745 0.016269512 1.1611317 5411552
0.090032816 0.014955461 1.1563437 6526426
-0.056441024 0.0057757348 1.1664144 6264275
-0.04915458 0.007570833 1.1635395 5803990
-0.039830558 0.009448491 1.1615605 5345755
-0.03008531 0.012002982 1.1610643 5412839
-0.020639885 0.013838358 1.1610814 5676266
-0.011448847 0.014093406 1.1629658 7253489
-0.0017852057 0.015200958 1.1606088 8436213
0.0083347373 0.014292069 1.1590788 12051453
0.022040378 0.020570986 1.1583908 10082302
0.029900044 0.020858824 1.1579839 10607102
0.038411684 0.021125853 1.1575432 7515119
0.045530241 0.021429271 1.15851 6068200
-0.019185059 0.019624323 1.1605265 6001365
-0.014790572 0.020202361 1.1603006 6396124
0.095860295 0.040576153 1.1546334 6447199
0.012443628 -0.21050014 1.1660516 3039391
0.019916499 -0.20895585 1.1671715 3039135
0.031248448 -0.20802657 1.1650848 3104930
-0.017767675 -0.20320705 1.1676462 2776478
-0.011233436 -0.2032719 1.1693095 2842271
-0.0011013784 -0.20361553 1.1709672 2907807
0.0083036525 -0.2042591 1.1709913 2908063
0.018392025 -0.20380071 1.1715753 2973600
0.028460335 -0.20148054 1.1705941 3105187
0.038198344 -0.19983581 1.169174 3236773
0.047599386 -0.19724119 1.1680143 3237029
0.05845448 -0.19590038 1.1675227 3171237
0.068016 -0.19557643 1.1647246 3171236
0.077211037 -0.1927879 1.16368 3105444
0.085731387 -0.19015628 1.1623231 3171493
-0.030828811 -0.19601223 1.1715546 2841758
-0.022467036 -0.19724791 1.1719172 2907551
-0.01335372 -0.19719487 1.1742718 2842271
-0.002556853 -0.19698593 1.1748904 2908064
0.0042714952 -0.19722214 1.1745353 2973857
0.025431987 -0.19443871 1.1734474 3105444
0.038047925 -0.19177088 1.1728024 3237030
0.048012484 -0.19087112 1.1714876 3302823
0.057471897 -0.18883742 1.1708809 3171495
0.066535085 -0.18621889 1.1699513 3105703
0.076172955 -0.18520981 1.169246 3105703
0.085720994 -0.18343142 1.1668544 3105702
0.093503982 -0.17985258 1.1636741 3105958
-0.043078177 -0.18984306 1.1706579 2973598
-0.034711812 -0.19052389 1.1745801 2907551
-0.024571106 -0.19109014 1.1760545 2908065
0.086573407 -0.17487782 1.1703463 3237288
0.095088206 -0.17301233 1.1674635 3302823
0.10324756 -0.16984743 1.1640636 3237287
-0.053791769 -0.17989984 1.1724621 3105183
-0.04579439 -0.18228528 1.1753032 2974112
-0.037191853 -0.18339154 1.1767377 2842786
0.09581434 -0.16612297 1.1698989 3171750
0.10382181 -0.16141459 1.1681654 3172008
0.11135678 -0.15860745 1.1634456 3303081
-0.063208573 -0.17134978 1.1707886 3104930
-0.056430332 -0.17286223 1.1764395 3170978
0.10527146 -0.15282205 1.169457 3303337
0.11265954 -0.15029377 1.1668297 3368873
0.11919774 -0.14808238 1.1632897 3237543
-0.074503563 -0.15995875 1.1734192 3040164
-0.067300096 -0.16281214 1.1741593 3105701
-0.060190775 -0.16637592 1.1779935 3302822
0.11316211 -0.14115326 1.1690903 3303597
0.11995159 -0.13776612 1.1643808 3238059
0.1264739 -0.1338065 1.1624182 3303852
-0.077686578 -0.15400006 1.174719 3106213
-0.069513075 -0.15502934 1.178519 3172007
0.11988065 -0.12867168 1.1685872 3369387
0.12751345 -0.12738636 1.1643907 3435181
-0.086226448 -0.14477225 1.1727482 3237030
-0.079405487 -0.14460002 1.1767341 3237800
-0.07252121 -0.1472007 1.1787038 3303594
0.12090652 -0.1224381 1.1687571 3500972
0.12850952 -0.11708876 1.1651278 3500976
0.13252407 -0.11358213 1.1601759 3500977
-0.088465005 -0.13574852 1.1746777 3237545
-0.083423533 -0.13680696 1.1784176 3303852
0.12921214 -0.10743041 1.1683811 3566772
0.13233769 -0.10731097 1.1642139 3566515
-0.092206672 -0.1264492 1.175045 3369389
0.12882242 -0.097866371 1.1684365 3763639
0.13177824 -0.09648259 1.1633927 3763639
-0.10082158 -0.11360618 1.17362 3435181
-0.094854996 -0.11657447 1.1765419 3435438
0.1280188 -0.086790241 1.1685188 3895737
0.13267083 -0.086002976 1.1630968 3764149
-0.10111212 -0.10712345 1.174727 3435438
-0.095500693 -0.10706478 1.178503 3501231
0.12728837 -0.081214376 1.1685772 3961530
0.13182935 -0.076548107 1.1631752 3961528
0.1383622 -0.072252803 1.1600245 3895735
-0.102004 -0.097916149 1.1754078 3501489
-0.09765739 -0.097150609 1.1780714 3501490
0.12495095 -0.063371599 1.168764 4159679
0.13096848 -0.067246988 1.1637038 3962041
0.13807201 -0.070037566 1.1600478 3895735
-0.1034738 -0.090694733 1.1745093 3501747
-0.098988481 -0.086915225 1.1769607 3567541
0.12338064 -0.057149954 1.1688683 4225473
0.12689592 -0.057152148 1.1646804 4159424
-0.098605625 -0.076614842 1.1759105 3764919
0.12198067 -0.048385028 1.1689731 4422597
0.12558559 -0.04714958 1.164785 4357059
-0.099396013 -0.066860765 1.1758156 3896505
-0.094468847 -0.066142842 1.1801403 3962298
0.12047721 -0.037869114 1.1690897 4685767
0.12427524 -0.037147019 1.1648898 4422851
-0.099229217 -0.057615489 1.1740098 4027836
-0.094218373 -0.055232473 1.1790749 4028094
0.11713491 -0.027602099 1.1671803 4948684
0.12296927 -0.028695874 1.1619846 4751818
-0.098685041 -0.049351845 1.1724098 4093632
-0.093313195 -0.045227159 1.1780002 4094399
0.10921178 -0.018175684 1.1697465 5080784
0.11337212 -0.018654428 1.1647224 5211343
-0.091269962 -0.036427945 1.1764419 4094402
-0.085066967 -0.032549538 1.1787742 4226244
-0.078804716 -0.030050717 1.1794598 4620744
-0.02549272 -0.021903738 1.1767231 5412064
-0.0032185167 -0.018973812 1.175578 6463211
0.0052724108 -0.021727212 1.1751273 6397929
0.014781576 -0.01983016 1.1746408 6397929
0.023677483 -0.016732395 1.1741905 6003432
0.10490244 -0.00935781 1.1674992 5081042
0.11018059 -0.011737578 1.1617091 5081041
-0.085001029 -0.024608165 1.1736597 4160963
-0.076851688 -0.022647247 1.1785274 4752075
-0.062300146 -0.017670222 1.1786487 4949201
-0.055544846 -0.017348833 1.1782994 5016022
-0.04594668 -0.017208584 1.1771343 5213659
-0.036124345 -0.016822539 1.176061 5411552
-0.026251078 -0.016317002 1.1759819 5740773
-0.016199775 -0.015009411 1.1762662 6003172
-0.0061986353 -0.013686612 1.1753515 6331366
0.0036623646 -0.012336493 1.1722412 6989552
0.013686473 -0.01102636 1.1721264 6792432
0.023639172 -0.0097027794 1.1709639 5937640
0.032041647 -0.0076983944 1.1727883 5806054
0.042534687 -0.0050147846 1.173255 5674725
0.049070861 -0.0030206218 1.1729231 5674983
0.094783247 0.00043994933 1.1705636 5146841
0.100714 -0.00079973787 1.1645293 5080789
-0.082836822 -0.015719436 1.1717107 4554184
-0.079375654 -0.014462098 1.1745398 4751049
-0.064151749 -0.012220867 1.1767621 4818129
-0.05682379 -0.011246264 1.1755843 5015507
-0.047554947 -0.0099775791 1.1717033 5147609
-0.037614211 -0.0086518675 1.1698906 5346018
-0.027883131 -0.0077847615 1.1720035 5937898
-0.017428029 -0.0071646795 1.1716857 6462952
-0.0072174482 -0.005058147 1.1702735 8303605
0.0020253286 -0.0039356053 1.1687807 8501495
0.011870924 -0.0036183745 1.1674567 7252467
0.023041938 -0.001610361 1.1677246 6069484
0.032003921 0.00065639615 1.1681303 6135528
0.042227209 0.0015816838 1.1707034 5741031
0.051581498 0.0029930249 1.1718135 5543655
0.060851015 0.0055097938 1.1723431 5477092
0.07064499 0.0081360787 1.1718445 5739747
0.081938289 0.0093694851 1.171263 5280481
0.091217883 0.0079810694 1.167079 5015513
0.096789561 0.0067491829 1.1644745 4949463
-0.077070422 -0.0082006976 1.1714392 4818122
-0.067858435 -0.0059874654 1.1709692 5147606
-0.059351653 -0.0041173548 1.1705346 4818639
-0.050522447 -0.0047086105 1.1700743 5344472
-0.0063483529 0.0016653463 1.1678053 12971007
-0.0018511396 0.0016935393 1.167572 12905215
0.022484507 0.0048946217 1.1663209 5807584
0.035758499 0.0066406652 1.1656386 6004710
0.04163903 0.0083799362 1.1653397 5807083
0.050133627 0.011972107 1.1670483 5477863
0.058742031 0.012638748 1.1691408 5542628
0.070997894 0.011207528 1.1718374 5673698
0.081130937 0.014531709 1.1698217 5804766
0.086642124 0.013333835 1.1630226 5147865
0.052006166 0.020044923 1.1648446 5412324
0.011517674 -0.19925588 1.1781571 3039650
0.017987046 -0.19905531 1.1778221 3039650
-0.0096230805 -0.1940691 1.1792732 2842271
-0.0029181913 -0.19318716 1.1789285 2973857
0.0075128926 -0.19292912 1.1796529 2973857
0.017462373 -0.19340149 1.1803998 3039395
0.027727529 -0.19009219 1.1791297 3171237
0.036721505 -0.18747133 1.1779605 3237030
0.046918608 -0.18557978 1.1779107 3302569
0.055183519 -0.18463287 1.1772799 3237546
-0.030460335 -0.18624072 1.1803832 2908065
-0.022831596 -0.18621287 1.1799874 2973857
-0.013953861 -0.18683454 1.1805258 2973857
-0.0039982628 -0.18745413 1.1811261 2973858
0.0044182092 -0.18720299 1.1825751 3105444
0.035813324 -0.18307331 1.180961 3237030
0.047203515 -0.18005231 1.1803811 3302825
0.055972461 -0.17843658 1.1796238 3171754
0.065712661 -0.17766039 1.1774267 3171752
0.075869292 -0.17589113 1.1763171 3171753
0.083797924 -0.17169943 1.1755087 3237546
0.091572851 -0.16823737 1.1741166 3303592
-0.042757235 -0.17831877 1.1810504 2908579
-0.03425844 -0.1794104 1.1826081 2908579
-0.024282273 -0.17959023 1.1830001 3105444
-0.015430063 -0.1802204 1.1836307 3105443
0.078365609 -0.16833946 1.1788069 3303339
0.085955791 -0.16503415 1.17709 3303082
0.093887687 -0.16184223 1.1745921 3237545
0.099340051 -0.15810984 1.1737506 3303850
-0.053162932 -0.16830519 1.1816272 3302822
-0.045939557 -0.17172107 1.1834928 3040165
-0.038300179 -0.17454892 1.1848383 3040167
0.088401534 -0.15788275 1.1783245 3303598
0.093837023 -0.15312853 1.1771175 3238061
0.10194881 -0.14996096 1.1747578 3303596
0.10919562 -0.14656934 1.1732816 3369131
-0.064215869 -0.15913559 1.1822344 3171751
-0.057308294 -0.16190603 1.1832794 3368615
-0.049862251 -0.16464905 1.1854746 3171751
0.11021626 -0.13981929 1.1747555 3369134
-0.067087606 -0.15239938 1.1824081 3369130
-0.060618721 -0.15355678 1.1850722 3434922
0.11015592 -0.13009518 1.1763439 3435183
-0.069843702 -0.14410368 1.1839167 3434923
0.11196752 -0.12270273 1.1764296 3501232
0.11822312 -0.11871415 1.1755071 3435694
0.12452824 -0.11609672 1.1725978 3501232
-0.079450294 -0.13412459 1.184118 3369646
-0.073213927 -0.137108 1.1854525 3435182
0.12078813 -0.10908179 1.1768229 3567282
0.12467075 -0.108009 1.1744406 3567027
-0.089460962 -0.1226182 1.1836784 3501231
-0.084267952 -0.1259283 1.1861506 3435439
0.1197586 -0.10122269 1.1769053 3829686
0.12435552 -0.09776251 1.1748992 3829431
-0.08990071 -0.11926134 1.1837136 3501231
-0.085891642 -0.11548341 1.1851883 3567024
0.12544504 -0.088163354 1.1753229 3830201
-0.091733001 -0.10527447 1.1838599 3632818
-0.08833798 -0.10557549 1.1856854 3698612
0.12612918 -0.077364758 1.1746595 3896507
-0.092978954 -0.095763393 1.1839596 3633333
-0.089001261 -0.095466994 1.186558 3764919
0.12461448 -0.067262806 1.1742746 4093886
-0.094569303 -0.087094374 1.1840739 3633334
-0.090526484 -0.085654609 1.1870737 3830201
0.12042755 -0.058113866 1.1752485 4291523
-0.091524817 -0.075379483 1.1856278 3896506
0.11854866 -0.047780082 1.1747609 4619975
-0.089514904 -0.065482765 1.1856076 4028348
0.11137515 -0.037227243 1.1775751 5146320
0.11599686 -0.038848791 1.1763279 4883148
-0.089110881 -0.055918813 1.1841911 3962814
-0.084222391 -0.05393206 1.1865196 3963072
0.1091685 -0.028598845 1.1762192 5146577
0.11300193 -0.029709905 1.1740136 5080527
-0.088942558 -0.046743773 1.1839299 4028607
-0.082940809 -0.044214919 1.185764 4291526
-0.033671528 -0.035749175 1.1851075 5147865
-0.026300669 -0.034551207 1.1847293 5344731
-0.01027227 -0.031529188 1.1839087 5345501
-0.0035447441 -0.03064426 1.1835629 5739743
0.0067559965 -0.031526186 1.18169 5936862
0.015740605 -0.030356184 1.1815618 5871068
0.02575494 -0.027932286 1.1820524 5739228
0.043547928 -0.024449743 1.1811417 5213656
0.1061517 -0.020036638 1.1763071 4949970
-0.082258962 -0.036588036 1.1836205 4422856
-0.074433677 -0.030774511 1.1850563 4686797
-0.064302564 -0.028305903 1.1847217 4884690
-0.053743742 -0.028383382 1.1856755 4950486
-0.043335505 -0.027771123 1.1843032 5213659
-0.034794558 -0.02780968 1.1819906 5279707
-0.024565 -0.027615339 1.181861 5345244
-0.014716223 -0.02467265 1.1812717 5411808
-0.0048194025 -0.024492048 1.1805565 5806052
0.00478407 -0.026371591 1.1791409 6068964
0.016752739 -0.025176659 1.1785243 6068963
0.026429804 -0.021512307 1.1789598 6003173
0.034625776 -0.018710203 1.1794229 5608417
0.044758342 -0.017393038 1.1795027 5411038
0.051635496 -0.016533472 1.1807511 5279709
0.09561266 -0.0089672953 1.1775725 5212630
0.10157929 -0.011785656 1.1755066 5015248
-0.071601935 -0.024657585 1.1831112 4949712
-0.064897038 -0.02377563 1.1827664 4949713
-0.054839693 -0.022452705 1.1822494 5016279
-0.045478486 -0.021600746 1.1817667 5213659
-0.036813393 -0.021219768 1.1813185 5345501
0.03519091 -0.011179306 1.1776187 5871590
0.043498736 -0.0095173866 1.1771938 5871847
0.053468876 -0.0059751347 1.1786921 5543139
0.060551029 -0.0039077625 1.1786182 5280225
0.084923595 -0.00073406845 1.1790817 5411294
0.090779409 -0.0013627261 1.1762266 5279196
0.061955296 0.0014470965 1.1762762 5411556
0.071234025 0.0043749586 1.1758054 5412066
0.082408853 0.0058448836 1.175231 5477344
0.0894069 0.0044889376 1.1748629 5213404
0.018134803 -0.18874457 1.1858631 3105189
-0.0030837897 -0.18300802 1.1879866 3039906
0.0068213921 -0.18386242 1.1878986 3039908
0.016511854 -0.1837787 1.1893034 3105447
0.026782151 -0.18161726 1.1861916 3105702
0.035575606 -0.17919296 1.1849931 3171750
0.044419877 -0.1776129 1.1845399 3237289
0.055530936 -0.17427623 1.1839756 3237548
0.06565617 -0.17294437 1.1834551 3171752
0.074656382 -0.1717605 1.1829923 3171752
-0.032003745 -0.17524801 1.1885145 3039909
-0.024090189 -0.17495391 1.188995 3105701
-0.015583836 -0.17652486 1.1902066 3105443
-0.0053028241 -0.1806277 1.1911145 3040163
0.02505628 -0.17571449 1.1895571 3105960
0.036199488 -0.17312452 1.1889883 3105958
0.044970226 -0.17043808 1.187742 3237545
0.055071849 -0.16802776 1.1861304 3237547
0.064949527 -0.16640757 1.1851178 3237544
0.074889772 -0.16487175 1.184692 3237545
0.083146416 -0.16176978 1.183256 3303339
-0.044366367 -0.16736308 1.189185 3172009
-0.035491008 -0.16941215 1.1911201 3105961
-0.02587596 -0.1703991 1.1922196 3171752
0.057558008 -0.16086149 1.187925 3303337
0.064330801 -0.15997061 1.1875768 3303593
0.074201815 -0.15768668 1.187073 3303594
0.082914561 -0.15389037 1.1853831 3303596
0.089331336 -0.15149552 1.1823052 3238062
-0.052785829 -0.1598762 1.1896493 3434409
-0.046725318 -0.16088666 1.1921585 3237547
-0.038099095 -0.16215557 1.1928842 3237805
0.082983457 -0.14653048 1.1866581 3238318
0.091750272 -0.14240751 1.1850969 3238572
0.10166024 -0.14087003 1.182906 3434926
0.10795648 -0.13941991 1.181383 3369134
-0.056213126 -0.15123044 1.1910914 3435179
-0.049946219 -0.15245815 1.1930895 3369388
0.095529541 -0.13517112 1.1860487 3500977
0.10058471 -0.13092634 1.1848007 3435186
0.10583652 -0.13022584 1.1815268 3500720
-0.066052422 -0.14168772 1.1914059 3566511
-0.059945621 -0.14380562 1.1927501 3566767
-0.052398786 -0.14543134 1.1936877 3500977
0.10106886 -0.12316946 1.1853048 3501234
0.10842086 -0.11971088 1.1821822 3501490
-0.077315904 -0.12987128 1.1910324 3566770
-0.069891803 -0.13354464 1.1932372 3632306
-0.062613726 -0.13757694 1.1942465 3632563
0.10917488 -0.11089253 1.1840161 3699127
0.11626871 -0.10863903 1.1815358 3633076
-0.079186656 -0.12449144 1.1921506 3566770
-0.072968282 -0.12461122 1.1948315 3763892
0.10895405 -0.10178692 1.1854746 3633335
0.11515407 -0.098732539 1.1827164 3764407
-0.080533169 -0.11452075 1.1940595 3698868
-0.076090015 -0.11456593 1.1950303 3699126
0.10796375 -0.089844726 1.1855699 3962811
0.11439034 -0.089076325 1.1840709 3830969
0.1219214 -0.088275857 1.180846 3830714
-0.083085649 -0.10479551 1.1923481 3699126
-0.077640563 -0.10467757 1.195147 3830712
0.11382077 -0.079131685 1.1847044 4028606
0.12173936 -0.078150257 1.1808926 3962300
-0.083708018 -0.095317662 1.1930931 3830970
-0.078772269 -0.094369106 1.1952436 3962813
0.11294436 -0.070117138 1.1853838 4291522
0.12050682 -0.068668023 1.1813555 4094399
-0.085308462 -0.085374132 1.1933271 3962044
-0.080321625 -0.085046344 1.1953583 4093630
0.11310344 -0.059256788 1.1851484 4554438
0.11780524 -0.059350878 1.1811657 4357059
-0.086015038 -0.075333342 1.1930192 4093886
-0.081437483 -0.074024037 1.1954566 4291009
0.10988702 -0.049038433 1.1847297 4686026
0.11570771 -0.048331324 1.1813151 4685769
-0.085432403 -0.067913547 1.191681 4159935
-0.080652215 -0.064825006 1.1943052 4225985
0.10144878 -0.040112343 1.1860905 5015248
0.1075037 -0.040573239 1.1831043 5014991
-0.078979276 -0.054694846 1.1935151 4292037
-0.073274583 -0.056196686 1.1950984 4619977
-0.051587015 -0.046445385 1.1940087 5279449
-0.043685429 -0.045406021 1.1936026 5016538
-0.03112058 -0.044903018 1.1929524 4950743
-0.021474034 -0.045324948 1.1924502 4950488
-0.012486115 -0.043984875 1.1919887 5147351
-0.0022621863 -0.041681901 1.1914666 5278422
0.0084575694 -0.042596884 1.1900169 5212886
0.017586891 -0.040718682 1.1886878 5278423
0.027379138 -0.038591318 1.188688 5147094
0.038291309 -0.037579425 1.1893772 4885460
0.047452241 -0.034849852 1.1881835 4950741
0.056444563 -0.033154868 1.1884514 5016279
0.09862116 -0.030531757 1.1848705 5212370
0.10596009 -0.030705906 1.1818855 5212369
-0.077828832 -0.047515251 1.1933639 4423370
-0.076211579 -0.044075932 1.1928921 4554187
-0.051791117 -0.041403845 1.1937709 5147610
-0.042213961 -0.03939037 1.1915456 5081818
-0.03290179 -0.040459689 1.1910584 5016538
-0.022040002 -0.037583407 1.1906388 5278938
-0.013101961 -0.03579605 1.1901816 5344730
-0.0026758015 -0.035299402 1.1885742 5673948
0.0076860907 -0.036184285 1.1869652 5805277
0.0166863 -0.03500041 1.1865025 5541848
0.026663963 -0.032542028 1.1859937 5475544
0.03649405 -0.028957181 1.1854968 5213397
0.047161825 -0.028189711 1.1856529 5082070
0.056744002 -0.026158661 1.1868594 5016536
0.065395422 -0.022845097 1.1880248 5213915
0.075911462 -0.020476349 1.1874877 5279453
0.086807139 -0.019503035 1.1869259 5213659
0.096448086 -0.021162905 1.1848173 5212628
0.10287061 -0.020226099 1.1820843 5146833
-0.076746434 -0.038123108 1.1913395 4554443
-0.052006967 -0.03303545 1.1900744 5016281
-0.044688746 -0.032989547 1.1896948 5147611
-0.013744965 -0.029835977 1.1881006 5411294
0.055791385 -0.0161056 1.1845425 5148123
0.064439222 -0.01497478 1.1842982 5213915
0.074486345 -0.013901092 1.1853219 5213917
0.085158527 -0.012436911 1.1853509 5213659
0.093207866 -0.013104901 1.1829456 5212887
0.084906653 -0.0054003149 1.1830709 5279708
0.089406759 -0.0048083737 1.1828395 5411037
0.00063075498 -0.18064883 1.1958133 3106213
0.006298326 -0.17990333 1.195522 3105959
0.017556492 -0.17908219 1.1949407 3105706
0.027835082 -0.17707041 1.1944147 3105960
-0.011029737 -0.17525527 1.1964382 3105700
-0.0034719296 -0.17553017 1.1967959 3105957
0.0056008939 -0.17433673 1.1963296 3106216
0.015870009 -0.17311686 1.1966523 3106217
0.026331469 -0.1712192 1.1959447 3171752
0.034070142 -0.16969934 1.1952106 3303337
0.044781812 -0.16560476 1.1935773 3369130
0.051582888 -0.16471015 1.1932276 3369132
-0.024947558 -0.16578051 1.197529 3171753
-0.014930364 -0.1669243 1.1993948 3171752
-0.004594028 -0.16587228 1.2009451 3172010
0.0047165509 -0.16594857 1.201413 3172012
0.014643414 -0.16423257 1.2017007 3237802
0.025087385 -0.16214465 1.2006202 3303338
0.03421516 -0.16097453 1.2003511 3369133
0.044309311 -0.15939145 1.1981108 3369388
0.054265633 -0.15773535 1.1969087 3303853
0.06320174 -0.15535165 1.1944115 3369643
0.073027149 -0.15322991 1.1923926 3303851
-0.044041567 -0.15650639 1.19822 3303598
-0.035555527 -0.15826172 1.1994898 3303341
-0.026670694 -0.1588892 1.2024597 3303340
-0.017081819 -0.15911457 1.2048223 3369132
-0.0087457541 -0.15991989 1.2043867 3303600
0.024344917 -0.1555672 1.2026856 3303598
0.036896553 -0.15391617 1.2020403 3435186
0.044313427 -0.15294056 1.201659 3369391
0.054012414 -0.15166476 1.2011603 3369392
0.063318506 -0.14749292 1.2000765 3369390
0.072468065 -0.14516811 1.1960208 3435184
0.081354484 -0.14232108 1.191765 3369392
-0.045852818 -0.14968926 1.1991402 3369646
-0.038240336 -0.15108617 1.2035465 3303853
-0.030482203 -0.15348113 1.2055384 3173034
0.064214319 -0.13916527 1.2006768 3566773
0.072115153 -0.13679732 1.199608 3566516
0.081433289 -0.13363749 1.1961987 3500977
0.091196664 -0.13297926 1.1929749 3500975
-0.057516776 -0.13914618 1.1989831 3632562
-0.048169918 -0.14105405 1.2014951 3501236
-0.040469371 -0.14027545 1.2056601 3501494
0.082645841 -0.1243629 1.1997746 3698612
0.090059429 -0.1237012 1.1970255 3567283
0.098376848 -0.12011161 1.1939003 3567283
0.10517289 -0.11609682 1.1906252 3501747
-0.065894932 -0.13051693 1.1994495 3895478
-0.059907623 -0.13231972 1.2016356 3698613
-0.050765038 -0.13213155 1.2053342 3633080
0.083211519 -0.1176056 1.1997701 3699128
0.089292295 -0.11358722 1.1994693 3830713
0.098567434 -0.11196189 1.1977923 3699126
0.10479367 -0.10968116 1.1906683 3633333
-0.06823118 -0.12274232 1.1995993 3961271
-0.061230928 -0.12234189 1.2042443 3896247
-0.054071099 -0.12404113 1.2068706 3764921
0.088284299 -0.10671057 1.1995468 3962300
0.098690234 -0.10280263 1.19855 3896506
0.10562468 -0.099915087 1.1926638 3764920
