# .PCD v0.7 - Point Cloud Data file format
VERSION 0.7
FIELDS x y z rgba
SIZE 4 4 4 4
TYPE F F F U
COUNT 1 1 1 1
WIDTH 1132
HEIGHT 1
VIEWPOINT 0 0 0 1 0 0 0
POINTS 1132
DATA ascii
0.078954235 0.014843203 1.0000452 5864111
-0.060057309 0.018770739 0.99808002 5270664
-0.051150244 0.021114282 0.9959057 5008273
-0.041884154 0.021950118 0.9950031 5206430
-0.032404657 0.024201617 0.99428022 5074073
-0.023532268 0.024187848 0.99656081 5274031
-0.01348521 0.02613987 0.9941206 5405876
-0.0049660616 0.026251927 0.99416488 5998788
0.003553086 0.026363999 0.99420911 5802444
0.03009918 0.02574262 0.99530447 5538507
0.038035836 0.025579274 0.99569774 4944316
0.047211576 0.02499485 0.99635077 5008558
0.057751942 0.024771094 0.99822438 4612496
0.064568058 0.022266015 1.0003122 4546960
-0.047890812 0.027447179 1.0000269 5401735
-0.042099707 0.027562872 0.99825704 5270150
-0.031783 0.028240427 0.99842072 5203846
-0.019335777 0.029979438 0.99952137 4875914
-0.011879798 0.032078147 0.99611062 4875142
-0.0023984499 0.032282457 0.99687845 4743815
0.0063071214 0.033341452 0.99678731 4678280
0.016909346 0.035206646 0.99706995 4809598
0.029863518 0.033235893 0.99602473 4612484
0.037563771 0.031925395 0.99720895 4677249
0.046876941 0.031200677 0.99851203 5005437
0.056936692 0.031512782 1.0006921 5268860
-0.01087903 0.037449151 1.0006464 5006720
-0.090512827 -0.0076581538 1.0068637 5932737
-0.086255386 -0.0058431625 1.0063641 5933251
-0.090971425 -0.0023124665 1.0078659 6192539
-0.082916602 0.0013505444 1.0036123 5930664
0.091473058 0.0073772743 1.0074422 6983363
0.098641515 0.0063419938 1.0107654 6061227
0.10396481 0.0070780143 1.010823 5400966
-0.080328614 0.0096458867 1.0054601 6189971
-0.073662832 0.012859225 1.0032576 5861520
-0.066037074 0.015690275 1.0024188 5664907
0.071032286 0.017016239 1.0031093 5996731
0.079026818 0.015637785 1.0046313 5731750
0.088464811 0.014053881 1.0080618 5927827
0.09678115 0.011408597 1.0109843 5861518
-0.071240097 0.017360657 1.0078753 6058377
-0.060266469 0.020927593 1.0060172 5467271
-0.054848965 0.024359711 1.0056123 5466762
0.068649374 0.023534968 1.0047925 5268360
0.077091828 0.021761075 1.0082219 5663111
0.085383564 0.019386441 1.0097884 6517124
-0.053046066 0.027225733 1.0070004 5532297
-0.039246224 0.030001849 1.0051866 5204613
-0.033056591 0.032465145 1.0066211 5138821
-0.023377541 0.032116339 1.0041715 4876167
-0.015670003 0.035440102 1.0035372 5138310
-0.0042082928 0.035590887 1.0035968 5138050
0.038454745 0.036152124 1.0038184 5006203
0.048114516 0.035319462 1.0042008 5202812
0.05618738 0.034094915 1.0038077 5203582
0.066040672 0.0299467 1.0074707 5597049
-0.030283887 0.037057146 1.0115507 5269636
-0.021762252 0.037969336 1.0091283 5204101
-0.012186227 0.0385461 1.0075716 5072257
-0.002356369 0.03844142 1.0071367 5006718
0.0072233286 0.038582265 1.0058858 4875393
0.016840942 0.038674533 1.0089372 4875390
0.027315753 0.03872332 1.0091605 4874877
0.037500717 0.038850918 1.0081617 5006460
0.044709776 0.038074762 1.0094391 5202811
-0.10134068 -0.010292985 1.0133023 6980776
-0.095185772 -0.0099045336 1.0121469 6129600
-0.10037822 -0.0038686991 1.0165982 7570324
-0.093098938 -0.00049800426 1.0131793 6651024
-0.086940005 0.0053999946 1.0128719 6781327
0.09657903 0.0039548799 1.013652 6854356
0.10814393 0.0041308627 1.0155482 7111067
-0.082768202 0.011202037 1.0142777 6583439
0.09933944 0.01515577 1.0149682 6845830
0.10761319 0.012561917 1.0170921 7436672
-0.070597306 0.02219896 1.0173477 6321290
-0.064418569 0.023236088 1.0164039 5795463
0.0782478 0.024836011 1.0185089 5860223
0.08801426 0.020381786 1.0161517 6649473
0.095463037 0.019673966 1.0203586 6977411
-0.071082711 0.026752546 1.0176572 7372164
-0.061637569 0.027227744 1.0164707 6123396
-0.05234715 0.031612426 1.0188792 5729669
-0.043815877 0.032301947 1.0189703 5336195
-0.037115324 0.035000309 1.0144299 5270149
0.068195134 0.032043949 1.0147821 5532277
0.075727418 0.029049009 1.0194873 5860472
-0.052918348 0.036647499 1.0204372 6714755
-0.04385259 0.036766753 1.0204843 5794947
-0.033051424 0.038680777 1.0185179 5466498
-0.022623327 0.041442424 1.0175387 5466240
-0.012154995 0.042054549 1.0187654 5334655
-0.0016841302 0.042397618 1.0173275 5138044
0.0073531731 0.043149188 1.0180036 5072252
0.017040612 0.043121651 1.0173539 5072247
0.026705554 0.042720184 1.0170009 5137530
0.036930196 0.041992605 1.0206618 5137788
0.046011023 0.038956746 1.0179933 5268347
0.11505167 -0.0040094107 1.0223886 7374502
-0.10116193 -0.00093354285 1.0256783 9214113
-0.092382073 0.0031725615 1.024044 6978442
0.11112887 -0.0021142364 1.0224556 7112109
0.11555202 0.0021148026 1.023298 8686741
-0.090592012 0.0089390874 1.0249259 7636109
-0.085289717 0.013145573 1.0242383 7437970
0.11551005 0.010273054 1.0230318 9277068
0.080948591 0.026017755 1.0245805 5992060
0.087527767 0.023927003 1.0271028 6451580
0.094437569 0.022914313 1.0258379 6516347
-0.060840141 0.029349655 1.0240772 6254982
-0.05734792 0.033524767 1.0302869 6648965
-0.041339621 0.032868966 1.0233239 5270660
0.062071815 0.036133125 1.0269496 5662844
0.067957588 0.034842744 1.0270189 5794679
0.076602861 0.032221764 1.0258399 5926261
0.084810004 0.028578371 1.0287173 6253428
-0.051248487 0.038557187 1.0252855 7043204
-0.042166166 0.039329335 1.025779 6188928
-0.031831376 0.042514384 1.0269039 5991293
-0.022093393 0.044787452 1.0271509 5794427
-0.012303216 0.044920087 1.026401 5597052
-0.004091518 0.044644535 1.0252252 5399930
0.0052650664 0.045162767 1.0240903 5203324
0.015981138 0.045303732 1.024146 5269365
0.028672829 0.045465872 1.0252128 5334394
0.0378539 0.044495448 1.0272136 5466234
0.044426393 0.042731032 1.0279987 5597049
0.062032614 0.039061353 1.0270809 5991033
0.066643991 0.038956299 1.0293854 6055795
-0.02015679 0.046766371 1.0270483 6056827
-0.011176966 0.047854364 1.0306422 5859449
-0.0027988255 0.048162252 1.0295935 5728377
0.0063696969 0.047663704 1.031215 5532027
0.017026471 0.047243848 1.0312451 5532021
-0.098404586 0.00050285459 1.0316185 7306630
-0.096450314 0.0015114695 1.0316727 7438985
-0.07920754 0.019258991 1.0385549 7044228
-0.075271353 0.019396603 1.0355762 6255491
0.089666918 0.026075274 1.0336323 6187632
0.095070764 0.026637822 1.0336825 6119529
-0.061045822 0.032054216 1.0332068 6780808
0.05755816 0.035973415 1.0339288 5465215
0.081286669 0.030946985 1.0388175 6056820
0.08741267 0.030405983 1.0371197 5988198
-0.04876158 0.040472224 1.0336412 7108737
-0.042449132 0.043290362 1.0371002 7108222
-0.034058545 0.044597268 1.0338941 6582396
0.048872873 0.042892009 1.0364517 5859705
0.054258119 0.041166395 1.0351477 5728122
-0.02959042 0.047929883 1.0365667 6713719
-0.023193073 0.048867896 1.0380398 6450807
-0.014975654 0.049271971 1.0364441 6122104
-0.0031557251 0.050411791 1.0365497 6122617
0.0091629811 0.051068828 1.037053 6057083
0.015488835 0.050954863 1.0380113 6057334
-0.08421129 0.017832607 1.041471 7832202
0.080884933 0.034168318 1.0429643 5792617
0.083861783 0.034207478 1.0429798 5724767
-0.041351523 0.046440884 1.0429525 7764863
-0.02155897 0.050667152 1.0432333 6384242
-0.012628442 0.050784633 1.0432796 6121843
0.16259237 -0.075106263 1.0574548 13950701
0.16562349 -0.075066395 1.0574706 13160147
0.16457258 -0.07205157 1.0576011 13423577
0.16376951 -0.085076332 1.0640198 12898285
0.16777404 -0.085978463 1.0634972 12832198
0.16225089 -0.07905969 1.0624238 10136266
0.16902232 -0.079453401 1.0625446 13159885
0.16251107 -0.072839811 1.0640627 12175571
0.16785643 -0.071549721 1.0606416 13093836
-0.1410301 -0.1099192 1.0733134 1720740
-0.14189239 -0.1030314 1.0734066 3628972
-0.14301388 -0.096954241 1.0750874 4745397
0.16308919 -0.087269537 1.0729274 6256041
0.16766997 -0.089898445 1.0730306 12767188
0.16120821 -0.078308366 1.075323 7312841
-0.13868098 -0.13457282 1.0834289 2903988
-0.13556415 -0.13453183 1.0834451 1324707
-0.14029972 -0.12253965 1.0832108 2904505
-0.13909699 -0.1137113 1.0822613 2644141
0.16334598 -0.10776155 1.086023 5801403
0.16778345 -0.10804921 1.0860305 11779799
-0.1389249 -0.10253882 1.0808616 3039906
0.16238584 -0.098640278 1.0854269 3630254
0.16862011 -0.099351376 1.0848349 11516624
0.17570214 -0.099294245 1.0864599 13685195
-0.14155595 -0.093720689 1.0836114 2708908
0.16205835 -0.090144433 1.0849309 3762605
0.16686851 -0.093817301 1.083662 10465738
0.1621448 -0.083152905 1.081116 6721740
-0.13945913 -0.076449715 1.0860343 1588628
-0.1363423 -0.076408714 1.0860505 3826867
-0.13194947 -0.15010363 1.0887688 3694011
-0.13700235 -0.14355604 1.0870374 7178192
-0.13177308 -0.14328751 1.0882286 2114980
-0.13736431 -0.1320999 1.0875499 1063065
-0.1328506 -0.13489823 1.0883461 2447769
-0.13699618 -0.12454126 1.087891 2578847
-0.13451403 -0.12419837 1.0909209 2907546
0.16324973 -0.11900236 1.0910234 6851775
0.16883723 -0.118397 1.0895748 13029078
-0.13644537 -0.11448471 1.0890957 3104917
-0.13468185 -0.11166351 1.0914828 3170462
0.16171317 -0.10824056 1.0914994 3040417
0.17148452 -0.11136656 1.0899026 13422807
0.17436239 -0.10820299 1.0900578 13619661
-0.13869977 -0.10200299 1.0896456 3104162
0.16036902 -0.10002378 1.0912186 2973607
-0.13814661 -0.0936893 1.0902716 3169952
0.16063946 -0.090017699 1.0938141 2843043
-0.14007048 -0.084008068 1.0898544 3301299
-0.12671201 -0.16237736 1.0982522 4750553
-0.12304768 -0.16464254 1.1001694 1196192
-0.12880936 -0.15500307 1.0953702 3036848
-0.12490432 -0.15745629 1.1004834 1789334
0.1591718 -0.14957196 1.0996426 12898004
-0.12791143 -0.14417069 1.0972843 2776475
0.15955333 -0.14042684 1.0989538 9087435
0.16531631 -0.1355622 1.0957953 13488846
-0.13030124 -0.13346374 1.0975314 3038106
0.15926901 -0.12974522 1.098431 4354994
0.16709863 -0.12756968 1.0961622 13752800
-0.13231157 -0.12385443 1.0993994 2973083
0.15910634 -0.12002508 1.0997752 2121388
-0.1373093 -0.11018351 1.0955411 3301280
-0.13387817 -0.11524854 1.0989697 3039132
0.15973675 -0.11186668 1.098001 2646946
0.17588764 -0.10649461 1.1001518 13817039
-0.13739352 -0.10389324 1.095823 3366820
-0.13486482 -0.10455013 1.1008104 3105183
0.15792857 -0.099811703 1.1020708 3631271
0.17691177 -0.10437831 1.1002514 13817037
-0.13754323 -0.092710555 1.0963243 3499424
-0.13485536 -0.093863733 1.1000888 3302563
0.15746045 -0.08954154 1.10177 3369127
-0.1349445 -0.084358186 1.1002148 3434147
0.15924296 -0.079985574 1.1031761 2908578
0.16497082 -0.077198565 1.1014166 8233160
-0.1397149 -0.073159128 1.09805 3365295
-0.13439184 -0.074433513 1.1010094 3499689
0.15990788 -0.070395723 1.1033473 4024485
0.16485822 -0.068788715 1.1017935 11192030
-0.13830978 -0.064365566 1.1005963 2181536
-0.13309003 -0.064208858 1.1018286 3433908
0.15905213 -0.065082148 1.1059372 2708114
-0.13682114 -0.056311697 1.1049688 8233201
-0.13297173 -0.057302166 1.1032259 3564980
0.0072015063 0.11749105 1.1094294 9935247
0.012901798 0.11846723 1.1094995 9934992
-0.11734968 -0.17386177 1.108483 929696
-0.1131718 -0.17426324 1.1107942 1984411
0.14914492 -0.16654971 1.1123481 13424882
-0.11847945 -0.16421971 1.1066159 2512540
-0.11384682 -0.16620198 1.1098182 2906513
0.15040059 -0.16050598 1.1101782 8955594
0.15605366 -0.15893014 1.1067159 14080986
-0.12582362 -0.15027255 1.1078088 2381461
-0.12264986 -0.15549423 1.1095284 2776212
0.15049744 -0.150857 1.109375 3697834
-0.12635358 -0.14440098 1.1089041 2841752
-0.12417975 -0.14883152 1.1118851 2906774
0.15221661 -0.14094804 1.1103083 2646183
-0.1283884 -0.13392156 1.1103899 2907034
-0.1243224 -0.1381765 1.1123626 2775704
0.15267178 -0.13226458 1.1118013 3696546
0.15466809 -0.12768073 1.111449 3761571
-0.12952706 -0.12443012 1.1093966 2973083
0.15626813 -0.1215351 1.1110649 3368880
-0.13075522 -0.11422283 1.1093042 3039134
0.15641104 -0.10991779 1.1111926 3500454
-0.1310707 -0.10377322 1.1094714 3171232
0.1552221 -0.10154779 1.1125768 3631529
-0.13174203 -0.094989598 1.109162 3302564
0.15359686 -0.090993308 1.1087531 3697839
0.1540035 -0.091373503 1.1117409 3763633
-0.13197982 -0.08448337 1.1104332 3368355
0.15442026 -0.080110028 1.1119624 3436468
0.16868302 -0.076314032 1.1124846 10992842
-0.12978013 -0.074046448 1.1109118 3697068
0.1520845 -0.067401953 1.1168122 3765679
0.15534085 -0.069640972 1.1119037 3830452
0.16827191 -0.07207191 1.112673 11387079
-0.12877581 -0.066166043 1.109068 3631022
-0.12664047 -0.062908977 1.1087235 3500456
0.15136918 -0.060371723 1.1142327 3830449
0.1581032 -0.060665 1.1117685 5207985
0.16461892 -0.061770245 1.115788 10334913
-0.12918378 -0.054251377 1.1116745 3434161
0.15039086 -0.051450126 1.1143744 3893939
0.15749504 -0.051804196 1.1135888 8428221
-0.12959012 -0.044395786 1.11569 6194370
-0.12507297 -0.04227436 1.1166641 4421311
0.14808345 -0.039757323 1.1169426 5734064
0.15442996 -0.043393098 1.1179007 10203587
-0.12382892 -0.035597436 1.1169696 6852289
0.14652896 -0.033767089 1.1150932 8955077
0.014448873 0.093837872 1.1234163 9737616
-0.086343274 -0.21064126 1.1176267 7635861
-0.08296451 -0.21120846 1.1202861 8100012
-0.096746206 -0.20098692 1.1206814 10535920
-0.08967261 -0.20346276 1.1182475 5996227
-0.083012521 -0.2076219 1.1204468 6394567
-0.10686551 -0.18973666 1.1131316 8431615
-0.099846706 -0.19221008 1.1158251 1526185
-0.093650818 -0.19470248 1.1198338 1262491
0.13002917 -0.18903574 1.122262 11717846
-0.11553526 -0.18130237 1.1134703 7571711
-0.10852866 -0.18354687 1.114959 1917611
-0.10153475 -0.18614282 1.1186564 2379673
-0.094750598 -0.18912296 1.1212232 2644619
0.13152716 -0.18214913 1.122578 5010097
0.13880602 -0.17895047 1.1196091 10599906
0.14589633 -0.17760944 1.1188439 14081762
-0.1087243 -0.17484576 1.1180063 2709143
0.13242823 -0.17154653 1.1230581 2909858
0.13908951 -0.17081326 1.1192997 4026283
0.14670618 -0.17074034 1.1156523 12307424
-0.11580701 -0.16100362 1.1143802 2775446
-0.11138146 -0.16528559 1.1171205 2775442
0.14021705 -0.16189554 1.1205242 3105445
0.14517361 -0.16077605 1.1155921 2578854
-0.11794569 -0.15393531 1.1168438 2775449
-0.11371788 -0.15648544 1.1212662 2906778
0.14240964 -0.15213771 1.1223737 3564451
0.14576814 -0.15093741 1.118439 3433893
-0.12191984 -0.1453684 1.1183515 2840984
0.14378946 -0.14401489 1.1243463 3565217
0.14756736 -0.14161147 1.1191328 3499430
-0.12687308 -0.13336706 1.1155699 2841497
-0.12389378 -0.13537303 1.1214998 2907290
0.14969069 -0.13107508 1.1219512 3237547
-0.1271867 -0.12399494 1.1175908 2973083
-0.12446761 -0.12463805 1.121979 3038877
0.15264817 -0.12141179 1.1235816 3827369
0.15532427 -0.12003786 1.1174675 3564710
-0.1283837 -0.11410698 1.1192876 3039391
-0.12573552 -0.11615527 1.1230212 3170977
0.15278289 -0.11132254 1.1238531 3565735
0.15520984 -0.11149102 1.1178505 3500198
-0.12862934 -0.10602152 1.1217943 3170977
0.15293294 -0.10228026 1.1235924 3631790
0.15402682 -0.10406247 1.1261867 3434923
-0.12892085 -0.095436685 1.1212672 3302823
0.15244283 -0.090851963 1.12427 3566513
-0.12901749 -0.085385613 1.1203831 3368614
0.15141399 -0.081619143 1.1247182 3632560
-0.12862295 -0.0777409 1.1220629 3565995
0.15008552 -0.071420401 1.1238967 3895728
-0.12589633 -0.062741429 1.1243504 3697842
0.14762068 -0.06143856 1.1228653 4158132
-0.12433977 -0.054368958 1.1234957 3502262
0.14634155 -0.050850324 1.1245359 4027837
-0.12181884 -0.044803571 1.1233503 3698611
0.14131516 -0.039660353 1.1290191 4619197
0.14718758 -0.042432021 1.1233777 4946612
-0.12814605 -0.03828343 1.1198322 7180220
-0.12063204 -0.035511486 1.1271985 4815032
0.14114644 -0.03315676 1.1286429 5209534
0.14588121 -0.031015016 1.12142 8425655
0.015606908 0.089695796 1.1262387 9474444
-0.059332442 -0.22106706 1.1269594 8300241
-0.077639744 -0.2129575 1.1235992 7642055
-0.070148289 -0.21361142 1.1257428 4815810
-0.06335035 -0.21703614 1.1271219 5210825
-0.086935893 -0.20116064 1.1237218 932767
-0.079928249 -0.20458475 1.1252863 2382238
-0.071280554 -0.20761168 1.1275084 2251168
0.11218271 -0.20194978 1.1286073 6518691
0.11801262 -0.20078394 1.1272564 11319227
-0.088762194 -0.19453286 1.1258795 2447513
-0.083331704 -0.19802487 1.1278832 2513045
0.11974503 -0.192563 1.1280097 4617903
0.12680252 -0.19235441 1.1251012 10929103
-0.098364189 -0.18362376 1.1259124 2971544
-0.092404589 -0.18733156 1.1263195 2774929
0.12169638 -0.18325046 1.127822 2909086
0.12660022 -0.18213372 1.1255591 3105187
-0.10606804 -0.1704807 1.125011 2709911
-0.10139002 -0.17557962 1.1271589 2644371
0.12798461 -0.17233646 1.1266212 3368356
-0.10849573 -0.16398506 1.1271113 2775444
-0.10347515 -0.16807686 1.1278001 2709910
0.13226765 -0.16246691 1.1280696 3368613
0.1364418 -0.15937775 1.1266259 3499683
-0.1118222 -0.15545225 1.1271605 2841497
0.13395596 -0.15510225 1.1308104 3237027
0.13866103 -0.1522139 1.1282923 3302821
-0.11790352 -0.14391047 1.1267211 2645144
-0.11440726 -0.14570293 1.129199 2775964
0.14164382 -0.14228746 1.129601 3237542
0.14568785 -0.13861987 1.1289349 3106215
-0.11985047 -0.13558431 1.12797 2907291
0.14288719 -0.1327492 1.1305202 3499683
0.14596947 -0.13066155 1.1291027 3303338
-0.12097298 -0.12572463 1.1293538 3039134
0.14746931 -0.12217028 1.12976 3499947
-0.12630047 -0.1114013 1.1275698 3236770
-0.12409927 -0.11580784 1.1307188 3236770
0.14905837 -0.11166969 1.1306455 3500458
-0.12638712 -0.10492838 1.12786 3237027
-0.12467511 -0.10544655 1.1318486 3302821
0.15128167 -0.10112218 1.1315972 3632048
-0.1265171 -0.095219001 1.1282952 3302824
-0.12479831 -0.096244231 1.132261 3302569
0.14943565 -0.092260905 1.1318824 3632047
-0.1270704 -0.086162589 1.1286992 3434408
-0.12434369 -0.083940551 1.1328155 3434665
0.14589705 -0.081254363 1.1319963 4026292
-0.12677708 -0.07580024 1.1291656 3631531
-0.12508094 -0.075133041 1.1332074 3631531
0.14590357 -0.073221743 1.1309817 4157366
-0.12686375 -0.069327317 1.1294558 4025255
-0.1237926 -0.064271241 1.1319849 3632304
0.14521129 -0.061432127 1.1310629 4289211
-0.1204499 -0.05521781 1.1318346 3568048
0.14190835 -0.050747037 1.1321946 4094399
0.14429207 -0.055158675 1.1333423 4224702
-0.11921413 -0.049085163 1.1303996 3764911
-0.11584319 -0.044841956 1.1331081 3895729
0.13923563 -0.042403843 1.1333455 4487616
-0.12068424 -0.031149723 1.1342009 6458567
-0.11569569 -0.034826539 1.1334583 3895996
0.13902256 -0.03133212 1.1327859 5735616
0.14584345 -0.027974494 1.1325676 9477559
-0.1202857 -0.028508864 1.1353223 6852289
-0.11703461 -0.028466098 1.1353393 5933254
0.048332065 0.07540673 1.1367593 9474701
-0.02248719 -0.23156133 1.1386703 7248329
0.010382497 -0.23268327 1.1379704 5801654
0.018392157 -0.23142566 1.1375299 5210039
0.031188767 -0.23194945 1.1389 6328255
0.038854666 -0.23184861 1.1389399 7379645
0.050412733 -0.231575 1.1390053 8430007
0.058358151 -0.2295194 1.13513 8625323
-0.060461935 -0.22358435 1.1308454 9678537
-0.04966734 -0.22373641 1.1374213 4422071
-0.040327873 -0.22435522 1.1389116 2778029
-0.030541312 -0.22603975 1.1388811 2513574
-0.022891287 -0.22864868 1.1387992 2315684
0.0070519941 -0.22898425 1.138922 2120102
0.019098409 -0.22882578 1.1389846 2185635
0.032225311 -0.22755885 1.1391019 2186146
0.037715599 -0.22858086 1.1390812 2316696
0.053018104 -0.22619109 1.139259 4486314
0.060581904 -0.22560747 1.1373179 5997746
0.071686834 -0.22254285 1.1383647 6063288
0.080331892 -0.22101715 1.139617 6589614
0.088438749 -0.22112936 1.1396493 8757678
-0.066059485 -0.21170515 1.1313528 1855898
-0.059319783 -0.21426795 1.1345102 2249885
-0.051624563 -0.2166554 1.1384772 2381985
-0.04347039 -0.21870655 1.1391507 3039902
0.074233972 -0.21551681 1.1398358 2841504
0.080249861 -0.21489054 1.1398916 3302564
0.089791521 -0.21245183 1.1387103 4420011
0.099602968 -0.21129417 1.1344221 6984117
0.10901515 -0.20831542 1.1323111 6254993
-0.077349782 -0.20137912 1.1325651 2710418
-0.069596842 -0.20469856 1.1360364 2775447
-0.062856913 -0.20696339 1.1387877 2906776
0.092129618 -0.20457707 1.1400088 3171492
0.10063453 -0.20296735 1.1373174 3237285
0.10897422 -0.20145509 1.1331908 3629215
-0.080348432 -0.19465514 1.1368573 2775191
-0.072177321 -0.19814968 1.139274 2906012
0.10246189 -0.19381508 1.1392715 3040421
0.10939851 -0.19189072 1.1360004 3105703
0.11532204 -0.19193313 1.1330755 2777257
-0.095844075 -0.18058494 1.1326126 2710677
-0.089042187 -0.18453476 1.1359997 2709909
-0.082787991 -0.18816832 1.1383384 2709910
0.11042178 -0.18366587 1.139957 3368100
0.11799966 -0.18153609 1.13569 3302561
-0.097174138 -0.1742034 1.1360072 2710421
-0.092369959 -0.17717284 1.1399891 2644886
0.11236912 -0.17595096 1.1417874 3040936
0.12037985 -0.172656 1.139883 3237031
0.12675901 -0.16954324 1.1371361 3368615
-0.10698098 -0.16117223 1.1334327 2776209
-0.1015113 -0.1657903 1.1380055 2841240
0.12228937 -0.1642459 1.1423585 3237287
0.12873946 -0.16170625 1.1373541 3302822
-0.10809134 -0.15474351 1.1382542 2710683
-0.10336477 -0.15809613 1.1409283 2841499
0.13087784 -0.15338293 1.1402948 3237541
0.13583098 -0.15043457 1.1366342 3237798
-0.11033724 -0.14625245 1.1392351 2907293
0.13243353 -0.14472018 1.1432817 3237797
0.13715607 -0.14189315 1.1384252 3303334
-0.11678293 -0.13447143 1.1357301 2907805
-0.11459015 -0.13634858 1.1417193 2907805
0.13885958 -0.13263053 1.141407 3434407
-0.11741348 -0.12524916 1.1376666 3039392
-0.1148036 -0.12663502 1.1429552 3039391
0.14067575 -0.12303697 1.1417189 3500202
0.14481236 -0.1198281 1.1364479 3631274
-0.12069415 -0.11621666 1.1399255 3170979
0.14248058 -0.11285044 1.1443136 3631791
0.14589177 -0.11197845 1.1385847 3566510
-0.12124212 -0.10593619 1.1415666 3105957
0.14151527 -0.1017044 1.143586 3632305
0.14679609 -0.10246206 1.1375703 3501227
-0.12174714 -0.095823817 1.1397302 3237546
0.14094053 -0.092609666 1.1431119 3698099
0.14558588 -0.092701495 1.1380695 3698094
-0.12125546 -0.086088642 1.1404078 3434923
0.1420503 -0.083354011 1.1440785 3895479
0.14434692 -0.085062318 1.1380063 3895477
-0.12101921 -0.075665429 1.1414964 3566256
0.14215188 -0.072120048 1.1459179 4027579
0.14465325 -0.071362518 1.1426266 4157882
-0.12014018 -0.066718183 1.141145 3567024
0.13998707 -0.062596552 1.1458251 4159422
0.14433853 -0.062487852 1.141422 4289724
-0.11794709 -0.056762956 1.1394037 3567791
-0.11489429 -0.055029433 1.1448343 3764403
0.13815008 -0.052525572 1.1447771 4356797
-0.11324444 -0.045807365 1.1391544 3830196
0.13536373 -0.042946354 1.1442599 4619718
-0.11192808 -0.035003141 1.1419855 3896507
0.1311119 -0.03114222 1.1452596 4817095
0.13566169 -0.031514786 1.1420383 4948420
-0.11966346 -0.02598843 1.1434466 6916535
-0.11216642 -0.026405826 1.1431544 5210049
0.13017024 -0.024863683 1.1476504 5013440
0.1346359 -0.024283677 1.1453612 5998788
0.028883234 0.047997445 1.1463075 5859448
0.037087746 0.048265874 1.1444983 6122362
0.042631671 0.048332915 1.1475298 6319482
0.053707607 0.049565002 1.1516403 5330522
0.029412661 0.052515835 1.1449875 5792108
0.0372288 0.053486958 1.1445332 5527648
0.042573284 0.052693859 1.1477253 5067354
-0.016757708 -0.23159285 1.1416982 4354997
-0.0093943067 -0.23261207 1.1436884 4684224
0.00050522387 -0.23212208 1.1422879 4289976
0.011455227 -0.22965442 1.1419151 2054307
0.021893431 -0.23006564 1.1419448 2777510
0.027398044 -0.23109032 1.141924 4026798
0.043867819 -0.23087366 1.1420096 5604271
0.047688741 -0.22917777 1.1421033 4881326
-0.035875633 -0.22150034 1.1420633 3039902
-0.027916688 -0.22233504 1.1425629 2710943
-0.019435897 -0.22425638 1.1453229 2645152
-0.0095357504 -0.22713228 1.1486052 2514339
0.00040584896 -0.22687407 1.1481286 2514851
0.010296686 -0.22417194 1.1467606 2842787
0.020185979 -0.22352001 1.1446332 2908579
0.029849198 -0.2230202 1.1451894 3039651
0.040047035 -0.22363824 1.1463209 2908578
0.049386054 -0.22263308 1.1461588 2778020
0.059405819 -0.22073734 1.1439662 2646433
0.069023579 -0.22322881 1.1424686 5012145
0.080569565 -0.22435686 1.1424711 8955830
-0.049019944 -0.21327446 1.142658 2841242
-0.039159328 -0.21530735 1.1446618 2775960
-0.030143153 -0.21654943 1.1465828 2841500
-0.020724144 -0.21876287 1.150264 2907551
0.010959972 -0.21760961 1.1504617 3105184
0.020168407 -0.21712026 1.150526 3170722
0.030118842 -0.21698934 1.1505777 3302053
0.040246148 -0.21630378 1.1506552 3170723
0.050737061 -0.21524519 1.1507509 3105188
0.060065784 -0.21425292 1.1491224 3170467
0.069687039 -0.2137429 1.1452999 3236258
0.079794854 -0.21008325 1.1435531 3171236
-0.065785572 -0.2021462 1.1427943 2906776
-0.059230696 -0.20434545 1.1438698 2907033
-0.050785113 -0.20538379 1.1475563 2841497
-0.041490238 -0.20946199 1.1505859 2775704
0.060972232 -0.20885056 1.1510851 3105443
0.069817066 -0.2087342 1.151131 3105443
0.080567211 -0.20482178 1.1500918 3105956
0.088911086 -0.20168531 1.1467305 3105956
-0.076912269 -0.19132167 1.143229 2644884
-0.069809541 -0.19492772 1.1461029 2775705
-0.061412793 -0.19780661 1.1486816 2841497
0.084042042 -0.19750008 1.1517009 3172006
0.091672122 -0.19497487 1.1508483 3040421
0.097514942 -0.1924383 1.1484865 2974628
-0.085813642 -0.18266207 1.1435766 2645144
-0.079161718 -0.18447822 1.1465877 2710425
-0.073829427 -0.18719482 1.1480045 2776216
0.10086563 -0.18377344 1.1491412 3171493
0.105829 -0.1813385 1.1461201 3237026
-0.088971362 -0.17480929 1.1465055 2710424
-0.082591012 -0.17710999 1.1503929 2710937
0.10367675 -0.17735717 1.1526954 3302823
0.10996753 -0.17305142 1.1497566 3172005
0.11572492 -0.16980013 1.149086 3172006
-0.097784922 -0.16343765 1.1443845 2841498
-0.093379229 -0.16611843 1.1492126 2907290
0.11237371 -0.16619575 1.1532364 3303592
0.11858246 -0.16267523 1.1520884 3237544
0.12470587 -0.15795091 1.1456552 3303337
-0.099670961 -0.15508939 1.1464666 2973342
-0.095067471 -0.15842998 1.15263 3038879
0.12210704 -0.15490203 1.1531209 3237544
0.12644798 -0.15161529 1.1487504 3303336
-0.10784744 -0.14362237 1.1462287 2973342
-0.10176082 -0.14690556 1.1506139 2973600
0.12972955 -0.1425086 1.1503756 3368872
-0.10953702 -0.13584936 1.1479242 3039392
-0.1041238 -0.13684964 1.1535569 3236259
0.13089608 -0.13314003 1.1525532 3500460
0.13531859 -0.13038409 1.1469414 3434923
-0.11076851 -0.12625539 1.1488856 3170978
0.13181423 -0.12424801 1.1538743 3500719
0.1364904 -0.12153904 1.1506807 3500718
-0.1174677 -0.11505899 1.1464655 3237029
-0.11366457 -0.11664687 1.1524179 3237286
0.13669702 -0.11281156 1.1538481 3697329
-0.11758518 -0.10628382 1.1468589 3237543
-0.11506671 -0.10615171 1.154384 3172263
0.13779569 -0.10367137 1.1537577 3697843
-0.11803068 -0.096795723 1.1502858 3303340
-0.11599299 -0.095921427 1.1553395 3303852
0.13742842 -0.093257882 1.1546239 3764149
-0.11821063 -0.086910143 1.1477256 3500716
-0.11554837 -0.085868061 1.1557928 3501229
0.1402366 -0.082729727 1.1536793 3764661
-0.1179523 -0.07886143 1.1480881 3566512
-0.11484723 -0.075597048 1.152617 3632306
0.13711914 -0.072567031 1.1540202 3896764
-0.11437421 -0.06597887 1.1530509 3698357
0.13099043 -0.062714674 1.1566325 4291265
0.13486493 -0.063584059 1.1510819 4225217
-0.11288209 -0.056943361 1.1530994 3764408
0.13164753 -0.053081807 1.1564007 4554434
0.13427596 -0.052504502 1.1504325 4488640
-0.11007357 -0.046239723 1.1543937 3895997
-0.10601033 -0.043132696 1.157755 4027323
0.13111609 -0.04225605 1.1558831 4817354
-0.10864213 -0.036540389 1.1513654 3962044
-0.10470916 -0.035547227 1.1573007 4093118
0.12161095 -0.030196033 1.1593838 5014224
0.12705924 -0.032674968 1.1552935 4751563
-0.10767736 -0.026066005 1.1505053 4290235
-0.10281864 -0.026077025 1.1550652 4158908
-0.096684754 -0.02386187 1.158663 4028609
0.11986125 -0.023107462 1.1579143 4817874
0.12656496 -0.022500761 1.1527449 5145287
-0.10051383 -0.01930926 1.153244 4487616
-0.095189184 -0.016769558 1.1576536 4356800
0.11084162 -0.010712728 1.1582067 5276623
0.11723995 -0.013471417 1.1543943 5604813
0.12666582 -0.014501102 1.1529932 6720449
-0.093186706 -0.0098229796 1.1593093 5671109
0.10890149 -0.0052418783 1.1598734 5802961
0.11529753 -0.0057425722 1.1557809 6787017
0.032615528 0.0095071718 1.1607562 12972031
-0.022755656 0.018772565 1.1589152 5869264
0.009682592 0.015465468 1.1609181 7515376
0.017181057 0.015195854 1.1609405 8764660
0.026793443 0.014880441 1.1609706 10146554
0.033440866 0.013936825 1.1609588 10870005
-0.080561697 0.026585266 1.1529936 8028800
-0.075442672 0.027018294 1.1530366 7305855
-0.018390112 0.019883201 1.1609871 5671370
-0.015073303 0.019926831 1.1610043 5869265
0.0081443768 0.020232268 1.1611249 6988787
0.012566792 0.020290434 1.161148 7185904
0.098685592 0.030260935 1.161992 6314850
-0.07428959 0.032031298 1.1532669 8028802
0.095542595 0.033754647 1.1621343 6117979
0.071481794 0.044310331 1.1544893 5593178
0.073677763 0.044339225 1.1545006 5658970
-0.015228191 -0.22183272 1.1541556 2973083
-0.0096662883 -0.22286806 1.1541348 2973595
-0.00024700351 -0.2223441 1.154869 2973598
-0.035346009 -0.2110123 1.1545488 2842012
-0.028948337 -0.21231379 1.1545198 2776219
-0.019581776 -0.21473703 1.1559795 2907806
-0.0099767018 -0.21606189 1.1575999 2907807
0.00058707967 -0.21647087 1.1578058 2973599
0.0094478065 -0.21389769 1.1552927 3039136
0.020174235 -0.21279718 1.1560589 3170723
0.030153438 -0.21251678 1.1554501 3236770
0.039948508 -0.21189776 1.1548556 3170979
0.048991635 -0.21156561 1.1549122 3170980
0.055625852 -0.20981556 1.1550213 3171236
-0.046558842 -0.20229176 1.1548885 2842012
-0.039826725 -0.20453188 1.156275 2842011
-0.030187767 -0.20670703 1.1572298 2842012
-0.021888133 -0.20811492 1.1587448 2907805
0.024607498 -0.20889366 1.1589239 3302309
0.03060893 -0.20760785 1.1578653 3302308
0.039266393 -0.20731218 1.1565598 3171236
0.050049115 -0.20767191 1.1550919 3171236
0.060648214 -0.20623489 1.1568735 3105443
0.070447326 -0.20415507 1.1563447 3171492
0.076975584 -0.20214467 1.1554639 3040420
-0.067786053 -0.19148594 1.1552759 2841497
-0.058976319 -0.19414063 1.1557312 2907291
-0.050509375 -0.19673799 1.1570039 2907549
-0.043828934 -0.19792926 1.159101 2907551
0.073440373 -0.19712812 1.1596769 3040420
0.080440626 -0.19511136 1.157903 3106213
0.088235974 -0.19231558 1.155957 3106214
-0.069385424 -0.18511568 1.1575565 2907290
-0.062767327 -0.18797256 1.1589602 2973340
0.084453478 -0.18808474 1.1601335 3302823
0.090477735 -0.18551525 1.1578741 3237030
0.096570864 -0.18203938 1.1582361 3237031
-0.086913168 -0.17178443 1.1560721 2841497
-0.078472599 -0.17517383 1.1564928 2842012
-0.072334588 -0.17743769 1.1588886 2907547
0.10165697 -0.17425665 1.1577535 3368361
0.10670166 -0.17090017 1.1570033 3237285
-0.088471517 -0.1658929 1.1563295 2973085
-0.081700861 -0.16615099 1.1590886 3039135
0.10387619 -0.16705757 1.1571628 3368615
0.11035232 -0.1636776 1.1580724 3237799
0.11488129 -0.16026177 1.1575185 3303337
-0.096040711 -0.15305988 1.1568707 2973857
-0.090572104 -0.15658441 1.1582948 3039137
-0.084638879 -0.15749592 1.1607281 3104930
0.11223511 -0.15621662 1.1596899 3172264
0.11842498 -0.15318756 1.1585197 3238059
-0.097346306 -0.14492697 1.1582308 3039650
-0.093331292 -0.14860053 1.1610874 3105700
0.12152636 -0.14347859 1.1604584 3369132
0.12575285 -0.14349115 1.1583214 3434410
-0.10022016 -0.13644141 1.1593134 3171236
0.1233045 -0.13538718 1.161877 3500719
0.1266512 -0.13298739 1.160799 3435183
-0.10752064 -0.12438972 1.1581048 3302823
-0.10285559 -0.12642556 1.1607043 3171495
0.12727889 -0.1228827 1.1610734 3566514
-0.10938947 -0.11585194 1.1599354 3368873
-0.10570271 -0.11705708 1.1616455 3368875
0.12987609 -0.11361814 1.160482 3697588
-0.1104203 -0.10686176 1.1615475 3303850
0.13130316 -0.10412607 1.163546 3763892
0.13453478 -0.10324766 1.1601682 3698099
-0.11189546 -0.096637003 1.1609319 3435181
-0.10604492 -0.097156458 1.1633381 3435438
0.13218459 -0.09402255 1.1645756 3829942
0.13503692 -0.093308739 1.1617607 3764149
-0.11099067 -0.086978421 1.1617701 3501229
0.13200593 -0.080677137 1.1651738 3896505
0.1364501 -0.083400935 1.1628879 3830455
-0.11052223 -0.077099457 1.1617538 3632563
-0.10635759 -0.073802002 1.164385 3567542
0.12956293 -0.073442049 1.1629132 4027837
0.1348473 -0.076861091 1.1613541 3896505
-0.10989685 -0.067032538 1.1620032 3829940
-0.10644692 -0.067129299 1.1646841 3699127
0.1279272 -0.063914075 1.1645727 4291009
-0.10961147 -0.056872949 1.1619266 3895737
-0.10595755 -0.056158636 1.1651788 4027576
0.12809217 -0.053852215 1.1643578 4422849
-0.10851479 -0.050132837 1.1614335 4158911
-0.10408609 -0.046468291 1.1636204 4093372
0.12790796 -0.044096652 1.1642944 4817355
-0.10046151 -0.037009336 1.1635996 4093630
-0.095761374 -0.033619352 1.1662375 4094397
0.12030876 -0.033490852 1.1654584 5080014
0.12487569 -0.036531761 1.1631185 4883149
-0.098437235 -0.029308125 1.1624146 4028348
-0.093972892 -0.026761457 1.1640509 4028864
0.11568999 -0.023896739 1.1654229 4949202
-0.090540186 -0.017146453 1.1648169 4029123
-0.086361587 -0.014957145 1.1671184 3963586
0.10946931 -0.014162436 1.166721 5146069
0.11298203 -0.01839786 1.1638777 5080276
-0.089829013 -0.0092417598 1.163355 5342665
-0.082754314 -0.0071805418 1.167484 4882633
-0.019351047 -0.0025817156 1.1679825 6070261
-0.012671715 -0.0024938509 1.1680171 6528744
-0.0059923828 -0.0024059862 1.1680518 8827627
0.0095927259 -0.0022009611 1.1681328 10340848
0.018347979 -0.0027213991 1.1681497 8895736
0.025863636 -0.0033216849 1.1681573 6266608
0.10024285 -0.0015198365 1.1675798 5475287
0.10477918 -0.0049002394 1.1657805 5475028
-0.079352245 -0.0010606423 1.1657724 5999306
-0.072706789 0.00013528019 1.1658567 5540557
-0.064180613 0.0036091655 1.1653847 5803727
-0.051499594 0.0053995103 1.1681927 4950220
-0.042522568 0.0043940768 1.1681889 5016280
-0.032787636 0.0039295033 1.1678125 5411294
-0.022731725 0.0041306466 1.1660259 5806569
-0.012751374 0.0042012855 1.1677167 7120874
-0.0031760596 0.0050464794 1.1683993 12379901
0.0074365665 0.0047754198 1.1659071 13891069
0.017257921 0.0046963543 1.1652745 12969723
0.027205175 0.0050244406 1.1662201 9946095
0.037277695 0.004907541 1.1666644 10013177
0.046989586 0.006924957 1.1665586 7449069
0.053611573 0.0087596849 1.1688274 5411552
0.097287089 0.0023939312 1.1662403 6526426
-0.04958671 0.010368288 1.1684245 6264275
-0.041991718 0.011382997 1.1660025 5803990
-0.032416504 0.012205623 1.164582 5345755
-0.022426914 0.013597682 1.1646905 5412839
-0.012847314 0.014293872 1.1652664 5676266
-0.0038087089 0.013386734 1.1676267 7253489
0.0060342024 0.013418034 1.1658145 8436213
0.016047647 0.01136516 1.1647675 12051453
0.030410662 0.015988141 1.1650411 10082302
0.038260408 0.015352406 1.1650487 10607102
0.046756078 0.014619589 1.1650549 7515119
0.053796362 0.014039345 1.1663959 6068200
-0.010696968 0.01988139 1.1650265 6001365
-0.0062593166 0.019939765 1.1650497 6396124
0.106158 0.027182862 1.1658924 6447199
-0.0065646153 -0.21242301 1.1626261 3039391
0.00096365064 -0.21181953 1.1641893 3039135
0.012424915 -0.21217319 1.1627247 3104930
-0.03575683 -0.20164585 1.1629754 2776478
-0.029377777 -0.2025464 1.1649665 2842271
-0.019463524 -0.20415168 1.167124 2907807
-0.010214372 -0.2059107 1.1676021 2908063
-0.00018986966 -0.20667727 1.1687193 2973600
0.010119629 -0.20553917 1.1683507 3105187
0.020047005 -0.20501654 1.1674993 3236773
0.029736895 -0.2035204 1.16693 3237029
0.040684734 -0.20346493 1.1670495 3171237
0.050359242 -0.20418352 1.1647595 3171236
0.05986115 -0.20247449 1.1643025 3105444
0.068693064 -0.20082988 1.1634929 3171493
-0.048083622 -0.19308896 1.1665061 2841758
-0.039957047 -0.19532321 1.167244 2907551
-0.03104531 -0.19643807 1.1700613 2842271
-0.020349387 -0.19753771 1.1712389 2908064
-0.013586449 -0.19857249 1.1712236 2973857
0.0077818949 -0.19829138 1.1713346 3105444
0.020639513 -0.19712336 1.1714463 3237030
0.030698521 -0.19737062 1.1706806 3302823
0.040349901 -0.19645742 1.1706429 3171495
0.049694777 -0.19490542 1.1702869 3105703
0.059408735 -0.1950267 1.1701173 3105703
0.069217414 -0.19431476 1.1682924 3105702
0.077530429 -0.19157848 1.1656649 3105958
-0.05945814 -0.18547784 1.1652408 2973598
-0.051460128 -0.18728697 1.1695538 2907551
-0.041553147 -0.18910773 1.1715198 2908065
0.070869073 -0.18605128 1.1721746 3237288
0.079690754 -0.18511268 1.1698103 3302823
0.088340774 -0.18282424 1.1669657 3237287
-0.069018558 -0.17439944 1.1669054 3105183
-0.061525714 -0.17781812 1.1700503 2974112
-0.05320489 -0.17999023 1.1718754 2842786
0.081081271 -0.17844844 1.1725628 3171750
0.089668527 -0.17466888 1.1714373 3172008
0.097730994 -0.17261481 1.1672288 3303081
-0.07726264 -0.16473578 1.1651086 3104930
-0.071032837 -0.16724168 1.1710309 3170978
0.092039376 -0.16636065 1.1731559 3303337
0.099807143 -0.1646392 1.1710166 3368873
0.1067459 -0.16309904 1.1679099 3237543
-0.087276176 -0.15218054 1.167628 3040164
-0.080508396 -0.15589535 1.1686164 3105701
-0.074089214 -0.16041239 1.172658 3302822
0.10124907 -0.15570852 1.1736764 3303597
0.1086396 -0.15299055 1.1694643 3238059
0.11567937 -0.14976911 1.1680033 3303852
-0.089807555 -0.14593458 1.169009 3106213
-0.082034737 -0.14806223 1.1731758 3172007
0.10939921 -0.14410554 1.1740346 3369387
0.11735153 -0.14359155 1.1702904 3435181
-0.097086251 -0.13569237 1.1669883 3237030
-0.090524361 -0.1364733 1.1713212 3237800
-0.084111929 -0.1399425 1.1735307 3303594
0.11113626 -0.13804825 1.1745147 3500972
0.11950293 -0.133518 1.1715032 3500976
0.12416939 -0.13034263 1.1669124 3500977
-0.098357603 -0.12653962 1.1691729 3237545
-0.093690485 -0.12832123 1.1731185 3303852
0.12114859 -0.1241321 1.1751854 3566772
0.12449358 -0.12423944 1.1711919 3566515
-0.10100023 -0.11687966 1.1697334 3369389
0.12187795 -0.11459754 1.1756167 3763639
0.12525137 -0.11339936 1.1707922 3763639
-0.10796076 -0.10306041 1.168403 3435181
-0.10255426 -0.10681853 1.1715006 3435438
0.12237234 -0.10351426 1.1761166 3895737
0.12737893 -0.10309663 1.1709766 3764149
-0.10755201 -0.096632041 1.1697612 3435438
-0.10219108 -0.097374298 1.1738182 3501231
0.12229714 -0.097896591 1.1763684 3961530
0.12764631 -0.093617439 1.1714033 3961528
0.13480189 -0.090022489 1.1687713 3895735
-0.10739709 -0.087413631 1.1707762 3501489
-0.10314572 -0.087264888 1.1736878 3501490
0.12205647 -0.079920061 1.1771742 4159679
0.12785143 -0.084304295 1.172272 3962041
0.13477202 -0.087790646 1.1688713 3895735
-0.10795967 -0.080041558 1.1701037 3501747
-0.10320635 -0.076911211 1.1729354 3567541
0.12122147 -0.07356324 1.1774557 4225473
0.12493984 -0.073836952 1.1734564 4159424
-0.10156326 -0.066699192 1.1723336 3764919
0.12085289 -0.064703092 1.1778518 4422597
0.12480493 -0.063759401 1.1739081 4357059
-0.10120057 -0.056923099 1.1726025 3896505
-0.096471518 -0.05694899 1.1771992 3962298
0.12058586 -0.054093596 1.1783267 4685767
0.12467001 -0.05368185 1.1743599 4422851
-0.099853098 -0.047705792 1.171192 4027836
-0.094887465 -0.046115402 1.1766008 4028094
0.1185791 -0.043441091 1.1766758 4948684
0.12452538 -0.045038644 1.1717442 4751818
-0.098257735 -0.039514676 1.1699654 4093632
-0.092759594 -0.036257491 1.175989 4094399
0.11168276 -0.033234395 1.1792221 5080784
0.11603156 -0.034028426 1.1744015 5211343
-0.089617476 -0.027714856 1.1749029 4094402
-0.083142743 -0.024686672 1.1777078 4226244
-0.076679081 -0.022976689 1.1788154 4620744
-0.022710938 -0.021143004 1.1791461 5412064
-0.00021794252 -0.020847104 1.1792629 6463211
0.0079043899 -0.024574175 1.1791331 6397929
0.017582431 -0.023806699 1.1792121 6397929
0.026790839 -0.021776065 1.1793456 6003432
0.10856637 -0.023892857 1.1771245 5081042
0.11384375 -0.026679412 1.1715181 5081041
-0.081863776 -0.016635098 1.1729364 4160963
-0.073824495 -0.015830219 1.1782912 4752075
-0.058820058 -0.012628168 1.1793621 4949201
-0.052064639 -0.013101175 1.179372 5016022
-0.042466123 -0.014063694 1.1787056 5213659
-0.032621685 -0.014812261 1.1781526 5411552
-0.022768069 -0.015483178 1.178599 5740773
-0.012664303 -0.015392184 1.1794505 6003172
-0.0025417935 -0.015238069 1.1791036 6331366
0.0075670998 -0.014963135 1.1765598 6989552
0.017666401 -0.014852382 1.1770117 6792432
0.027754758 -0.014683038 1.1764151 5937640
0.036219425 -0.013758391 1.1787479 5806054
0.046912044 -0.012360997 1.1798608 5674725
0.053644903 -0.011148691 1.1799463 5674983
0.099508226 -0.013073757 1.180071 5146841
0.10557967 -0.014798157 1.1743014 5080789
-0.078569472 -0.008004345 1.1714705 4554184
-0.075147763 -0.0072679967 1.1745224 4751049
-0.059913572 -0.0069343299 1.1776105 4818129
-0.052467812 -0.0067982674 1.1768501 5015507
-0.042912748 -0.0065066144 1.1735038 5147609
-0.032799833 -0.00631091 1.1722578 5346018
-0.023166846 -0.0066830367 1.1748991 5937898
-0.012709619 -0.0073011816 1.175142 6462952
-0.0022600684 -0.0063768774 1.1743418 8303605
0.0071191955 -0.0063109174 1.1733711 8501495
0.016992602 -0.007121712 1.1725662 7252467
0.028289499 -0.0064684376 1.1734874 6069484
0.037418585 -0.005300276 1.1744441 6135528
0.047520839 -0.0056894124 1.1775723 5741031
0.056899656 -0.0054414794 1.1792164 5543655
0.066356033 -0.0040661991 1.1803226 5477092
0.07640247 -0.0026086122 1.1804343 5739747
0.087777272 -0.0027087107 1.1804823 5280481
0.097048983 -0.0050442517 1.176724 5015513
0.1025745 -0.0068385005 1.1743588 4949463
-0.071956933 -0.0012206361 1.1718055 4818122
-0.062537491 -0.00010463595 1.171899 5147606
-0.053859431 0.00075360388 1.1719774 4818639
-0.04514819 -0.00086796284 1.1719447 5344472
-0.00047440175 0.00027777255 1.1722019 12971007
0.0040011946 -0.00022141635 1.1722001 12905215
0.028575879 0.00010186434 1.1723278 5807584
0.041980259 0.00027820468 1.1723974 6004710
0.04803133 0.0013144836 1.1724718 5807083
0.056779549 0.0038077384 1.1747594 5477863
0.065277003 0.003371045 1.1773148 5542628
0.077112123 0.00039733201 1.1805726 5673698
0.087660819 0.0025602877 1.1792167 5804766
0.093363702 0.00095415115 1.1726643 5147865
0.059703354 0.011672541 1.1729904 5412324
-0.0068407543 -0.20158017 1.1751237 3039650
-0.00038379245 -0.20213953 1.1751283 3039650
-0.027258653 -0.19395602 1.1753719 2842271
-0.020487905 -0.19386697 1.1754071 2973857
-0.010154834 -0.19487804 1.1766738 2973857
-0.00038599875 -0.19655737 1.1779077 3039395
0.010250474 -0.19445109 1.177302 3171237
0.019540325 -0.19288011 1.1767035 3237030
0.029875567 -0.19221532 1.1772531 3302569
0.03821671 -0.19223747 1.1770852 3237546
-0.047066227 -0.18374661 1.175739 2908065
-0.039476499 -0.18461323 1.1757351 2973857
-0.030776251 -0.18630581 1.1767001 2973857
-0.021010417 -0.18812679 1.1777822 2973858
-0.012716101 -0.18893033 1.1796685 3105444
0.018987399 -0.18851326 1.1798332 3237030
0.030667305 -0.18685116 1.1799616 3302825
0.03959351 -0.18626523 1.179721 3171754
0.049464673 -0.18657744 1.1780584 3171752
0.05980444 -0.18599199 1.1775434 3171753
0.068201631 -0.18274817 1.1773156 3237546
0.076393515 -0.18018958 1.1764671 3303592
-0.058369827 -0.17444547 1.1761045 2908579
-0.050157014 -0.176595 1.1780478 2908579
-0.040307757 -0.17797479 1.1789412 3105444
-0.03163895 -0.17967598 1.1799968 3105443
0.063024685 -0.17888322 1.1804682 3303339
0.071033113 -0.17644677 1.1792798 3303082
0.079410553 -0.1741361 1.1773248 3237545
0.08530046 -0.1710521 1.1769183 3303850
-0.067548424 -0.16329084 1.1765629 3302822
-0.060889345 -0.16760564 1.1786522 3040165
-0.053720023 -0.17136824 1.180268 3040167
0.074226215 -0.16968511 1.1809326 3303598
0.080239251 -0.16557235 1.1802028 3238061
0.088784546 -0.16331211 1.178394 3303596
0.096449196 -0.1607576 1.1774317 3369131
-0.07746926 -0.15289767 1.1769838 3171751
-0.071002156 -0.15650564 1.1782647 3368615
-0.06406188 -0.16019087 1.1807221 3171751
0.098168939 -0.15423293 1.179234 3369134
-0.07953839 -0.14587778 1.1772894 3369130
-0.07340762 -0.14788976 1.1802303 3434922
0.099158376 -0.14463255 1.1812186 3435183
-0.081384674 -0.13737103 1.1789974 3434923
0.10181478 -0.1375159 1.1817029 3501232
0.10853563 -0.13427046 1.1812671 3435694
0.11525568 -0.13232177 1.1787947 3501232
-0.089754045 -0.12633258 1.1791207 3369646
-0.083993495 -0.13008212 1.1806473 3435182
0.11213273 -0.12506407 1.1831101 3567282
0.11624067 -0.1243782 1.1809758 3567027
-0.09830977 -0.11370803 1.178647 3501231
-0.093685299 -0.11769745 1.181242 3435439
0.11202672 -0.11714607 1.1834651 3829686
0.11710133 -0.11418948 1.1818416 3829431
-0.09835504 -0.11032601 1.1787986 3501231
-0.094019815 -0.10710627 1.1806314 3567024
0.11928111 -0.10480909 1.1827176 3830201
-0.098543704 -0.096234284 1.1794302 3632818
-0.095314071 -0.097001173 1.1814127 3698612
0.12125972 -0.094152145 1.1825377 3896507
-0.098671988 -0.086651906 1.1798598 3633333
-0.094837695 -0.086922474 1.1826681 3764919
0.12096106 -0.083934464 1.1824945 4093886
-0.099241093 -0.077864602 1.1802516 3633334
-0.095230803 -0.077022471 1.1835111 3830201
0.11782554 -0.074392006 1.1836313 4291523
-0.094938189 -0.066657215 1.1824429 3896506
0.11719859 -0.063897341 1.1834767 4619975
-0.09178625 -0.057075549 1.1829351 4028348
0.11116354 -0.052670874 1.1863552 5146320
0.11562596 -0.054786306 1.1852798 4883148
-0.090187937 -0.047583938 1.1819385 3962814
-0.085237756 -0.046276171 1.184594 3963072
0.11006035 -0.043798923 1.1852469 5146577
0.11385418 -0.045280352 1.1831958 5080527
-0.08893311 -0.038490705 1.1820666 4028607
-0.08278811 -0.036760211 1.1843079 4291526
-0.032907058 -0.034201942 1.1865209 5147865
-0.025437117 -0.033877403 1.1865699 5344731
-0.0091445781 -0.032757998 1.1866952 5345501
-0.0023509711 -0.032668628 1.1867305 5739743
0.00786399 -0.034704253 1.1853515 5936862
0.016916901 -0.034608334 1.1857312 5871068
0.027103133 -0.033412501 1.1868327 5739228
0.045204278 -0.03204304 1.1869775 5213656
0.10806578 -0.034946866 1.185535 4949970
-0.081100479 -0.029198237 1.1825197 4422856
-0.072740898 -0.024411567 1.1845931 4686797
-0.062387723 -0.023156323 1.1848791 4884690
-0.051979993 -0.024523601 1.1863672 4950486
-0.041511491 -0.025106944 1.185555 5213659
-0.032918375 -0.02608078 1.1836823 5279707
-0.022745065 -0.027101144 1.1840837 5345244
-0.012602231 -0.025332935 1.1841208 5411808
-0.0027278867 -0.026306786 1.1839204 5806052
0.0066535249 -0.029265337 1.1829207 6068964
0.018695448 -0.029482767 1.1829664 6068963
0.028695432 -0.027014002 1.1840472 6003173
0.037124403 -0.025225461 1.1850442 5608417
0.047321245 -0.025127478 1.1856961 5411038
0.054171555 -0.025137022 1.1873288 5279709
0.098840147 -0.022752903 1.1867175 5212630
0.10454173 -0.026187278 1.1848443 5015248
-0.069109172 -0.018610783 1.1830502 4949712
-0.062338416 -0.018521711 1.1830853 4949713
-0.052182283 -0.018388107 1.1831381 5016279
-0.042773433 -0.018640175 1.1831701 5213659
-0.03411185 -0.019277923 1.1831813 5345501
0.038666181 -0.01775676 1.1835847 5871590
0.047122084 -0.01708176 1.183654 5871847
0.057339266 -0.0148063 1.1858051 5543139
0.064607717 -0.013595395 1.1861789 5280225
0.089120433 -0.013363838 1.1880182 5411294
0.095012173 -0.014584556 1.1854426 5279196
0.066756912 -0.008366935 1.1841356 5411556
0.076326177 -0.0065497383 1.1842611 5412066
0.087610766 -0.0064012855 1.1843197 5477344
0.094411701 -0.0085669011 1.1842538 5213404
0.00052164122 -0.1922082 1.1835865 3105189
-0.019965168 -0.1840646 1.1848587 3039906
-0.010238506 -0.18608841 1.1852416 3039908
-0.00069805887 -0.18720821 1.187142 3105447
0.0099116862 -0.1861769 1.1846511 3105702
0.018981334 -0.18477607 1.184005 3171750
0.027961146 -0.18424517 1.1840702 3237289
0.039400328 -0.18223718 1.184213 3237548
0.049625024 -0.18210267 1.1842661 3171752
0.058713641 -0.1819831 1.1843133 3171752
-0.047762953 -0.17294043 1.184229 3039909
-0.039908398 -0.1736075 1.185125 3105701
-0.031724915 -0.17622143 1.1867036 3105443
-0.022061039 -0.18154827 1.187965 3040163
0.00870369 -0.18023239 1.1881657 3105960
0.020087644 -0.178969 1.1882749 3105958
0.029168107 -0.17730366 1.1875906 3237545
0.03955625 -0.17605795 1.1865985 3237547
0.04959657 -0.1755906 1.18616 3237544
0.059656426 -0.17523502 1.1863065 3237545
0.068286285 -0.17308953 1.185424 3303339
-0.05913623 -0.1636683 1.1845928 3172009
-0.050683033 -0.16682598 1.1868925 3105961
-0.041325644 -0.16898845 1.1884401 3171752
0.042760011 -0.169306 1.188813 3303337
0.049599331 -0.16921604 1.1888485 3303593
0.059682395 -0.16810715 1.1889447 3303594
0.068859875 -0.16531806 1.1878608 3303596
0.075673983 -0.16359758 1.1852168 3238062
-0.066634685 -0.15525334 1.184936 3434409
-0.060883049 -0.15706548 1.1877075 3237547
-0.052518342 -0.15937692 1.18882 3237805
0.069718286 -0.158068 1.1894416 3238318
0.078980446 -0.15496573 1.1885023 3238572
0.089108661 -0.15454298 1.1868862 3434926
0.095606223 -0.15380014 1.1857483 3369134
-0.069101855 -0.14631702 1.1865579 3435179
-0.063142553 -0.14835137 1.1888211 3369388
0.0835215 -0.14826858 1.189945 3500977
0.089100108 -0.14461461 1.1891336 3435186
0.094571739 -0.14442985 1.1861641 3500720
