# .PCD v0.7 - Point Cloud Data file format
VERSION 0.7
FIELDS x y z rgba
SIZE 4 4 4 4
TYPE F F F U
COUNT 1 1 1 1
WIDTH 174
HEIGHT 1
VIEWPOINT 0 0 0 1 0 0 0
POINTS 174
DATA ascii
-0.42652681 0.070528522 1.0539181 5134174
-0.41965961 0.070276365 1.0548241 5134176
-0.42800617 0.07496269 1.0544491 4871515
-0.43158653 0.050750095 1.0571017 4936281
-0.42094159 0.050302949 1.0584967 5199967
-0.41622138 0.051242728 1.059304 5397348
-0.44094175 0.05572154 1.0563278 4673880
-0.43309051 0.057012852 1.0556639 4870232
-0.42395696 0.058810722 1.0579566 5068382
-0.41461971 0.060974393 1.0601621 5068384
-0.40750426 0.063824221 1.0625931 4476504
-0.44317782 0.065019652 1.0561626 4607822
-0.43615881 0.066617727 1.0560323 4673623
-0.42536494 0.068009168 1.0577527 5134174
-0.41546467 0.070884705 1.0595959 4739419
-0.40804717 0.071944281 1.0621107 4081746
-0.44538322 0.072821379 1.0588567 4410445
-0.43712932 0.075956166 1.0574466 4213839
-0.42726123 0.078438714 1.0592202 4345429
-0.41742408 0.079979792 1.0608333 4016211
-0.40962696 0.081026182 1.0632634 3621193
-0.43770507 0.081341505 1.05826 3884109
-0.42883164 0.0841005 1.0599421 3752784
-0.41873038 0.086043194 1.0616584 3621192
-0.41144177 0.086392522 1.0627222 3686459
-0.43850011 0.035652895 1.0643129 4673626
-0.4300603 0.03679518 1.0627615 4870741
-0.42097235 0.037399996 1.0643048 5265754
-0.41141623 0.039986882 1.066326 5397604
-0.40414095 0.043801893 1.0709908 4608350
-0.44086462 0.044825766 1.0614884 4673629
-0.43214312 0.045298379 1.0605539 4870744
-0.42358613 0.045461949 1.0614212 5134174
-0.4121598 0.049666699 1.0643625 5397606
-0.40487158 0.0513479 1.069909 4476760
-0.39997488 0.056114789 1.0736072 4015442
-0.44996285 0.050764579 1.0658208 3883351
-0.44589499 0.052290868 1.0613157 4475995
-0.41257384 0.056265015 1.0647321 5068641
-0.40466496 0.060783815 1.0686728 4082513
-0.39974278 0.062317934 1.0741562 3752531
-0.44904283 0.061928 1.0612513 4079443
-0.40461695 0.070073485 1.0696541 3621705
-0.40015236 0.068146989 1.0731223 3751503
-0.40758762 0.077348143 1.0689157 3490378
-0.42500967 0.018291119 1.075134 5002588
-0.42191008 0.018887237 1.0756607 5528419
-0.43734571 0.025606833 1.0746443 4739163
-0.42932287 0.024651065 1.0725809 5002333
-0.42005071 0.026133124 1.0740496 5397092
-0.41173401 0.029595513 1.0771599 5332066
-0.40635008 0.03156798 1.0799106 4740695
-0.43885019 0.030048665 1.0698023 4082256
-0.43163824 0.030509956 1.0690839 5068120
-0.40982431 0.034968566 1.0748799 5200736
-0.40285745 0.039410863 1.0787635 4345175
-0.396696 0.042232823 1.0824267 4278096
-0.40179506 0.049636137 1.0772507 4147028
-0.39758119 0.049416173 1.0819738 3819087
-0.39883259 0.057280216 1.0792776 3687502
-0.417041 0.0062906258 1.0854974 5528423
-0.41298011 0.0076151527 1.0862775 5397348
-0.4279553 0.012857072 1.0796236 4804702
-0.4186469 0.014519367 1.080591 5462626
-0.41001707 0.016474508 1.0847452 5003105
-0.40304688 0.021273326 1.0874577 4804440
-0.4391152 0.020688321 1.0807457 3817824
-0.43201351 0.018821351 1.0773243 4673622
-0.41647413 0.021809913 1.0799645 5660265
-0.40964141 0.024693962 1.0813857 5069150
-0.40174595 0.028779905 1.0851989 4475986
-0.39736861 0.033950705 1.0866604 4014924
-0.40005976 0.035760265 1.0845429 4606547
-0.39507949 0.039105479 1.0862964 3620428
-0.42290294 -0.0026803929 1.090362 4079956
-0.41599202 -0.0020347815 1.0890846 5266270
-0.41071722 -0.00088368915 1.0923418 5002845
-0.42670855 0.0030866265 1.0887469 4079963
-0.41852188 0.0023124218 1.0877024 5330781
-0.4090116 0.0061596893 1.0913378 5002331
-0.40684533 0.0128415 1.0910597 5001816
-0.40355796 0.016188018 1.0932958 4540755
-0.40050572 0.023870047 1.0937631 4213074
-0.41646922 -0.013829583 1.1016777 5265766
-0.41827258 -0.0092688091 1.099262 5068639
-0.41012096 -0.00596462 1.1004478 4214103
-0.42681012 -0.0038763415 1.0937165 1580089
-0.40675807 0.0017366633 1.0980967 4145996
-0.40522292 0.0079586357 1.0986581 4212054
-0.42287734 -0.016532391 1.1034141 3618132
-0.41732994 -0.016573686 1.1041728 5199718
-0.4111774 -0.014282232 1.1054019 4214875
-0.40233541 -0.075201288 1.1128905 528927
-0.39723533 -0.074894577 1.1136453 1517876
-0.39764205 -0.086597733 1.123925 4419983
-0.41344798 -0.082477853 1.1203804 1651559
-0.40790775 -0.080209062 1.118306 1782104
-0.39537111 -0.080046736 1.1179078 4154236
-0.39160234 -0.076404423 1.122941 3028033
-0.40723142 -0.073685728 1.1247422 2369321
-0.39915013 -0.07174395 1.1224966 2040105
-0.41061392 -0.054425947 1.1233764 4146252
-0.41347823 -0.088815793 1.1295555 5077683
-0.40615657 -0.089831173 1.1290337 4617364
-0.39694726 -0.088440955 1.1305352 4549258
-0.39258149 -0.081797704 1.1295112 6582660
-0.41632938 -0.077253431 1.1269869 7695014
-0.40974465 -0.072304383 1.1293982 2040625
-0.40206197 -0.069498137 1.1302419 2172202
-0.39446637 -0.073048681 1.1307015 2760198
-0.40675122 -0.1004694 1.1367359 4683677
-0.4012301 -0.099407569 1.137674 3831442
-0.4154247 -0.095027477 1.1352719 3299734
-0.40794647 -0.095626488 1.1347699 4683420
-0.39966589 -0.094668821 1.1370387 3960460
-0.3999798 -0.17443816 1.1387062 3829135
-0.39220601 -0.17245679 1.1401076 4223637
-0.38608184 -0.17173207 1.141073 3960467
-0.40272769 -0.16550189 1.1398084 3498881
-0.39460772 -0.16342382 1.1408645 3895695
-0.38733369 -0.16073583 1.1427233 3631246
-0.40454933 -0.15415399 1.1383694 3499128
-0.39736265 -0.15358129 1.1394563 4025235
-0.38928518 -0.15131709 1.1428463 3499655
-0.40564919 -0.14462709 1.1377511 3826560
-0.39917967 -0.14349659 1.139343 4156303
-0.39168543 -0.14295034 1.1430254 3630985
-0.40780702 -0.13584778 1.1419778 3893387
-0.40127227 -0.1340621 1.1415845 4157333
-0.39453366 -0.13253699 1.1448702 3762828
-0.40820202 -0.12763998 1.1453301 3762325
-0.40272379 -0.12349612 1.1430222 4420507
-0.39698222 -0.12287863 1.146304 3828877
-0.41220519 -0.11445424 1.1469636 4222878
-0.40436366 -0.11429247 1.1442536 4552347
-0.39867464 -0.11401756 1.1480851 3631755
-0.41479656 -0.10620415 1.1422449 3627913
-0.40578562 -0.10591976 1.1414216 4683676
-0.39951432 -0.10381436 1.1456432 3892613
-0.39979953 -0.095461026 1.1436408 3563127
-0.40021539 -0.18515393 1.1424506 3033484
-0.39226165 -0.18495108 1.146032 2897991
-0.38260573 -0.18221709 1.1473166 3891064
-0.37567714 -0.18035044 1.1502873 2638186
-0.40582263 -0.17686236 1.1415899 666715
-0.39479461 -0.17700839 1.1430877 4813457
-0.38225126 -0.17162064 1.1457123 3499654
-0.37582403 -0.17076853 1.1505096 3561592
-0.40884185 -0.16594158 1.1429838 6722
-0.38436988 -0.1624019 1.1469482 3694979
-0.37832931 -0.16125809 1.1500176 3233144
-0.38501513 -0.15202467 1.1485796 3104639
-0.38091114 -0.15165782 1.1524619 2640231
-0.38771462 -0.1427426 1.1497459 2907007
-0.38408011 -0.14278844 1.1548899 3099492
-0.41199932 -0.13504486 1.1476704 4089741
-0.39015001 -0.13358651 1.1512932 3496061
-0.38683301 -0.13245109 1.1566889 4278874
-0.41144913 -0.12677136 1.1491179 2972810
-0.39308682 -0.12384333 1.1535327 3757171
-0.38965413 -0.12479232 1.1575693 3748927
-0.4115361 -0.12095401 1.1500704 3630740
-0.39385906 -0.11638752 1.1532674 3953004
-0.39227498 -0.19195896 1.1501639 984897
-0.38293165 -0.18624383 1.152401 4350584
-0.37805751 -0.16117217 1.1579124 4674411
-0.38021097 -0.15330645 1.1613063 6974583
-0.38422444 -0.14288452 1.1624801 3815753
-0.41684347 -0.13791084 1.1557336 5799072
-0.3850106 -0.13296413 1.1609473 5064001
-0.37836421 -0.16894326 1.1691986 7039097
-0.37997246 -0.16355076 1.1708937 7565430
-0.38240877 -0.15522572 1.1715966 8223350
-0.3837781 -0.14651126 1.1680785 9076613
