# .PCD v0.7 - Point Cloud Data file format
VERSION 0.7
FIELDS x y z rgba
SIZE 4 4 4 4
TYPE F F F U
COUNT 1 1 1 1
WIDTH 174
HEIGHT 1
VIEWPOINT 0 0 0 1 0 0 0
POINTS 174
DATA ascii
-0.42196724 0.080382235 1.0563754 5134174
-0.41509056 0.07957495 1.0560558 5134176
-0.42297274 0.084931031 1.0570309 4871515
-0.42792025 0.061139777 1.060981 4936281
-0.41726667 0.059832186 1.0604781 5199967
-0.41241896 0.060389139 1.0604075 5397348
-0.43684053 0.06685777 1.0617343 4673880
-0.42915821 0.067484029 1.059651 4870232
-0.41964874 0.068551846 1.0602337 5068382
-0.40992624 0.069966018 1.0606838 5068384
-0.4022879 0.072251357 1.0617301 4476504
-0.43832877 0.076305814 1.0616975 4607822
-0.43134278 0.077314518 1.0602777 4673623
-0.42033973 0.077831388 1.0600148 5134174
-0.41007379 0.079902947 1.059988 4739419
-0.40226564 0.080380574 1.0611151 4081746
-0.43939281 0.084301941 1.0645115 4410445
-0.43130377 0.086720884 1.0615689 4213839
-0.42111292 0.088402495 1.0614908 4345429
-0.41105548 0.089146212 1.0612879 4016211
-0.40289125 0.089578018 1.0622647 3621193
-0.43129748 0.092146695 1.0623143 3884109
-0.42207658 0.09418489 1.0623145 3752784
-0.41170993 0.095308408 1.0621544 3621192
-0.4043442 0.095067836 1.0618979 3686459
-0.43459994 0.046774298 1.0697411 4673626
-0.42651126 0.047190346 1.0666845 4870741
-0.41727495 0.047062203 1.066573 5265754
-0.4073374 0.048877262 1.0667908 5397604
-0.39906594 0.052143663 1.069978 4608350
-0.43670052 0.056069456 1.0671147 4673629
-0.42827794 0.05580385 1.0646347 4870744
-0.4197183 0.05527018 1.063965 5134174
-0.40765414 0.058555745 1.0647091 5397606
-0.39938045 0.059707694 1.0688235 4476760
-0.39353955 0.064105667 1.0714539 4015442
-0.44437748 0.062804483 1.0728173 3883351
-0.44107509 0.063922532 1.0676196 4475995
-0.40747297 0.065170363 1.0649538 5068641
-0.39865434 0.069074988 1.0672957 4082513
-0.3927238 0.070275567 1.071772 3752531
-0.4434126 0.073785461 1.0678338 4079443
-0.39769796 0.078342021 1.0679818 3621705
-0.39285046 0.076102823 1.0706577 3751503
-0.40016904 0.085826337 1.0675703 3490378
-0.42080259 0.028513584 1.0784988 5002588
-0.41762155 0.028858338 1.0784497 5528419
-0.43240997 0.036818743 1.0799922 4739163
-0.42498758 0.035171278 1.0765672 5002333
-0.41551474 0.035900921 1.076324 5397092
-0.40652838 0.038706973 1.0778074 5332066
-0.40060005 0.040266246 1.0795008 4740695
-0.4344022 0.041298963 1.0753665 4082256
-0.42742211 0.041150346 1.073367 5068120
-0.4046399 0.043869443 1.0750692 5200736
-0.39676133 0.047775097 1.0775242 4345175
-0.38984001 0.050129689 1.0799526 4278096
-0.39518321 0.057853974 1.0755497 4147028
-0.39022201 0.057354331 1.0794548 3819087
-0.39131135 0.065254904 1.0767953 3687502
-0.41207883 0.016046166 1.0876296 5528423
-0.40785217 0.017040748 1.087638 5397348
-0.42331585 0.023408405 1.0835962 4804702
-0.41388303 0.024307325 1.0828481 5462626
-0.40452152 0.025600739 1.0853469 5003105
-0.39682138 0.029844295 1.0866389 4804440
-0.43344036 0.032153264 1.0864514 3817824
-0.42723656 0.029654402 1.0818803 4673622
-0.41128892 0.031382777 1.081634 5660265
-0.40410611 0.033710938 1.0817361 5069150
-0.39535767 0.037183497 1.0839674 4475986
-0.39039493 0.0419944 1.0844779 4014924
-0.39327052 0.043989763 1.0828196 4606547
-0.38780832 0.046935841 1.0835637 3620428
-0.41766402 0.0076637622 1.0937161 4079956
-0.41106477 0.0077156182 1.0912149 5266270
-0.40521756 0.0084728599 1.0934498 5002845
-0.42122999 0.013702225 1.0926344 4079963
-0.41345006 0.012236953 1.0901774 5330781
-0.40316874 0.015335243 1.0919545 5002331
-0.40056667 0.021809727 1.0911018 5001816
-0.39667803 0.024904471 1.0926208 4540755
-0.39299464 0.032313053 1.0923153 4213074
-0.41020766 -0.0038142689 1.1040312 5265766
-0.41204882 0.0008446034 1.1018419 5068639
-0.40358165 0.0034786593 1.1014661 4214103
-0.42098895 0.0068448056 1.097744 1580089
-0.40009704 0.010839608 1.0983323 4145996
-0.39799976 0.01692044 1.098431 4212054
-0.41639405 -0.0059510116 1.1069547 3618132
-0.41082132 -0.0064409301 1.1067183 5199718
-0.40438673 -0.0046496801 1.1067693 4214875
-0.39918399 -0.065976381 1.1143428 528927
-0.39402318 -0.066082507 1.1141716 1517876
-0.39350423 -0.077560633 1.1246971 4419983
-0.40931404 -0.072196871 1.123894 1651559
-0.40407354 -0.070425585 1.1208045 1782104
-0.3918381 -0.071308807 1.1181841 4154236
-0.38695291 -0.067918465 1.1223608 3028033
-0.4017421 -0.063887671 1.1268257 2369321
-0.39406624 -0.06265536 1.1231266 2040105
-0.4037832 -0.044435743 1.1255208 4146252
-0.40820017 -0.078376107 1.1331096 5077683
-0.40119389 -0.080002382 1.1313272 4617364
-0.39178404 -0.07935857 1.1311301 4549258
-0.38716173 -0.073115699 1.1291547 6582660
-0.41054347 -0.066655859 1.1307516 7695014
-0.40326339 -0.062235039 1.1318115 2040625
-0.39535668 -0.060063291 1.1311967 2172202
-0.38810608 -0.064224139 1.1304051 2760198
-0.40123695 -0.090441339 1.1393194 4683677
-0.39557078 -0.089827247 1.1392318 3831442
-0.40957519 -0.084321111 1.1392591 3299734
-0.40237898 -0.085545182 1.1374563 4683420
-0.39377654 -0.085244238 1.1381913 3960460
-0.40008378 -0.16468024 1.1422119 3829135
-0.39205295 -0.16332984 1.1421539 4223637
-0.38581711 -0.16310129 1.1419961 3960467
-0.40187544 -0.15553182 1.1435233 3498881
-0.39355937 -0.15411884 1.1430613 3895695
-0.38588083 -0.15201622 1.1435212 3631246
-0.40302366 -0.14409415 1.1421002 3499128
-0.39573613 -0.14410338 1.1418779 4025235
-0.38702881 -0.14246735 1.143714 3499655
-0.40346083 -0.13451892 1.1414094 3826560
-0.39674205 -0.13390549 1.1417948 4156303
-0.38868997 -0.13392872 1.1440719 3630985
-0.40412644 -0.12553029 1.1456941 3893387
-0.39764765 -0.12429833 1.144096 4157333
-0.39033034 -0.12328933 1.1460885 3762828
-0.40326509 -0.11727002 1.1488227 3762325
-0.39797923 -0.11362857 1.1454599 4420507
-0.39171204 -0.11344139 1.1476518 3828877
-0.40585703 -0.10377544 1.1507555 4222878
-0.39864007 -0.10430373 1.1466939 4552347
-0.39235294 -0.10444552 1.1494459 3631755
-0.40859228 -0.095408581 1.146333 3627913
-0.39988083 -0.095884115 1.1439162 4683676
-0.39280829 -0.094244495 1.1468954 3892613
-0.39278722 -0.085926332 1.1447326 3563127
-0.40049002 -0.17528388 1.1462495 3033484
-0.3920325 -0.17568886 1.1483558 2897991
-0.38211748 -0.17374626 1.1478269 3891064
-0.3746433 -0.17241722 1.1494658 2638186
-0.40548828 -0.1665695 1.1461558 666715
-0.39441684 -0.16760731 1.1456773 4813457
-0.38122067 -0.16324016 1.1458771 3499654
-0.37399101 -0.1628539 1.1494313 3561592
-0.40733707 -0.15541688 1.1477443 6722
-0.38234895 -0.15386048 1.1472001 3694979
-0.37578502 -0.1531767 1.1491146 3233144
-0.38187009 -0.14344281 1.1486169 3104639
-0.37712094 -0.14336085 1.1516973 2640231
-0.3835755 -0.13395292 1.1499726 2907007
-0.37909326 -0.13422491 1.1543895 3099492
-0.40715423 -0.12429976 1.1520143 4089741
-0.3849636 -0.1246049 1.1516597 3496061
-0.38065439 -0.12366983 1.1563461 4278874
-0.40570211 -0.11608013 1.1530995 2972810
-0.386673 -0.1146202 1.1540999 3757171
-0.38265848 -0.11579155 1.1574894 3748927
-0.40515742 -0.11026233 1.1538824 3630740
-0.38688919 -0.10713071 1.1537585 3953004
-0.39185855 -0.18261057 1.1526269 984897
-0.38184404 -0.17765757 1.1530036 4350584
-0.3740972 -0.15299857 1.15683 4674411
-0.37497985 -0.14493281 1.1603214 6974583
-0.37788245 -0.13419807 1.1618844 3815753
-0.41068622 -0.12663653 1.1608889 5799072
-0.37814477 -0.12427006 1.1602268 5064001
-0.37298933 -0.1605522 1.1682134 7039097
-0.37383699 -0.15502083 1.1700089 7565430
-0.37544289 -0.14651313 1.17089 8223350
-0.376728 -0.13776734 1.1674181 9076613
