# .PCD v0.7 - Point Cloud Data file format
VERSION 0.7
FIELDS x y z rgba
SIZE 4 4 4 4
TYPE F F F U
COUNT 1 1 1 1
WIDTH 174
HEIGHT 1
VIEWPOINT 0 0 0 1 0 0 0
POINTS 174
DATA ascii
-0.41481432 0.080028147 1.0679513 5134174
-0.40794477 0.079279631 1.0674112 5134176
-0.41583288 0.084558502 1.0687068 4871515
-0.42048255 0.06067225 1.0724393 4936281
-0.40983987 0.059455853 1.0715939 5199967
-0.40500081 0.060051735 1.071385 5397348
-0.42941767 0.0663082 1.0735503 4673880
-0.42180711 0.067025989 1.071245 4870232
-0.41229242 0.068159297 1.0715556 5068382
-0.40257141 0.069642559 1.0717325 5068384
-0.39492184 0.071971565 1.0725818 4476504
-0.43097588 0.075743794 1.0737036 4607822
-0.42404395 0.07682848 1.0720884 4673623
-0.4130581 0.077435389 1.0715002 5134174
-0.40281326 0.079587415 1.0711941 4739419
-0.39497817 0.08010906 1.0720912 4081746
-0.43201268 0.083687887 1.076671 4410445
-0.42403498 0.086214274 1.0735221 4213839
-0.41386387 0.087976605 1.0731609 4345429
-0.40382299 0.08880201 1.0726647 4016211
-0.39563623 0.0892829 1.0734003 3621193
-0.42404598 0.09162809 1.07435 3884109
-0.41484457 0.093738168 1.0741022 3752784
-0.40449616 0.094945103 1.0736452 3621192
-0.39714009 0.094766095 1.0731618 3686459
-0.42678666 0.046124149 1.0811764 4673626
-0.418798 0.046649661 1.0778829 4870741
-0.40956867 0.046595525 1.0774896 5265754
-0.39964274 0.048484821 1.0774339 5397604
-0.39130241 0.051767331 1.0804186 4608350
-0.42903459 0.055441219 1.0787579 4673629
-0.42068964 0.055279072 1.0760199 4870744
-0.41215059 0.054822613 1.075083 5134174
-0.40009391 0.058190893 1.0755115 5397606
-0.39170763 0.059345257 1.0793904 4476760
-0.38582194 0.063748568 1.0819098 4015442
-0.43658394 0.062029 1.0847932 3883351
-0.43344948 0.063251287 1.0795155 4475995
-0.39995414 0.064802274 1.075852 5068641
-0.39109734 0.068739966 1.0779852 4082513
-0.38504237 0.069919154 1.0822976 3752531
-0.43585199 0.073091254 1.0799518 4079443
-0.39018881 0.078002781 1.0787842 3621705
-0.38524577 0.075761408 1.0812773 3751503
-0.39272633 0.085472897 1.0785627 3490378
-0.41259515 0.027841732 1.0892308 5002588
-0.40941972 0.028212082 1.0890906 5528419
-0.4242126 0.036032252 1.0912024 4739163
-0.41688591 0.034494899 1.0875292 5002333
-0.40743047 0.035302263 1.0870103 5397092
-0.39842406 0.038155835 1.0882635 5332066
-0.39245859 0.039735693 1.0898002 4740695
-0.42637756 0.040566135 1.0867085 4082256
-0.41946062 0.040502403 1.0844965 5068120
-0.39665782 0.04337373 1.0855489 5200736
-0.38873717 0.047303382 1.0878236 4345175
-0.38176274 0.049675118 1.0900769 4278096
-0.38729417 0.057423007 1.0859572 4147028
-0.38221291 0.056903239 1.0897019 3819087
-0.38344082 0.064834341 1.0871983 3687502
-0.40350607 0.015306406 1.0979005 5528423
-0.39928856 0.0163338 1.0977961 5397348
-0.41491449 0.022640575 1.0943229 4804702
-0.4055157 0.02362451 1.0933033 5462626
-0.3960923 0.02495325 1.0955368 5003105
-0.38838789 0.02923695 1.0966598 4804440
-0.42501161 0.031261753 1.0976175 3817824
-0.41893148 0.028880909 1.0928228 4673622
-0.40301192 0.030737597 1.0921198 5660265
-0.39584666 0.033120107 1.0920398 5069150
-0.3870602 0.03662692 1.0940582 4475986
-0.38211977 0.041468266 1.0944917 4014924
-0.38505912 0.043465886 1.0929521 4606547
-0.37959868 0.046443056 1.0935754 3620428
-0.40884164 0.0067894943 1.1040243 4079956
-0.40232205 0.0069308132 1.1013253 5266270
-0.39641532 0.0076999385 1.1033932 5002845
-0.41248325 0.01281552 1.1031438 4079963
-0.40477106 0.011448503 1.1004299 5330781
-0.39446354 0.014599964 1.1019419 5002331
-0.39193636 0.021106765 1.1011103 5001816
-0.38802621 0.024208546 1.1025581 4540755
-0.3844085 0.031649511 1.1022547 4213074
-0.40099058 -0.0047844071 1.1139312 5265766
-0.40293175 -0.00010753423 1.1118704 5068639
-0.39449957 0.002598105 1.1112787 4214103
-0.41203636 0.0058837533 1.108138 1580089
-0.39116621 0.010032631 1.1081541 4145996
-0.38911176 0.016127508 1.1082824 4212054
-0.40706924 -0.0070134588 1.1170077 3618132
-0.40150282 -0.0074561089 1.1165951 5199718
-0.39508304 -0.0056155156 1.1164784 4214875
-0.38920072 -0.06700708 1.1229489 528927
-0.38404688 -0.067070201 1.1226197 1517876
-0.38312343 -0.07870169 1.1329473 4419983
-0.39898944 -0.073450327 1.132706 1651559
-0.39385855 -0.071591571 1.1294868 1782104
-0.3817023 -0.072339281 1.1264836 4154236
-0.37671742 -0.068974316 1.1305618 3028033
-0.39139321 -0.065127358 1.1355342 2369321
-0.38384274 -0.063779235 1.1316235 2040105
-0.39361629 -0.04567451 1.1345904 4146252
-0.39755026 -0.079759233 1.1417878 5077683
-0.39058965 -0.081303492 1.1397691 4617364
-0.38119516 -0.080583125 1.1392969 4549258
-0.37668118 -0.074275121 1.1372784 6582660
-0.40005046 -0.068023399 1.1396822 7695014
-0.39277428 -0.063562237 1.1405885 2040625
-0.38490611 -0.061319619 1.1397679 2172202
-0.37765253 -0.065411136 1.1386931 2760198
-0.39031267 -0.091862068 1.1475978 4683677
-0.38465646 -0.091202378 1.147348 3831442
-0.39869374 -0.085807092 1.1478842 3299734
-0.39154688 -0.086947396 1.1458455 4683420
-0.38292849 -0.08659026 1.1463242 3960460
-0.38852525 -0.16612493 1.1493146 3829135
-0.38051003 -0.16471097 1.1490339 4223637
-0.37428376 -0.16443123 1.1486908 3960467
-0.39034349 -0.15701169 1.1508199 3498881
-0.38205597 -0.15552679 1.1501278 3895695
-0.3743827 -0.15337132 1.1503869 3631246
-0.3916187 -0.14556313 1.1496079 3499128
-0.38434145 -0.14551193 1.1491647 4025235
-0.37559459 -0.14383574 1.1507609 3499655
-0.39214721 -0.13598226 1.1490777 3826560
-0.38542452 -0.13532214 1.1492686 4156303
-0.37730694 -0.13531676 1.1513001 3630985
-0.39274833 -0.12706491 1.1535181 3893387
-0.38633043 -0.12575826 1.1517434 4157333
-0.37896353 -0.12472223 1.1535285 3762828
-0.39185309 -0.11884639 1.1567454 3762325
-0.38669893 -0.11511326 1.1532804 4420507
-0.38036951 -0.11491016 1.1552839 3828877
-0.39448434 -0.10540326 1.1589627 4222878
-0.38739058 -0.10581358 1.1546767 4552347
-0.3810218 -0.10594772 1.1572344 3631755
-0.39741445 -0.09699218 1.154754 3627913
-0.38877729 -0.097362921 1.1520674 4683676
-0.38162965 -0.095713198 1.1548557 3892613
-0.38173565 -0.087363377 1.1528212 3563127
-0.38873035 -0.17679124 1.1531994 3033484
-0.38020992 -0.17716177 1.1550419 2897991
-0.37033015 -0.17513382 1.1542428 3891064
-0.36281955 -0.17377126 1.1556746 2638186
-0.3937932 -0.16811581 1.153391 666715
-0.38273409 -0.16905956 1.1525613 4813457
-0.36957046 -0.16459276 1.152428 3499654
-0.36223906 -0.16420369 1.1557671 3561592
-0.39567488 -0.1570033 1.1552057 6722
-0.37072706 -0.15524328 1.1539284 3694979
-0.36411315 -0.15453716 1.1556534 3233144
-0.37028202 -0.14484479 1.1554898 3104639
-0.36544213 -0.14477223 1.1584257 2640231
-0.37201527 -0.1353901 1.157042 2907007
-0.36739886 -0.13569371 1.1613163 3099492
-0.39559147 -0.12595379 1.1599451 4089741
-0.37342024 -0.12607981 1.1589137 3496061
-0.36897746 -0.12518196 1.1634811 4278874
-0.39416754 -0.11774038 1.161112 2972810
-0.37512812 -0.11614683 1.1615576 3757171
-0.37100381 -0.11733779 1.1648054 3748927
-0.39364219 -0.111931 1.1619672 3630740
-0.37540975 -0.10865495 1.1613377 3953004
-0.37985513 -0.18414566 1.1591991 984897
-0.36987054 -0.1791207 1.1593481 4350584
-0.36219272 -0.15446244 1.1633159 4674411
-0.36302817 -0.14645752 1.1669558 6974583
-0.36596084 -0.13577069 1.1687707 3815753
-0.39883453 -0.12845202 1.1688859 5799072
-0.3663466 -0.12582111 1.1672744 5064001
-0.36068347 -0.16217835 1.1745433 7039097
-0.36151683 -0.15668157 1.1764483 7565430
-0.36315781 -0.148201 1.1775081 8223350
-0.36461234 -0.13941407 1.1742114 9076613
