# .PCD v0.7 - Point Cloud Data file format
VERSION 0.7
FIELDS x y z rgba
SIZE 4 4 4 4
TYPE F F F U
COUNT 1 1 1 1
WIDTH 1131
HEIGHT 1
VIEWPOINT 0 0 0 1 0 0 0
POINTS 1131
DATA ascii
0.0086681983 0.023920119 0.98678917 5802194
0.018028591 0.022839181 0.98551744 6132189
0.025612742 0.022724479 0.98631489 5737423
-0.0085290708 0.026693307 0.98880523 4350608
0.00026591122 0.025932655 0.98855603 4285852
0.009460466 0.027259804 0.98700744 4022164
0.01853244 0.027920611 0.986615 4153228
0.026724095 0.028368123 0.98790884 4284293
-0.077903762 0.0033088103 0.99913859 6128822
-0.073697537 0.0043886527 0.99905074 5801146
-0.070146382 0.0094015524 0.99793994 5272735
-0.062330972 0.011526711 0.99522096 5536936
-0.053013895 0.01394669 0.99345785 5801142
-0.043350458 0.015230842 0.99247956 6263759
0.079312995 0.010480665 0.99513453 5864111
-0.059529167 0.018282346 0.99747646 5270664
-0.050635982 0.020322986 0.99496591 5008273
-0.041384429 0.020876057 0.99375081 5206430
-0.031874981 0.022841953 0.99267459 5074073
-0.022937275 0.022630394 0.99467295 5274031
-0.01292447 0.02424147 0.99187005 5405876
-0.0044084713 0.024114117 0.991642 5998788
0.0041075209 0.023986779 0.99141389 5802444
0.030648062 0.022642091 0.99168313 5538507
0.038585797 0.022263981 0.99182874 4944316
0.047758333 0.021436095 0.99220479 5008558
0.058343593 0.020958237 0.99374872 4612496
0.065152228 0.018310584 0.99567908 4546960
-0.047072444 0.026654594 0.99882936 5401735
-0.041340537 0.026566081 0.99687481 5270150
-0.031009208 0.02695588 0.99669564 5203846
-0.018489875 0.028367899 0.99735993 4875914
-0.011093136 0.030176349 0.9936657 4875142
-0.0015899017 0.030130677 0.99412799 4743815
0.0071339812 0.03094127 0.99373609 4678280
0.017787024 0.032512598 0.99363834 4809598
0.030641662 0.03015364 0.99223113 4612484
0.038337253 0.028654002 0.99320197 4677249
0.047664236 0.027697019 0.99422657 5005437
0.057793934 0.027775265 0.99607909 5268860
-0.0097992532 0.035619952 0.99803776 5006720
-0.09039937 -0.0070675686 1.0078491 5932737
-0.086112052 -0.005385384 1.0071719 5933251
-0.090678364 -0.0016894117 1.0087373 6192539
-0.082667589 0.0016460046 1.0041444 5930664
0.091854468 0.0028367862 1.002308 6983363
0.099095404 0.0016764477 1.0054265 6061227
0.10443597 0.0022631139 1.005298 5400966
-0.079794437 0.0099053532 1.0057105 6189971
-0.073117539 0.0128778 1.003222 5861520
-0.065448001 0.015472509 1.0020747 5664907
0.071556821 0.012946315 0.99839503 5996731
0.079555467 0.011378251 0.99969572 5731750
0.089052305 0.0096080974 1.0028626 5927827
0.097382918 0.0067972168 1.0055829 5861518
-0.070424214 0.017414205 1.0076517 6058377
-0.059422512 0.020626396 1.0053624 5467271
-0.053928707 0.023894064 1.0047044 5466762
0.069409445 0.0195667 0.9999963 5268360
0.07790637 0.017634727 1.0031983 5663111
0.086176038 0.0150638 1.004558 6517124
-0.052003872 0.026739277 1.0059658 5532297
-0.038198799 0.029082455 1.0036502 5204613
-0.031900741 0.031402506 1.0048288 5138821
-0.022319105 0.030724488 1.0020833 4876167
-0.014547711 0.033813961 1.0011261 5138310
-0.0030902438 0.033642627 1.0008191 5138050
0.039557002 0.033004932 0.99967694 5006203
0.049197573 0.031909101 0.99977326 5202812
0.057216849 0.030448563 0.99915421 5203582
0.067065686 0.026109427 1.0026016 5597049
-0.028845187 0.036026709 1.009557 5269636
-0.02038442 0.036642112 1.006845 5204101
-0.010851447 0.036912493 1.0049727 5072257
-0.0010473542 0.036520533 1.0042295 5006718
0.0084871911 0.036362208 1.002673 4875393
0.018197259 0.036253311 1.0054156 4875390
0.028671207 0.036011688 1.005306 4874877
0.038818248 0.035828851 1.0039824 5006460
0.046040766 0.034879215 1.0050492 5202811
-0.10108186 -0.0092469305 1.0146884 6980776
-0.09495914 -0.009058997 1.0133297 6129600
-0.099837363 -0.0027781874 1.0177976 7570324
-0.092582494 0.00030619651 1.0140704 6651024
-0.086277083 0.0060194358 1.0134273 6781327
0.097062454 -0.00058445334 1.0084331 6854356
0.10868303 -0.00069121271 1.0099577 7111067
-0.081904277 0.011732295 1.0145612 6583439
0.10017049 0.010561436 1.0093931 6845830
0.10843419 0.0077847689 1.0113156 7436672
-0.069343135 0.022449218 1.0169806 6321290
-0.063171968 0.023289606 1.0158172 5795463
0.07947804 0.020911828 1.0133672 5860223
0.089037254 0.016130753 1.0108092 6649473
0.096595779 0.015310094 1.0147939 6977411
-0.069693059 0.027020596 1.0171963 7372164
-0.060281683 0.02720169 1.0157005 6123396
-0.050801408 0.031376801 1.0177082 5729669
-0.042255931 0.031827293 1.0175128 5336195
-0.035633963 0.034230284 1.0126994 5270149
0.06951198 0.02831281 1.009789 5532277
0.077107236 0.02521567 1.0143237 5860472
-0.051183488 0.036460511 1.0191628 6714755
-0.042121086 0.036325015 1.0189201 5794947
-0.031340592 0.03788776 1.0165675 5466498
-0.020877659 0.040330805 1.015193 5466240
-0.010362303 0.040675439 1.0160729 5334655
6.2119216e-005 0.040689759 1.0142965 5138044
0.0091337711 0.04120142 1.014668 5072252
0.018790755 0.04088562 1.0137129 5072247
0.02842458 0.040203609 1.0130638 5137530
0.038738303 0.039272331 1.0164157 5137788
0.047641393 0.035920851 1.0135345 5268347
0.11558197 -0.0088635013 1.0167687 7374502
-0.10024646 0.00038617104 1.0268251 9214113
-0.091414526 0.0042042136 1.024816 6978442
0.11171691 -0.0068573654 1.0169145 7112109
0.11627944 -0.0027365312 1.0175151 8686741
-0.089439213 0.0099367201 1.0255028 7636109
-0.08404839 0.013974987 1.0245472 7437970
0.11645295 0.0054113567 1.0170553 9277068
0.082404986 0.022156365 1.0193201 5992060
0.089002311 0.01993946 1.0216823 6451580
0.095837221 0.018703364 1.0202239 6516347
-0.059181008 0.029474817 1.0232251 6254982
-0.055376675 0.033691593 1.0292195 6648965
-0.039625697 0.032424279 1.0217711 5270660
0.063899502 0.03285215 1.022043 5662844
0.069746792 0.031398155 1.0219568 5794679
0.078274228 0.028507866 1.0205678 5926261
0.086466879 0.02470158 1.0232702 6253428
-0.049306076 0.03843344 1.0239086 7043204
-0.040194776 0.038960196 1.0240959 6188928
-0.029745474 0.041877441 1.0248166 5991293
-0.019945841 0.043879934 1.0247008 5794427
-0.01018505 0.043719016 1.0236386 5597052
-0.0020262878 0.043184884 1.0222104 5399930
0.0072994586 0.043412663 1.0207679 5203324
0.018011563 0.04325249 1.020481 5269365
0.030730752 0.043081038 1.0211413 5334394
0.039941546 0.041898273 1.0228732 5466234
0.046485037 0.039967664 1.023492 5597049
0.063944995 0.035782568 1.0221053 5991033
0.068623789 0.035600536 1.0242647 6055795
-0.017959949 0.045800559 1.0244898 6056827
-0.0088422298 0.046717204 1.0277705 5859449
-0.000497045 0.046764381 1.0264502 5728377
0.0087019186 0.046044819 1.0277921 5532027
0.019338554 0.045325272 1.027495 5532021
-0.097260267 0.0018805712 1.032639 7306630
-0.095278308 0.0028346255 1.0326073 7438985
-0.077341318 0.020242341 1.038514 7044228
-0.073501125 0.020200223 1.0354097 6255491
0.091409445 0.022176251 1.0280875 6187632
0.09682551 0.022587113 1.0279531 6119529
-0.059017312 0.032393537 1.0322893 6780808
0.05961097 0.032980539 1.0291634 5465215
0.083338022 0.027400546 1.0334175 6056820
0.089388803 0.026647978 1.03154 5988198
-0.046498902 0.040469386 1.0321333 7108737
-0.040003005 0.043187208 1.0353223 7108222
-0.031687636 0.04418271 1.031822 6582396
0.051204987 0.040197678 1.0317936 5859705
0.056495883 0.038291268 1.0303615 5728122
-0.027045671 0.047448583 1.0342715 6713719
-0.020580735 0.048239388 1.0355184 6450807
-0.012411155 0.048374616 1.0336542 6122104
-0.00056714378 0.049182646 1.0333585 6122617
0.011774788 0.049503274 1.0334557 6057083
0.018122777 0.049232952 1.0342158 6057334
-0.082285553 0.019025199 1.0416201 7832202
0.083159074 0.030726545 1.0374967 5792617
0.086134806 0.03068205 1.0374169 5724767
-0.038630817 0.046439432 1.04106 7764863
-0.018730931 0.050110929 1.0406132 6384242
-0.0098037049 0.049977444 1.040374 6121843
0.16226013 -0.080447227 1.0520028 13950701
0.16529013 -0.080492534 1.0519216 13160147
0.16432717 -0.077447057 1.0520132 13423577
0.1633745 -0.090292759 1.0587637 12898285
0.16733375 -0.0913193 1.0581363 12832198
0.1619709 -0.084274001 1.0570731 10136266
0.16872934 -0.08485572 1.056989 13159885
0.16245461 -0.078027859 1.0585538 12175571
0.16772008 -0.076968193 1.0549355 13093836
-0.14153309 -0.10630578 1.0782905 1720740
-0.14220241 -0.09939608 1.0782462 3628972
-0.14310171 -0.093252614 1.0798159 4745397
0.16292228 -0.092260256 1.0677382 6256041
0.1674301 -0.095014282 1.0677593 12767188
0.16136648 -0.083196804 1.0699772 7312841
-0.13953638 -0.13077645 1.0889132 2903988
-0.1364207 -0.13082305 1.0888298 1324707
-0.14083022 -0.11871061 1.0884588 2904505
-0.1394168 -0.10994391 1.0872608 2644141
0.16303909 -0.11244445 1.0813054 5801403
0.16746491 -0.11285694 1.0811794 11779799
-0.13898326 -0.098815918 1.0855898 3039906
0.16231106 -0.10331585 1.0805221 3630254
0.16850106 -0.104216 1.0797502 11516624
0.17563079 -0.10432131 1.0811485 13685195
-0.14128093 -0.089866102 1.0882097 2708908
0.16220115 -0.094827823 1.0798336 3762605
0.16686513 -0.098663181 1.0785015 10465738
0.16235629 -0.087931201 1.0758518 6721740
-0.13863346 -0.072609961 1.0901514 1588628
-0.13551778 -0.072656557 1.090068 3826867
-0.13306494 -0.14636394 1.0944073 3694011
-0.13798937 -0.13971801 1.0926806 7178192
-0.13271897 -0.13956976 1.0936989 2114980
-0.13801984 -0.12824744 1.0929303 1063065
-0.13356134 -0.13115294 1.0936499 2447769
-0.13743342 -0.12069637 1.0930786 2578847
-0.13484626 -0.12035397 1.0960194 2907546
0.16279577 -0.12355997 1.0865738 6851775
0.16834809 -0.12314601 1.0849349 13029078
-0.13656807 -0.11063429 1.0940245 3104917
-0.13465153 -0.10780976 1.0962864 3170462
0.16157152 -0.11275099 1.0868407 3040417
0.17119664 -0.11618736 1.0850106 13422807
0.17416382 -0.11310352 1.0849991 13619661
-0.13845989 -0.098084576 1.0943469 3104162
0.16044515 -0.10450821 1.0864061 2973607
-0.13765869 -0.089777604 1.094756 3169952
0.16107398 -0.094456643 1.0887518 2843043
-0.13932842 -0.08005812 1.0941685 3301299
-0.12786292 -0.15855898 1.1040109 4750553
-0.12420216 -0.16088194 1.1058649 1196192
-0.12984894 -0.15119678 1.1010213 3036848
-0.12584963 -0.15364082 1.1060655 1789334
0.1581604 -0.15379581 1.0960462 12898004
-0.12859252 -0.14035285 1.1026464 2776475
0.1587705 -0.14468339 1.0951272 9087435
0.16455986 -0.14005727 1.0916723 13488846
-0.13067816 -0.12957987 1.102713 3038106
0.15876287 -0.13401285 1.0943583 4354994
0.16657189 -0.13211189 1.0917915 13752800
-0.13236246 -0.11987722 1.1044134 2973083
0.15891069 -0.12426364 1.0954741 2121388
-0.1371049 -0.10616318 1.1003894 3301280
-0.13370518 -0.11124273 1.1038277 3039132
0.15970729 -0.11616927 1.0934864 2646946
0.17606066 -0.11120693 1.0949959 13817039
-0.13700718 -0.099868223 1.1005234 3366820
-0.13433768 -0.1004812 1.1054424 3105183
0.15836325 -0.10397759 1.097322 3631271
0.17714521 -0.10911863 1.0950124 13817037
-0.13683346 -0.08867719 1.1007615 3499424
-0.13405804 -0.089818776 1.1044656 3302563
0.15816788 -0.093707956 1.0967907 3369127
-0.133882 -0.080314115 1.104367 3434147
0.16025665 -0.08417625 1.0979108 2908578
0.16599905 -0.081593201 1.0959046 8233160
-0.13841048 -0.069037735 1.102087 3365295
-0.13303161 -0.070393324 1.1049061 3499689
0.16118987 -0.074607581 1.0978315 4024485
0.16612969 -0.073177069 1.0960838 11192030
-0.13668288 -0.06023103 1.1043766 2181536
-0.13142371 -0.060193319 1.1054389 3433908
0.16056447 -0.069213763 1.1003194 2708114
-0.13483317 -0.052123841 1.108506 8233201
-0.13107072 -0.053262379 1.1066663 3564980
0.013977133 0.11760297 1.104249 9935247
0.019701371 0.11841927 1.1041152 9934992
-0.11849393 -0.17006442 1.1142119 929696
-0.11425617 -0.17053027 1.1163987 1984411
0.14808668 -0.17018694 1.109465 13424882
-0.11941819 -0.16043985 1.1121515 2512540
-0.11474073 -0.16247779 1.1152521 2906513
0.14943711 -0.16423258 1.1071126 8955594
0.15501654 -0.16289699 1.1034364 14080986
-0.12633419 -0.14626727 1.1132424 2381461
-0.12325114 -0.15153544 1.1149851 2776212
0.14977291 -0.15461121 1.1060762 3697834
-0.12666705 -0.14035943 1.1142132 2841752
-0.12452057 -0.14477973 1.117229 2906774
0.15179284 -0.14473586 1.1067173 2646183
-0.12836426 -0.12979536 1.1155118 2907034
-0.12435505 -0.13411677 1.117456 2775704
0.15253429 -0.13603663 1.107987 3696546
0.15464328 -0.13152024 1.1074623 3761571
-0.12927331 -0.12030094 1.1143283 2973083
0.15639827 -0.12543269 1.1068809 3368880
-0.13022302 -0.1100679 1.1140307 3039134
0.15686421 -0.11382417 1.1067263 3500454
-0.13024586 -0.099612467 1.113958 3171232
0.15595092 -0.10539431 1.107947 3631529
-0.13068537 -0.090822861 1.1134599 3302564
0.15449347 -0.094889 1.1039252 3697839
0.15498585 -0.095211625 1.106907 3763633
-0.13059333 -0.08028762 1.1144866 3368355
0.15571868 -0.083962284 1.1068457 3436468
0.17008974 -0.080559194 1.1068252 10992842
-0.12809356 -0.069908671 1.1146456 3697068
0.15389068 -0.071085095 1.1114618 3765679
0.15692405 -0.0735275 1.1065075 3830452
0.16980161 -0.076303937 1.1069252 11387079
-0.12693326 -0.062104266 1.1125829 3631022
-0.12472154 -0.058917541 1.1120933 3500456
0.15328576 -0.064098731 1.1087388 3830449
0.15992606 -0.064638533 1.1060704 5207985
0.16653542 -0.065834336 1.109907 10334913
-0.12692949 -0.05012599 1.1149154 3434161
0.15255792 -0.055152185 1.108698 3893939
0.1596206 -0.055724539 1.1076967 8428221
-0.12693509 -0.040173031 1.118705 6194370
-0.12233226 -0.038158029 1.1194845 4421311
0.15065664 -0.043342914 1.1110578 5734064
0.15692852 -0.047133274 1.111901 10203587
-0.1208961 -0.031513609 1.1195908 6852289
0.14920832 -0.037355378 1.1091156 8955077
0.021020215 0.094082974 1.118561 9737616
-0.088230088 -0.2074838 1.1232466 7635861
-0.084784031 -0.20808473 1.1258105 8100012
-0.098259851 -0.19747205 1.1263974 10535920
-0.091339231 -0.20020184 1.1238008 5996227
-0.084728315 -0.2044955 1.1258869 6394567
-0.10830498 -0.18611754 1.1189048 8431615
-0.1012734 -0.18872534 1.121433 1526185
-0.095022053 -0.1912986 1.1253021 1262491
0.12869085 -0.19189049 1.1205137 11717846
-0.11672437 -0.17743644 1.119316 7571711
-0.1097376 -0.17984286 1.1206354 1917611
-0.10270187 -0.1825493 1.1241704 2379673
-0.095922723 -0.18565977 1.1265918 2644619
0.13038683 -0.18504344 1.1206174 5010097
0.13765107 -0.18212061 1.117344 10599906
0.14474712 -0.18099812 1.116323 14081762
-0.10959567 -0.17107183 1.1234784 2709143
0.13159378 -0.17446224 1.120815 2909858
0.13814779 -0.17400393 1.1168312 4026283
0.1456418 -0.17422989 1.112944 12307424
-0.11640903 -0.15712255 1.1197484 2775446
-0.11201653 -0.16146344 1.1224488 2775442
0.13955878 -0.16509575 1.1178058 3105445
0.1443823 -0.16423036 1.112694 2578854
-0.1182721 -0.14994189 1.1221086 2775449
-0.11397527 -0.15250778 1.1264547 2906778
0.1420771 -0.15536366 1.1193511 3564451
0.14533846 -0.15434948 1.1152846 3433893
-0.12195867 -0.1412338 1.123536 2840984
0.14374247 -0.14723976 1.1210843 3565217
0.14741458 -0.14506453 1.1156979 3499430
-0.12666774 -0.12916471 1.1206264 2841497
-0.12355466 -0.13111691 1.1265053 2907290
0.1499164 -0.13453016 1.1181949 3237547
-0.12665844 -0.11974344 1.1224315 2973083
-0.1238177 -0.12036183 1.1267456 3038877
0.15318926 -0.12491917 1.1194994 3827369
0.15570319 -0.12376241 1.1132725 3564710
-0.12752798 -0.1097892 1.1239284 3039391
-0.12481785 -0.1118249 1.1276243 3170977
0.15360971 -0.11483417 1.1195252 3565735
0.15583597 -0.11520919 1.1134547 3500198
-0.12747036 -0.10164448 1.1262478 3170977
0.15399951 -0.10580812 1.1190437 3631790
0.15512729 -0.10756028 1.121644 3434923
-0.12748797 -0.09107057 1.1254771 3302823
0.15384561 -0.094357975 1.119463 3566513
-0.12733704 -0.081043787 1.1243565 3368614
0.15308572 -0.085091934 1.1197226 3632560
-0.12667866 -0.073376611 1.1258396 3565995
0.15201199 -0.074881382 1.1187 3895728
-0.12346868 -0.058411349 1.1276803 3697842
0.14979018 -0.064860366 1.1175088 4158132
-0.12171119 -0.050108023 1.1265769 3502262
0.14885694 -0.054204609 1.1189654 4027837
-0.11893454 -0.04062346 1.126123 3698611
0.14428718 -0.042777039 1.1233366 4619197
0.14989597 -0.045842428 1.1175799 4946612
-0.12519063 -0.034010112 1.1226519 7180220
-0.11736929 -0.031282417 1.1297084 4815032
0.14428508 -0.036281656 1.1228105 5209534
0.14884108 -0.034441188 1.1153922 8425655
0.022154629 0.089975961 1.1214437 9474444
-0.061228398 -0.21844989 1.1319665 8300241
-0.079405069 -0.20990655 1.1289943 7642055
-0.071869075 -0.21072206 1.1309148 4815810
-0.065126747 -0.21430457 1.1321596 5210825
-0.088364914 -0.19785243 1.1291291 932767
-0.081407085 -0.20143595 1.1305524 2382238
-0.072778508 -0.20465371 1.1325713 2251168
0.11071075 -0.20414639 1.1277276 6518691
0.11652382 -0.20317689 1.1261654 11319227
-0.089937881 -0.19112784 1.1311843 2447513
-0.084543437 -0.19472462 1.1330981 2513045
0.11850475 -0.19499294 1.1266668 4617903
0.12546769 -0.19505057 1.1235322 10929103
-0.099230573 -0.17995431 1.1312603 2971544
-0.093365014 -0.18381843 1.131567 2774929
0.12070404 -0.18574595 1.1261948 2909086
0.12556104 -0.18482041 1.1237518 3105187
-0.10659568 -0.16662338 1.1302891 2709911
-0.1019925 -0.17180145 1.1324092 2644371
0.12724756 -0.17504424 1.124535 3368356
-0.10877495 -0.1600152 1.1323093 2775444
-0.10384901 -0.16423008 1.1329365 2709910
0.13184457 -0.16526875 1.1256106 3368613
0.13605316 -0.16233262 1.123962 3499683
-0.11186253 -0.15139307 1.1322597 2841497
0.13382214 -0.15789351 1.1281197 3237027
0.13852097 -0.1551978 1.1253856 3302821
-0.11763558 -0.13969749 1.1317371 2645144
-0.11411163 -0.14153036 1.1341453 2775964
0.14181596 -0.14533198 1.1263615 3237542
0.14593555 -0.14179623 1.1254803 3106215
-0.11931179 -0.13129318 1.1328474 2907291
0.14334984 -0.13581395 1.1270126 3499683
0.14644088 -0.13384727 1.1254488 3303338
-0.12011781 -0.1213765 1.13403 3039134
0.14819382 -0.12538882 1.125855 3499947
-0.12510478 -0.10695343 1.1320735 3236770
-0.12292488 -0.11134665 1.1352557 3236770
0.15009843 -0.11491964 1.1264384 3500458
-0.12500423 -0.10047568 1.1322113 3237027
-0.12317915 -0.10094999 1.1361551 3302821
0.15264012 -0.10441994 1.1270669 3632048
-0.1248534 -0.090759054 1.1324182 3302824
-0.12303621 -0.091740802 1.1363511 3302569
0.15104835 -0.095505893 1.1271983 3632047
-0.12514444 -0.08168374 1.1326228 3434408
-0.12222618 -0.079445347 1.1365964 3434665
0.14781885 -0.0844042 1.1271609 4026292
-0.12455174 -0.071325794 1.1328319 3631531
-0.12270825 -0.070613846 1.1368009 3631531
0.1480132 -0.076400444 1.1259549 4157366
-0.12445118 -0.06484805 1.1329697 4025255
-0.12116225 -0.059823748 1.1352788 3632304
0.14764793 -0.064597249 1.1257759 4289211
-0.11757877 -0.050874092 1.1348064 3568048
0.14467795 -0.053800002 1.1267558 4094399
0.14697544 -0.058249548 1.1279325 4224702
-0.11622204 -0.044813409 1.1331868 3764911
-0.11265013 -0.040605772 1.135685 3895729
0.14227395 -0.045360446 1.1277909 4487616
-0.11707547 -0.026760876 1.1366028 6458567
-0.11221638 -0.030593097 1.1357907 3895996
0.14234705 -0.034302928 1.1269737 5735616
0.14924696 -0.031144999 1.1264595 9477559
-0.11656855 -0.024107203 1.1376475 6852289
-0.11331867 -0.024155803 1.1375605 5933254
0.054797783 0.075015269 1.1312619 9474701
-0.02432619 -0.22970715 1.1427529 7248329
0.0084605198 -0.2317718 1.1410402 5801654
0.016483283 -0.23075116 1.1403164 5210039
0.029298261 -0.2316041 1.1412929 6328255
0.036961325 -0.23171869 1.1410878 7379645
0.048518624 -0.23176983 1.1407808 8430007
0.056388166 -0.23002899 1.136608 8625323
-0.062300485 -0.22084421 1.1359453 9678537
-0.051307354 -0.22114933 1.1421779 4422071
-0.041945137 -0.2219969 1.1433864 2778029
-0.032214623 -0.22395715 1.1430864 2513574
-0.024645772 -0.22678205 1.1428249 2315684
0.0052653337 -0.22795939 1.1420079 2120102
0.017307291 -0.22813946 1.1416854 2185635
0.030460967 -0.22724101 1.1413568 2186146
0.035917588 -0.22841772 1.141187 2316696
0.051277705 -0.22645718 1.1408231 4486314
0.058788028 -0.22613204 1.1386303 5997746
0.070000947 -0.22335866 1.1392514 6063288
0.078720585 -0.22204904 1.1401926 6589614
0.086818114 -0.22238915 1.139971 8757678
-0.067550376 -0.20880327 1.1363454 1855898
-0.060785126 -0.21148184 1.1393483 2249885
-0.05303425 -0.21399349 1.1431258 2381985
-0.044921983 -0.21625781 1.1435897 3039902
0.072786272 -0.21637525 1.1404728 2841504
0.078815743 -0.21591786 1.1403232 3302564
0.08837764 -0.21377715 1.1387825 4420011
0.098073527 -0.2129958 1.1341593 6984117
0.10749087 -0.21033317 1.131681 6254993
-0.078507766 -0.19813764 1.1376672 2710418
-0.070740834 -0.2015937 1.1409698 2775447
-0.063980296 -0.20398384 1.1435598 2906776
0.090971842 -0.2059437 1.1398177 3171492
0.099426374 -0.20463693 1.1368207 3237285
0.10766679 -0.20345598 1.1323973 3629215
-0.081180438 -0.19123471 1.14189 2775191
-0.07303457 -0.19490185 1.1441298 2906012
0.10156655 -0.1954973 1.1384966 3040421
0.10844412 -0.19384524 1.1349626 3105703
0.11426666 -0.19412208 1.1318535 2777257
-0.096412838 -0.17683436 1.1378027 2710677
-0.089616135 -0.18089548 1.1410663 2709909
-0.083391801 -0.18464926 1.1432922 2709910
0.10982014 -0.18556362 1.1386869 3368100
0.11731188 -0.18374731 1.1341325 3302561
-0.097456798 -0.1703414 1.1410842 2710421
-0.092609867 -0.17335275 1.1449819 2644886
0.11203675 -0.17786664 1.1402699 3040936
0.12006925 -0.17484371 1.1380347 3237031
0.12643942 -0.17197624 1.1350136 3368615
-0.10698013 -0.15710145 1.1385105 2776209
-0.10149448 -0.16176552 1.1430169 2841240
0.12228797 -0.16643608 1.1402466 3237287
0.12864035 -0.16419531 1.1349813 3302822
-0.10775718 -0.15053466 1.1432096 2710683
-0.10304056 -0.15395686 1.1458122 2841499
0.13110039 -0.15587014 1.137653 3237541
0.13601179 -0.15314776 1.1337681 3237798
-0.10973619 -0.1419633 1.1440578 2907293
0.13298906 -0.14718828 1.1403811 3237797
0.13762811 -0.14460814 1.1353114 3303334
-0.1159658 -0.13008893 1.1404779 2907805
-0.11363305 -0.13188882 1.1464378 2907805
0.13968079 -0.13533109 1.1380154 3434407
-0.11627993 -0.1208104 1.1422122 3039392
-0.11353962 -0.12214723 1.1474472 3039391
0.14176886 -0.12578796 1.1380402 3500202
0.1458196 -0.12281927 1.1325657 3631274
-0.11923662 -0.11163933 1.1443572 3170979
0.14393564 -0.11559936 1.1403322 3631791
0.14718264 -0.11495608 1.134479 3566510
-0.11944875 -0.10131244 1.1457685 3105957
0.1432538 -0.10445024 1.1393692 3632305
0.14831474 -0.10549488 1.1332091 3501227
-0.11973493 -0.091234803 1.1437078 3237546
0.14291401 -0.095356233 1.1386962 3698099
0.14738977 -0.095695145 1.133513 3698094
-0.11895448 -0.08150436 1.1441364 3434923
0.14430819 -0.086115777 1.1394056 3895479
0.14635968 -0.088027537 1.1333064 3895477
-0.11839701 -0.071069658 1.1449676 3566256
0.14477763 -0.074849784 1.1409718 4027579
0.14719121 -0.07423909 1.1375858 4157882
-0.1172844 -0.062161241 1.1443746 3567024
0.14287329 -0.065273657 1.1407198 4159422
0.1470816 -0.065389171 1.1361798 4289724
-0.11487617 -0.052314572 1.1423272 3567791
-0.11160307 -0.050543312 1.1476154 3764403
0.14128067 -0.055181663 1.1394899 4356797
-0.10988492 -0.041504666 1.1416674 3830196
0.13874319 -0.045542091 1.1388322 4619718
-0.10818158 -0.030679576 1.1441962 3896507
0.13485165 -0.033602811 1.1396835 4817095
0.13928308 -0.034177668 1.1363297 4948420
-0.11561523 -0.021418959 1.1456853 6916535
-0.10814583 -0.02205433 1.145166 5210049
0.13416049 -0.02724684 1.141952 5013440
0.13856409 -0.02684591 1.1395094 5998788
0.034922145 0.048392691 1.1420736 5859448
0.043068208 0.048387833 1.1399997 6122362
0.048706912 0.048368193 1.1428518 6319482
0.0599395 0.049381591 1.146579 5330522
0.035532538 0.052862771 1.1406298 5792108
0.043353647 0.053602256 1.1399052 5527648
0.048774656 0.052732386 1.1429448 5067354
-0.018504918 -0.22983056 1.1455979 4354997
-0.011111839 -0.23101106 1.1473778 4684224
-0.0012529977 -0.23083293 1.1456534 4289976
0.0097428877 -0.22868443 1.1448754 2054307
0.020161368 -0.22938919 1.1445844 2777510
0.025632225 -0.23056898 1.1444141 4026798
0.042095907 -0.23081514 1.1439731 5604271
0.045962989 -0.22922602 1.1439053 4881326
-0.037316691 -0.21919698 1.1463263 3039902
-0.02937169 -0.22024418 1.1465937 2710943
-0.020862136 -0.22233997 1.1491292 2645152
-0.010943841 -0.22541773 1.1521642 2514339
-0.0010194872 -0.22545114 1.1513672 2514851
0.0088924728 -0.22306135 1.1496226 2842787
0.018722055 -0.22273785 1.1471683 2908579
0.028408282 -0.22249818 1.1474063 3039651
0.038616527 -0.22337747 1.148229 2908578
0.047969513 -0.22264022 1.1477474 2778020
0.057961505 -0.22107887 1.1451941 2646433
0.067453824 -0.22387454 1.1434528 5012145
0.078958526 -0.22532752 1.1431168 8955830
-0.050204065 -0.21059202 1.1471399 2841242
-0.040343415 -0.21285564 1.1488787 2775960
-0.031307403 -0.21430703 1.1505426 2841500
-0.021838743 -0.21670002 1.1539757 2907551
0.0098549332 -0.21643689 1.1531428 3105184
0.019070607 -0.21620618 1.152904 3170722
0.029017357 -0.21635491 1.1526376 3302053
0.039156884 -0.21595374 1.1523781 3170723
0.049670536 -0.21518961 1.1521164 3105188
0.058965508 -0.21449868 1.1501702 3170467
0.068468645 -0.21434844 1.1460341 3236258
0.078611448 -0.21101663 1.1438813 3171236
-0.066644609 -0.19899499 1.1475407 2906776
-0.060121287 -0.20135295 1.1484604 2907033
-0.051592711 -0.20254403 1.1519016 2841497
-0.042320345 -0.20681202 1.1547321 2775704
0.060082909 -0.20908031 1.1519735 3105443
0.068924472 -0.20921251 1.1517367 3105443
0.079738811 -0.2056299 1.1502644 3105956
0.08805275 -0.20280829 1.1465667 3105956
-0.077449992 -0.18785372 1.1480683 2644884
-0.070359841 -0.19159162 1.1508014 2775705
-0.061966408 -0.19464612 1.1531812 2841497
0.083463579 -0.19837405 1.1515872 3172006
0.091128588 -0.19608542 1.1504335 3040421
0.096959531 -0.19376974 1.147828 2974628
-0.086094305 -0.17894071 1.1484904 2645144
-0.079400972 -0.18087402 1.151332 2710425
-0.074102327 -0.18370664 1.1526438 2776216
0.10056631 -0.18519011 1.1481689 3171493
0.10549451 -0.18296635 1.1449349 3237026
-0.088938907 -0.17093663 1.1513292 2710424
-0.082501933 -0.17332631 1.1550665 2710937
0.10366592 -0.17877556 1.1514779 3302823
0.10997437 -0.17471781 1.1482394 3172005
0.11579421 -0.17164657 1.1473094 3172006
-0.097500771 -0.1593727 1.1492168 2841498
-0.093016714 -0.16206485 1.1539657 2907290
0.11267906 -0.16785447 1.1514764 3303592
0.11894181 -0.16453789 1.1500486 3237544
0.12498167 -0.16013756 1.1433136 3303337
-0.099088594 -0.15092884 1.1511573 2973342
-0.094381899 -0.1542552 1.15725 3038879
0.12271006 -0.15684551 1.1507828 3237544
0.12699617 -0.15378404 1.1461998 3303336
-0.10695049 -0.1392442 1.1509042 2973342
-0.10081786 -0.14259599 1.1551718 2973600
0.13057739 -0.14473855 1.1475021 3368872
-0.10837033 -0.13138965 1.1524659 3039392
-0.10280749 -0.13241231 1.1579468 3236259
0.13207051 -0.13535897 1.1494172 3500460
0.13638344 -0.13285883 1.1436039 3434923
-0.10930617 -0.12174517 1.1532362 3170978
0.13327469 -0.12646836 1.1504954 3500719
0.13791791 -0.12396663 1.1470915 3500718
-0.11577004 -0.11042289 1.1507622 3237029
-0.11182164 -0.11198 1.1566275 3237286
0.13846634 -0.11517785 1.1500412 3697329
-0.11563373 -0.10164118 1.1509492 3237543
-0.1128708 -0.10140698 1.1583856 3172263
0.1398121 -0.1060768 1.1496975 3697843
-0.11570755 -0.092067912 1.1541606 3303340
-0.11348444 -0.091135345 1.159125 3303852
0.13975912 -0.095639914 1.1503257 3764149
-0.11569855 -0.082242757 1.1513718 3500716
-0.11274947 -0.081090756 1.1593235 3501229
0.1428234 -0.085219711 1.1490413 3764661
-0.11520773 -0.074198321 1.1515334 3566512
-0.11186947 -0.070919454 1.1558824 3632306
0.13999885 -0.074967951 1.1492376 3896764
-0.11111872 -0.061311007 1.1560711 3698357
0.1342306 -0.064889088 1.1518062 4291265
0.13789843 -0.065994993 1.1461581 4225217
-0.10937823 -0.05232247 1.1558561 3764408
0.13514416 -0.055286486 1.1513234 4554434
0.1375933 -0.054921113 1.145263 4488640
-0.1062365 -0.041675378 1.1568046 3895997
-0.10198303 -0.038607668 1.1599604 4027323
0.13489379 -0.04446483 1.1505642 4817354
-0.10463779 -0.032092579 1.1535015 3962044
-0.10048936 -0.031074405 1.1592839 4093118
0.12584145 -0.03206405 1.1540745 5014224
0.13108465 -0.034789219 1.1498743 4751563
-0.10341401 -0.021672159 1.152361 4290235
-0.098412678 -0.021715276 1.1567638 4158908
-0.092107251 -0.019591823 1.1601118 4028609
0.12424055 -0.024964646 1.1524922 4817874
0.13078791 -0.024666481 1.1471001 5145287
-0.095982909 -0.01505895 1.1547093 4487616
-0.090450868 -0.012569658 1.1588862 4356800
0.11557886 -0.01231692 1.1527734 5276623
0.12177253 -0.015342079 1.1488274 5604813
0.13111639 -0.016669258 1.1471537 6720449
-0.088205948 -0.0056460574 1.1603111 5671109
0.11384456 -0.0067565963 1.1543694 5802961
0.12008891 -0.0075316355 1.1500896 6787017
0.038060762 0.010155275 1.1573131 12972031
-0.017065644 0.020934351 1.1570045 5869264
0.015317311 0.016760357 1.1580583 7515376
0.022802353 0.016279884 1.1578498 8764660
0.032398406 0.015694179 1.1575831 10146554
0.039013553 0.014563367 1.1573836 10870005
-0.074796438 0.03023643 1.1527302 8028800
-0.06966871 0.030525766 1.1526008 7305855
-0.012606597 0.021968782 1.15891 5671370
-0.0092910137 0.021919198 1.1588212 5869265
0.013918069 0.021572165 1.1581997 6988787
0.018338848 0.021506049 1.1580813 7185904
0.10468128 0.029059656 1.1559607 6314850
-0.068371564 0.035508208 1.1526746 8028802
0.10164164 0.032643013 1.1561189 6117979
0.077645421 0.043694533 1.1489888 5593178
0.079840586 0.043661706 1.1489301 5658970
-0.016306333 -0.21983328 1.1577637 2973083
-0.010778539 -0.22102535 1.1575916 2973595
-0.0013296176 -0.22075057 1.1580147 2973598
-0.036096204 -0.20844343 1.1585345 2842012
-0.029740959 -0.2099252 1.1583341 2776219
-0.020402223 -0.21257749 1.1595542 2907806
-0.010789827 -0.21413517 1.1609011 2907807
-0.0002401229 -0.21483716 1.1607823 2973599
0.0086021256 -0.21257353 1.1579293 3039136
0.019373877 -0.21175876 1.158329 3170723
0.029332142 -0.21177411 1.1573981 3236770
0.039116204 -0.21144553 1.1564794 3170979
0.048162147 -0.21136744 1.1562417 3170980
0.054841984 -0.20980322 1.156099 3171236
-0.047048483 -0.19940448 1.1590204 2842012
-0.040339157 -0.20180112 1.1602463 2842011
-0.030737765 -0.2042248 1.1609472 2842012
-0.022435322 -0.20583105 1.162232 2907805
0.024002902 -0.20791695 1.1609581 3302309
0.03000005 -0.20682567 1.1596795 3302308
0.038615681 -0.20680451 1.1580942 3171236
0.049331412 -0.20750204 1.1562946 3171236
0.060017988 -0.20632398 1.1577051 3105443
0.069848321 -0.20453417 1.1568167 3171492
0.076397479 -0.20272957 1.1556821 3040420
-0.067947358 -0.18799803 1.1598208 2841497
-0.059203733 -0.19088903 1.1600604 2907291
-0.050774615 -0.19369423 1.1611263 2907549
-0.044065163 -0.19502491 1.1630387 2907551
0.073139295 -0.19751962 1.1598836 3040420
0.080131322 -0.19574255 1.1578413 3106213
0.0879336 -0.19321334 1.1555834 3106214
-0.069296673 -0.18153436 1.1619979 2907290
-0.062717631 -0.18454376 1.1632594 2973340
0.084405616 -0.18878242 1.1597751 3302823
0.090422034 -0.18643662 1.1572654 3237030
0.09661682 -0.18312663 1.1573513 3237031
-0.086490482 -0.16775161 1.1607507 2841497
-0.078136995 -0.17136723 1.1609849 2842012
-0.071989298 -0.17374758 1.1632386 2907547
0.10189651 -0.1755037 1.1565218 3368361
0.1070046 -0.17230904 1.1555324 3237285
-0.087877318 -0.16181409 1.1609163 2973085
-0.081030726 -0.16219953 1.1634651 3039135
0.10429235 -0.1683856 1.1556892 3368615
0.11088486 -0.16516963 1.1563122 3237799
0.11548568 -0.16189659 1.1555339 3303337
-0.095069811 -0.14876358 1.1613897 2973857
-0.089656904 -0.15240727 1.1627239 3039137
-0.083675444 -0.15342955 1.1649894 3104930
0.1130231 -0.15772948 1.1576905 3172264
0.1192528 -0.15490401 1.156253 3238059
-0.096106946 -0.14056791 1.1625956 3039650
-0.092104152 -0.14428656 1.1654108 3105700
0.12268063 -0.14524435 1.1578599 3369132
0.12683396 -0.14542533 1.155591 3434410
-0.098710209 -0.13198198 1.1635655 3171236
0.12472521 -0.13717581 1.1590276 3500719
0.12809998 -0.13489686 1.1577871 3435183
-0.10571218 -0.11976013 1.1623007 3302823
-0.10102327 -0.12186641 1.1647991 3171495
0.12901349 -0.12481026 1.1577998 3566514
-0.10728574 -0.11113315 1.1639849 3368873
-0.10358015 -0.11240213 1.1656058 3368875
0.13184367 -0.11563873 1.1569052 3697588
-0.10801667 -0.10208273 1.1654134 3303850
0.1336291 -0.10612269 1.1596946 3763892
0.13677283 -0.10541379 1.1561962 3698099
-0.10922959 -0.091837309 1.1646005 3435181
-0.10332087 -0.092466094 1.1668319 3435438
0.13482048 -0.096027032 1.1604538 3829942
0.1375989 -0.095458969 1.1575339 3764149
-0.10803328 -0.082191363 1.1651784 3501229
0.1350278 -0.082671665 1.1607381 3896505
0.13931932 -0.085571654 1.1583786 3830455
-0.10729448 -0.072332546 1.1649109 3632563
-0.10295805 -0.069094211 1.1673294 3567542
0.13271268 -0.075424485 1.1583837 4027837
0.13784802 -0.079026237 1.1567403 3896505
-0.10638516 -0.062284209 1.1648997 3829940
-0.1028544 -0.06241652 1.1674715 3699127
0.13139367 -0.065818481 1.1598659 4291009
-0.10582349 -0.052141171 1.1645713 3895737
-0.1020482 -0.051455554 1.167688 4027576
0.13182788 -0.055772886 1.1594052 4422849
-0.10455862 -0.045447819 1.1638826 4158911
-0.099962637 -0.041860312 1.1658399 4093372
0.1319097 -0.046020065 1.1591145 4817355
-0.096082211 -0.032510363 1.1654783 4093630
-0.091207996 -0.029194511 1.1678842 4094397
0.12464619 -0.035180092 1.1602645 5080014
0.12904993 -0.038401712 1.1578546 4883149
-0.093886554 -0.024898663 1.164046 4028348
-0.089303419 -0.022441961 1.1654789 4028864
0.1202939 -0.025462858 1.1601458 4949202
-0.085585013 -0.012912549 1.1659057 4029123
-0.081275702 -0.01078961 1.1680208 3963586
0.11438808 -0.01552961 1.161407 5146069
0.11768951 -0.019926801 1.158556 5080276
-0.084704608 -0.0050668195 1.1642334 5342665
-0.077446297 -0.0031115115 1.1680862 4882633
-0.013957646 -0.00029309094 1.1664674 6070261
-0.0072807856 -0.00039292872 1.1662886 6528744
-0.00060392544 -0.00049277395 1.1661098 8827627
0.014975413 -0.00072573125 1.1656926 10340848
0.023709048 -0.0014924407 1.1654449 8895736
0.031201707 -0.0023042038 1.165229 6266608
0.10554487 -0.0026153252 1.1622547 5475287
0.10992615 -0.0061628968 1.1603942 5475028
-0.07393451 0.002868928 1.1661218 5999306
-0.067259461 0.0038785115 1.1659671 5540557
-0.058660802 0.0070986748 1.1651424 5803727
-0.045851305 0.0085947067 1.1675042 4950220
-0.036910087 0.0073365793 1.1672403 5016280
-0.027208827 0.0065889806 1.1665672 5411294
-0.017214142 0.0064651594 1.164459 5806569
-0.0071862135 0.0062930956 1.1658309 7120874
0.0024257516 0.0068833008 1.1661897 12379901
0.012940888 0.0062556267 1.1633701 13891069
0.022730801 0.0058849528 1.162429 12969723
0.032708667 0.0059539452 1.1630511 9946095
0.042783268 0.0055631772 1.1631792 10013177
0.052538414 0.0073028132 1.1627178 7449069
0.059278123 0.0090017244 1.1647315 5411552
0.10265598 0.0013484061 1.1609162 6526426
-0.0437962 0.013511553 1.1675565 6264275
-0.036258407 0.014255553 1.1648717 5803990
-0.026715096 0.014774777 1.1631297 5345755
-0.016692754 0.015886582 1.1628886 5412839
-0.0070840493 0.016325295 1.1631442 5676266
0.0019977605 0.015218079 1.1652384 7253489
0.011774141 0.014929943 1.1631153 8436213
0.021688381 0.012571804 1.1618012 12051453
0.036174275 0.016792797 1.1615095 10082302
0.043999746 0.015936181 1.1612839 10607102
0.05246786 0.014964305 1.1610388 7515119
0.059529196 0.014216699 1.1621698 6068200
-0.0047899354 0.021842904 1.1627029 6001365
-0.00035392679 0.021776579 1.1625841 6396124
0.11218844 0.025862597 1.1596951 6447199
-0.0071185175 -0.21047926 1.1657283 3039391
0.00047005154 -0.21005259 1.1670376 3039135
0.011863984 -0.2107631 1.1652199 3104930
-0.035977222 -0.1988776 1.1667436 2776478
-0.029564328 -0.19991168 1.1685526 2842271
-0.019633379 -0.20174593 1.1704332 2907807
-0.010425409 -0.20375374 1.1706601 2908063
-0.00039488822 -0.20477691 1.1714776 2973600
0.0099246902 -0.20393892 1.1707557 3105187
0.01982999 -0.20371632 1.1695784 3236773
0.029533863 -0.20250767 1.168667 3237029
0.040477246 -0.20275834 1.1684387 3171237
0.05004935 -0.20380214 1.1658615 3171236
0.05957488 -0.20237285 1.1650633 3105444
0.06841787 -0.20099713 1.1639355 3171493
-0.047943894 -0.18989733 1.1704569 2841758
-0.039862148 -0.19234239 1.1709905 2907551
-0.030898035 -0.19364306 1.1735502 2842271
-0.020203892 -0.19501664 1.1744148 2908064
-0.013475941 -0.19624189 1.1742102 2973857
0.0078844912 -0.19656129 1.173638 3105444
0.02076623 -0.19575423 1.1733147 3237030
0.03078467 -0.19630274 1.1722373 3302823
0.040451229 -0.19566333 1.1718723 3171495
0.049818825 -0.19438419 1.1711836 3105703
0.05951523 -0.19478336 1.1707096 3105703
0.069275692 -0.19439065 1.1685587 3105702
0.077571511 -0.19195122 1.1656048 3105958
-0.05914003 -0.18199947 1.1693707 2973598
-0.051059578 -0.18393376 1.1734704 2907551
-0.041147999 -0.18598756 1.1751648 2908065
0.071278214 -0.18608987 1.1721879 3237288
0.080041364 -0.1854552 1.169524 3302823
0.088654563 -0.18347782 1.1663531 3237287
-0.068333849 -0.17062035 1.1710716 3105183
-0.060840022 -0.17417578 1.1740587 2974112
-0.052527387 -0.17653918 1.1756709 2842786
0.08170256 -0.17877126 1.172071 3171750
0.090349555 -0.17526239 1.1705842 3172008
0.098325223 -0.17353404 1.1660748 3303081
-0.076363161 -0.16077188 1.169306 3104930
-0.070016474 -0.16331553 1.1750864 3170978
0.093001932 -0.16698697 1.1720277 3303337
0.10074089 -0.16553509 1.1696031 3368873
0.10761535 -0.16426323 1.1662424 3237543
-0.085941508 -0.14788446 1.1718402 3040164
-0.079249904 -0.15176499 1.1727024 3105701
-0.072829992 -0.15636709 1.1766458 3302822
0.1025127 -0.15658978 1.1720016 3303597
0.10983516 -0.1541791 1.1674939 3238059
0.11690988 -0.15119204 1.1657343 3303852
-0.088254467 -0.14153944 1.1731509 3106213
-0.080412477 -0.14378902 1.1771193 3172007
0.11098573 -0.1452162 1.1718241 3369387
0.11882408 -0.14501311 1.1678189 3435181
-0.095310628 -0.13114518 1.1711172 3237030
-0.088636115 -0.13201097 1.1752577 3237800
-0.082253352 -0.13560791 1.1773455 3303594
0.11290307 -0.13920087 1.172104 3500972
0.12128934 -0.13497901 1.1687218 3500976
0.12589054 -0.13204309 1.163911 3500977
-0.096258894 -0.12191233 1.1731215 3237545
-0.091517463 -0.1237336 1.1769588 3303852
0.12331022 -0.125561 1.1721246 3566772
0.12652028 -0.12585458 1.168031 3566515
-0.09861578 -0.11217131 1.1735342 3369389
0.12431473 -0.11604341 1.1723046 3763639
0.12756215 -0.11505227 1.1673484 3763639
-0.10523349 -0.098195478 1.1720947 3435181
-0.099835008 -0.10203234 1.1751086 3435438
0.12512919 -0.10496993 1.1725233 3895737
0.1299767 -0.10481216 1.1672189 3764149
-0.10460469 -0.091751635 1.1732851 3435438
-0.099137917 -0.092551254 1.1771871 3501231
0.12521645 -0.099348061 1.1726429 3961530
0.13051796 -0.095336966 1.1674103 3961528
0.1376808 -0.092006877 1.1644678 3895735
-0.10416397 -0.082520351 1.1740742 3501489
-0.099818274 -0.082424618 1.1768453 3501490
0.12549572 -0.081358112 1.173026 4159679
0.1310067 -0.086015791 1.168049 3962041
0.13771547 -0.089773372 1.1645154 3895735
-0.10454531 -0.07515277 1.1732435 3501747
-0.099618837 -0.07209342 1.1758478 3567541
0.12484513 -0.074975468 1.1731817 4225473
0.12842347 -0.07544598 1.1690743 4159424
-0.097716197 -0.061948381 1.1749502 3764919
0.124733 -0.066101685 1.1733772 4422597
0.12858002 -0.065360904 1.169289 4357059
-0.097076684 -0.052182816 1.1749737 3896505
-0.092204094 -0.052236289 1.1794177 3962298
0.12477292 -0.055480752 1.1736065 4685767
0.12873657 -0.055275831 1.1695037 4422851
-0.095522866 -0.043042112 1.1733013 4027836
-0.090343297 -0.04146836 1.1785107 4028094
0.12300718 -0.044816703 1.1717657 4948684
0.12874494 -0.046694495 1.166688 4751818
-0.093743593 -0.034929678 1.1718293 4093632
-0.087966383 -0.031691104 1.1775963 4094399
0.11647961 -0.034363598 1.1742842 5080784
0.12064697 -0.035390764 1.1693487 5211343
-0.084627554 -0.023267783 1.1762073 4094402
-0.077984884 -0.020359717 1.1787326 4226244
-0.071444288 -0.018807732 1.1795938 4620744
-0.017463643 -0.01849027 1.1781725 5412064
0.0050210264 -0.018826477 1.1775703 6463211
0.013029503 -0.022783227 1.1772726 6397929
0.022722472 -0.022287495 1.1770269 6397929
0.031982675 -0.020514935 1.1768203 6003432
0.11355481 -0.024988614 1.1720635 5081042
0.11856981 -0.028051272 1.1663611 5081041
-0.076640069 -0.012459405 1.173732 4160963
-0.068412945 -0.011758611 1.1788089 4752075
-0.053299468 -0.0089573562 1.1793275 4949201
-0.046562798 -0.0096204132 1.1791348 5016022
-0.037020877 -0.010868445 1.1781882 5213659
-0.027223714 -0.011906974 1.1773421 5411552
-0.017382961 -0.012845173 1.1774924 5740773
-0.0072582755 -0.013019711 1.1780212 6003172
0.0028481558 -0.013159268 1.1773505 6331366
0.012873338 -0.01322829 1.1744822 6989552
0.022981197 -0.013392143 1.1746114 6792432
0.033045858 -0.013521262 1.173692 5937640
0.041603662 -0.01278235 1.175733 5806054
0.052360993 -0.011661939 1.1764733 5674725
0.059123851 -0.010638423 1.1763165 5674983
0.1048971 -0.013853297 1.1750356 5146841
0.11072935 -0.015880674 1.1691197 5080789
-0.073159069 -0.0039610639 1.1719567 4554184
-0.069621637 -0.0032515004 1.1748801 4751049
-0.054292221 -0.0032767653 1.1774758 4818129
-0.046873983 -0.0033683702 1.1764771 5015507
-0.037427597 -0.0034235194 1.1728239 5147609
-0.027358647 -0.003541939 1.1712543 5346018
-0.017659217 -0.0041247979 1.1735976 5937898
-0.007220529 -0.005031988 1.173524 6462952
0.0032191621 -0.0044215247 1.1723716 8303605
0.012560446 -0.0046425685 1.1711032 8501495
0.022376705 -0.0057499334 1.1700059 7252467
0.033711143 -0.0053946003 1.1705533 6069484
0.042895004 -0.0044627562 1.1711923 6135528
0.053078528 -0.0050646365 1.1740075 5741031
0.062508836 -0.0050436258 1.1753477 5543655
0.072030216 -0.0039105862 1.176121 5477092
0.082111269 -0.0027348399 1.1758797 5739747
0.093474612 -0.0031546876 1.17557 5280481
0.10255247 -0.0058367848 1.1715771 5015513
0.10794733 -0.0078401789 1.1690818 4949463
-0.066355363 0.0026392937 1.1719198 4818122
-0.056910727 0.0034909546 1.1716884 5147606
-0.048214357 0.0041055903 1.1714717 4818639
-0.039556533 0.0022385716 1.1712021 5344472
0.0051168511 0.0021290705 1.1700177 12971007
0.0095746554 0.0015038997 1.1698862 12905215
0.03414024 0.0011365712 1.1692283 5807584
0.047539659 0.00093621016 1.1688694 6004710
0.053616155 0.0018028021 1.1687275 5807083
0.062498875 0.0041002408 1.1706768 5477863
0.071059242 0.0034829229 1.1729717 5542628
0.082907289 0.00025226921 1.1759235 5673698
0.09346211 0.002084963 1.1741831 5804766
0.098904073 0.0001681596 1.1674937 5147865
0.065578893 0.011836618 1.1686287 5412324
-0.0066929292 -0.19934812 1.1779655 3039650
-0.00025698915 -0.20008919 1.1777792 3039650
-0.026875075 -0.19114727 1.1786774 2842271
-0.020106833 -0.19124848 1.1784962 2973857
-0.0097699035 -0.19252127 1.179459 2973857
-1.6110018e-005 -0.19444665 1.180423 3039395
0.010649074 -0.19265582 1.1794307 3171237
0.01995438 -0.19136176 1.1785011 3237030
0.03031634 -0.19097635 1.1787074 3302569
0.038643949 -0.19123766 1.1782761 3237546
-0.046372604 -0.18037732 1.179427 2908065
-0.038813625 -0.18145758 1.1792036 2973857
-0.030136503 -0.18337227 1.1799331 2973857
-0.020394515 -0.18544269 1.1807487 2973858
-0.012068789 -0.18643627 1.1823902 3105444
0.019622972 -0.18691015 1.1815414 3237030
0.031342171 -0.18557572 1.1812603 3302825
0.040268667 -0.18524757 1.1807234 3171754
0.05006868 -0.18587634 1.1787572 3171752
0.060398586 -0.18559486 1.1779014 3171753
0.068869948 -0.18259534 1.1773304 3237546
0.077097327 -0.18028909 1.1761621 3303592
-0.0573988 -0.17075503 1.1799276 2908579
-0.049189631 -0.1730901 1.1816609 2908579
-0.039358258 -0.17472628 1.1822748 3105444
-0.03070987 -0.17664663 1.1830958 3105443
0.063905641 -0.17851433 1.180552 3303339
0.071935385 -0.17633277 1.1790527 3303082
0.080305606 -0.17430502 1.1767789 3237545
0.086261764 -0.17139861 1.1761125 3303850
-0.066248015 -0.15933828 1.1804094 3302822
-0.059645917 -0.16378999 1.1823894 3040165
-0.052534182 -0.16771519 1.1838671 3040167
0.075364701 -0.16962767 1.1804416 3303598
0.081461713 -0.16570407 1.1794237 3238061
0.090002954 -0.16372807 1.1772918 3303596
0.097699791 -0.16141364 1.1760266 3369131
-0.075860903 -0.14866242 1.1808954 3171751
-0.069457307 -0.15242097 1.182057 3368615
-0.062545106 -0.15624297 1.1843809 3171751
0.09965539 -0.15490034 1.1776171 3369134
-0.077725515 -0.14158176 1.1810983 3369130
-0.071560517 -0.14369768 1.1838911 3434922
0.10097168 -0.14528853 1.1793393 3435183
-0.07928133 -0.13298926 1.1826601 3434923
0.10383679 -0.1382404 1.1795689 3501232
0.11062665 -0.13519678 1.1788431 3435694
0.11731431 -0.1334959 1.1761134 3501232
-0.087336048 -0.12171915 1.1827842 3369646
-0.081634343 -0.12559359 1.1842169 3435182
0.11453287 -0.12605555 1.1803507 3567282
0.118587 -0.12553516 1.1780717 3567027
-0.095552683 -0.1088725 1.1822798 3501231
-0.090958104 -0.11293 1.1848217 3435439
0.11465588 -0.11813164 1.1805193 3829686
0.11975467 -0.11535755 1.1786659 3829431
-0.095500141 -0.10548795 1.1823518 3501231
-0.091021195 -0.10235047 1.183969 3567024
0.1222184 -0.10602472 1.1792479 3830201
-0.095281243 -0.091385707 1.182652 3632818
-0.092011526 -0.092197567 1.1845491 3698612
0.1244821 -0.0954348 1.1787508 3896507
-0.095132381 -0.081796177 1.1828562 3633333
-0.091218233 -0.082110092 1.1855474 3764919
0.12446289 -0.08521647 1.1784726 4093886
-0.095446989 -0.07298962 1.1830555 3633334
-0.091311872 -0.072186157 1.1861655 3830201
0.12162898 -0.075565711 1.1794797 4291523
-0.09076938 -0.061860625 1.1848409 3896506
0.1212858 -0.065063879 1.1790941 4619975
-0.087341249 -0.052362904 1.1850039 4028348
0.11565748 -0.053608317 1.1818929 5146320
0.12002306 -0.055872999 1.1807277 4883148
-0.085515901 -0.042945627 1.1837306 3962814
-0.080448464 -0.041717261 1.1861961 3963072
0.11476313 -0.044736642 1.1806083 5146577
0.11844662 -0.046371341 1.1784742 5080527
-0.084008351 -0.033890881 1.1836013 4028607
-0.077748939 -0.032283306 1.185605 4291526
-0.027770996 -0.031083107 1.1861765 5147865
-0.020297281 -0.030968413 1.1859813 5344731
-0.0039846059 -0.030306533 1.185564 5345501
0.0028064866 -0.030408084 1.1853821 5739743
0.012911812 -0.032762289 1.1837296 5936862
0.021971479 -0.032913111 1.1838201 5871068
0.032216977 -0.031980105 1.18457 5739228
0.050344132 -0.031118914 1.184109 5213656
0.11302276 -0.035827555 1.1807475 4949970
-0.075912923 -0.024815142 1.183584 4422856
-0.067362413 -0.020219751 1.1852767 4686797
-0.056974847 -0.01925087 1.1852049 4884690
-0.046565965 -0.020876609 1.186395 4950486
-0.036149126 -0.021773614 1.1852661 5213659
-0.027650975 -0.02303236 1.1831462 5279707
-0.017501872 -0.024329834 1.1832498 5345244
-0.0073183998 -0.022848107 1.1829236 5411808
0.0025138464 -0.024104506 1.182434 5806052
0.011773283 -0.027348794 1.181209 6068964
0.023799881 -0.027904771 1.1808788 6068963
0.033893585 -0.025694884 1.1815833 6003173
0.0423963 -0.024122402 1.1822698 5608417
0.052607715 -0.024297155 1.1825962 5411038
0.059504349 -0.024462372 1.1840111 5279709
0.1041785 -0.023354165 1.1819295 5212630
0.10972013 -0.026990242 1.1799594 5015248
-0.063624486 -0.014560804 1.1834813 4949712
-0.056856249 -0.014662012 1.1833001 4949713
-0.046703879 -0.014813818 1.1830282 5016279
-0.037309378 -0.015330441 1.1827685 5213659
-0.028672736 -0.016211867 1.1825207 5345501
0.044094659 -0.016735747 1.1805841 5871590
0.052563723 -0.016298175 1.1803695 5871847
0.062903702 -0.014262967 1.1821413 5543139
0.070210941 -0.013249315 1.1822557 5280225
0.094767377 -0.013667166 1.1833123 5411294
0.10053711 -0.015112586 1.1805813 5279196
0.072435781 -0.0081320107 1.1800209 5411556
0.082050413 -0.0065831095 1.1798002 5412066
0.09333083 -0.0067517832 1.1794981 5477344
0.10006402 -0.0091093555 1.1792687 5213404
0.0011935886 -0.18999526 1.1859646 3105189
-0.019010052 -0.18124977 1.1876894 3039906
-0.009335354 -0.18353784 1.1878126 3039908
0.00022714958 -0.18488231 1.1894363 3105447
0.010775217 -0.18420836 1.186587 3105702
0.019854307 -0.18307924 1.1856209 3171750
0.02884273 -0.18280053 1.185389 3237289
0.040331386 -0.1811133 1.1851218 3237548
0.05055229 -0.18126614 1.184848 3171752
0.059637543 -0.181402 1.1846046 3171752
-0.046497688 -0.1693632 1.187674 3039909
-0.038639572 -0.17023081 1.1883367 3105701
-0.030484244 -0.17303756 1.1897175 3105443
-0.020934597 -0.17860445 1.1907995 3040163
0.0098450864 -0.1781528 1.1899948 3105960
0.021257026 -0.1772089 1.1897134 3105958
0.030352954 -0.17581663 1.1887025 3237545
0.040733919 -0.17488767 1.1873527 3237547
0.050763875 -0.17471401 1.1865854 3237544
0.060829185 -0.17463911 1.1864051 3237545
0.069481701 -0.17275883 1.1851988 3303339
-0.057594348 -0.15976797 1.1881758 3172009
-0.049161199 -0.16310909 1.1902816 3105961
-0.03982161 -0.16549852 1.1915835 3171752
0.044191759 -0.1681796 1.1893026 3303337
0.051028546 -0.16828182 1.1891195 3303593
