# .PCD v0.7 - Point Cloud Data file format
VERSION 0.7
FIELDS x y z rgba
SIZE 4 4 4 4
TYPE F F F U
COUNT 1 1 1 1
WIDTH 174
HEIGHT 1
VIEWPOINT 0 0 0 1 0 0 0
POINTS 174
DATA ascii
-0.4098219 0.075036034 1.1002156 5134174
-0.40291715 0.074456379 1.1000392 5134176
-0.41100365 0.07958965 1.1001987 4871515
-0.41508669 0.056452345 1.107554 4936281
-0.40438744 0.055496912 1.1072812 5199967
-0.3995637 0.056224022 1.107146 5397348
-0.42422217 0.061871205 1.1074381 4673880
-0.41655082 0.062483501 1.1053106 4870232
-0.40709376 0.063990176 1.1057624 5068382
-0.39743572 0.065828219 1.1060333 5068384
-0.38989833 0.068533868 1.1067604 4476504
-0.42606461 0.071149185 1.1060215 4607822
-0.41910928 0.072209165 1.1044925 4673623
-0.40813163 0.073105812 1.1041929 5134174
-0.39795107 0.075545385 1.1038979 4739419
-0.39017668 0.076482162 1.1049688 4081746
-0.42745358 0.079422399 1.1076381 4410445
-0.41943577 0.081697777 1.1044009 4213839
-0.40931511 0.083741471 1.1041118 4345429
-0.3992914 0.08483468 1.1038352 4016211
-0.39115813 0.085718021 1.1047653 3621193
-0.41964024 0.087170467 1.1043485 3884109
-0.41050297 0.089540735 1.1040819 3752784
-0.40018496 0.091027543 1.1037935 3621192
-0.39281341 0.091036171 1.1035985 3686459
-0.42129776 0.04326601 1.1182902 4673626
-0.4132039 0.043544684 1.1152318 4870741
-0.40396866 0.043757584 1.11517 5265754
-0.3941088 0.045966465 1.1151534 5397604
-0.38599452 0.04997756 1.1178577 4608350
-0.42372355 0.051992882 1.114332 4673629
-0.41527542 0.0516943 1.1119442 4870744
-0.4066962 0.051399108 1.111387 5134174
-0.39477128 0.055220176 1.1116838 5397606
-0.38658336 0.057275694 1.1156135 4476760
-0.38093552 0.062230971 1.1175946 4015442
-0.43169847 0.059184436 1.1189687 3883351
-0.42839485 0.059661534 1.1136742 4475995
-0.39484137 0.061802145 1.1109638 5068641
-0.38619691 0.066342443 1.1127408 4082513
-0.38035542 0.068408385 1.1170137 3752531
-0.43110377 0.069353446 1.1124429 4079443
-0.3855961 0.075640708 1.1120738 3621705
-0.3806915 0.074002579 1.1150627 3751503
-0.38834345 0.082884952 1.1105692 3490378
-0.40690047 0.027017169 1.1296574 5002588
-0.40373439 0.027473398 1.1295688 5528419
-0.41882494 0.034997821 1.1298883 4739163
-0.41131595 0.033157233 1.1267636 5002333
-0.4018755 0.034208126 1.1264473 5397092
-0.39301452 0.037544038 1.1275356 5332066
-0.38716424 0.039560065 1.129003 4740695
-0.42094362 0.038678098 1.1246533 4082256
-0.41394553 0.038509466 1.1227194 5068120
-0.3912977 0.042322613 1.1240811 5200736
-0.38359362 0.046844151 1.125967 4345175
-0.37678748 0.049791519 1.128049 4278096
-0.38237867 0.056582291 1.1225514 4147028
-0.37743676 0.05684698 1.1265037 3819087
-0.37879926 0.064229265 1.122719 3687502
-0.39779434 0.016354527 1.1405338 5528423
-0.39360836 0.017501842 1.140411 5397348
-0.40926456 0.022614028 1.1354353 4804702
-0.39986607 0.023757368 1.1345949 5462626
-0.39058223 0.025759853 1.1369091 5003105
-0.38305894 0.030439571 1.1375945 4804440
-0.41973579 0.031284437 1.1369544 3817824
-0.41340232 0.028388631 1.132816 4673622
-0.39752954 0.030675869 1.1323723 5660265
-0.39044061 0.03326907 1.1321574 5069150
-0.38184905 0.037363462 1.1338879 4475986
-0.37707558 0.042385034 1.1337086 4014924
-0.38000956 0.044005927 1.1317682 4606547
-0.3746689 0.047237057 1.1320932 3620428
-0.40311342 0.0087368637 1.1477576 4079956
-0.39649901 0.0086788181 1.1452968 5266270
-0.39070436 0.0099774897 1.1474165 5002845
-0.40689448 0.014412094 1.1457969 4079963
-0.39904356 0.012906078 1.1436045 5330781
-0.38890222 0.016623463 1.1449448 5002331
-0.38653827 0.023000669 1.1431673 5001816
-0.3827824 0.026430793 1.1442322 4540755
-0.37937793 0.033852633 1.1428633 4213074
-0.39532137 -0.00082433783 1.1596576 5265766
-0.39731726 0.0033924673 1.1568075 5068639
-0.38895226 0.0062681176 1.1560796 4214103
-0.40644047 0.0083845183 1.1518511 1580089
-0.38571972 0.013224188 1.1519191 4145996
-0.38385376 0.019331019 1.1511383 4212054
-0.40144843 -0.0027502012 1.1628411 3618132
-0.39585936 -0.0030542407 1.1626966 5199718
-0.38949743 -0.001028087 1.1625069 4214875
-0.38205686 -0.060356554 1.1789436 528927
-0.37689444 -0.06028755 1.1788064 1517876
-0.37603647 -0.070085496 1.1908922 4419983
-0.39202926 -0.065508425 1.1892657 1651559
-0.38683218 -0.064004406 1.1859683 1782104
-0.3745496 -0.064787112 1.1835439 4154236
-0.3698324 -0.060640108 1.1871984 3028033
-0.38480157 -0.056575924 1.1909811 2369321
-0.37714529 -0.055599544 1.1871669 2040105
-0.38756186 -0.037613384 1.1868521 4146252
-0.39076477 -0.070235163 1.1992862 5077683
-0.38368684 -0.07183212 1.1977822 4617364
-0.3743065 -0.070861787 1.197524 4549258
-0.36990526 -0.064798906 1.1946758 6582660
-0.39352673 -0.059081096 1.1952398 7695014
-0.38642782 -0.054276075 1.1956683 2040625
-0.37860334 -0.051913776 1.1947696 2172202
-0.37119457 -0.055863079 1.1946155 2760198
-0.38340726 -0.080992505 1.2072086 4683677
-0.37776771 -0.080179855 1.2070509 3831442
-0.39196914 -0.075271815 1.2062312 3299734
-0.38471633 -0.076466784 1.204649 4683420
-0.37613812 -0.075731039 1.2053603 3960460
-0.37948605 -0.15392269 1.2208807 3829135
-0.37151152 -0.15228672 1.2206527 4223637
-0.36528757 -0.15184347 1.2204834 3960467
-0.38163224 -0.1447567 1.2208407 3498881
-0.37337148 -0.14310656 1.2202047 3895695
-0.3657819 -0.14066525 1.2203784 3631246
-0.38319761 -0.1337001 1.217764 3499128
-0.37591323 -0.1334608 1.217569 4025235
-0.36729017 -0.13124113 1.2191755 3499655
-0.3839888 -0.12435095 1.2156854 3826560
-0.37730151 -0.12342966 1.2159991 4156303
-0.36927462 -0.12281153 1.2182814 3630985
-0.38502994 -0.11486742 1.2186139 3893387
-0.37858829 -0.11363217 1.2168744 4157333
-0.37133199 -0.11206318 1.2187223 3762828
-0.38450772 -0.1062132 1.2205094 3762325
-0.37933326 -0.10289824 1.2166696 4420507
-0.37309706 -0.10215321 1.2188311 3828877
-0.38762265 -0.092690945 1.220449 4222878
-0.38035545 -0.093525514 1.2165308 4552347
-0.37409192 -0.093023539 1.2192944 3631755
-0.39063188 -0.085167304 1.2148467 3627913
-0.38188776 -0.085653096 1.2125533 4683676
-0.37490845 -0.083326712 1.2152847 3892613
-0.37518147 -0.07541661 1.2119343 3563127
-0.37952837 -0.16383466 1.2264174 3033484
-0.37108049 -0.16360311 1.2285876 2897991
-0.36124134 -0.16137752 1.2278136 3891064
-0.35383719 -0.15953751 1.2292658 2638186
-0.38485008 -0.15542547 1.2250401 666715
-0.37374365 -0.15609454 1.2247536 4813457
-0.3607235 -0.15123968 1.2243581 3499654
-0.35354504 -0.15006277 1.2278416 3561592
-0.38713127 -0.14423999 1.2249823 6722
-0.36221564 -0.14181782 1.224298 3694979
-0.35569921 -0.14061071 1.2261138 3233144
-0.3621417 -0.13129421 1.2241849 3104639
-0.35742635 -0.13058257 1.2272358 2640231
-0.36421499 -0.12178086 1.2241392 2907007
-0.35976472 -0.12123516 1.2285631 3099492
-0.38815743 -0.11284898 1.2246777 4089741
-0.36596876 -0.11234738 1.2244432 3496061
-0.36173922 -0.11057584 1.2289574 4278874
-0.38702533 -0.1045091 1.2245597 2972810
-0.36807421 -0.10218738 1.2253984 3757171
-0.36404842 -0.10269816 1.2289352 3748927
-0.38670692 -0.098622695 1.2244891 3630740
-0.36856914 -0.094840974 1.2239697 3953004
-0.37068373 -0.1698187 1.2338213 984897
-0.36086643 -0.16448151 1.2335054 4350584
-0.35408723 -0.13924827 1.2337265 4674411
-0.35530359 -0.13080078 1.2360038 6974583
-0.35862184 -0.12007272 1.2359781 3815753
-0.39167693 -0.11400546 1.2337866 5799072
-0.35924307 -0.11050856 1.2328923 5064001
-0.35279608 -0.14501897 1.2460917 7039097
-0.35386711 -0.13932218 1.2470602 7565430
-0.35579982 -0.13084501 1.2466882 8223350
-0.3573826 -0.12275273 1.2419761 9076613
