# .PCD v0.7 - Point Cloud Data file format
VERSION 0.7
FIELDS x y z rgba
SIZE 4 4 4 4
TYPE F F F U
COUNT 1 1 1 1
WIDTH 174
HEIGHT 1
VIEWPOINT 0 0 0 1 0 0 0
POINTS 174
DATA ascii
-0.40422752 0.073369086 1.102785 5134174
-0.39731809 0.072851077 1.1029708 5134176
-0.4054473 0.077911988 1.1027055 4871515
-0.40970373 0.054736808 1.1098398 4936281
-0.3989968 0.053876914 1.1101285 5199967
-0.39417931 0.054647043 1.1102463 5397348
-0.41886857 0.060074031 1.1092443 4673880
-0.41110203 0.060755402 1.107522 4870232
-0.40169549 0.06234619 1.1084687 5068382
-0.39208171 0.064270183 1.1092453 5068384
-0.38461724 0.067042708 1.1103661 4476504
-0.42071691 0.069335669 1.1077319 4607822
-0.41370076 0.070458129 1.1065695 4673623
-0.40273091 0.071452729 1.1068456 5134174
-0.39257106 0.073983081 1.1070845 4739419
-0.38487217 0.074988797 1.1085613 4081746
-0.42226249 0.077595644 1.1092724 4410445
-0.41410661 0.079943486 1.1064596 4213839
-0.40400335 0.082077444 1.1067011 4345429
-0.39398909 0.083260059 1.1069503 4016211
-0.38592395 0.084215589 1.1083052 3621193
-0.41435689 0.085414156 1.1063957 3884109
-0.4052397 0.087865889 1.1066082 3752784
-0.39493442 0.089444734 1.1068608 3621192
-0.38756317 0.089519151 1.1070526 3686459
-0.4163512 0.041492134 1.1202377 4673626
-0.40811095 0.041843958 1.1176077 4870741
-0.39888746 0.042139225 1.1180301 5265754
-0.38906038 0.044435933 1.11853 5397604
-0.38113514 0.048518337 1.1216556 4608350
-0.41864392 0.050198309 1.1161563 4673629
-0.41007993 0.04997585 1.1142149 4870744
-0.40148097 0.049757339 1.1141083 5134174
-0.3896226 0.053684495 1.1150293 5397606
-0.38167059 0.055811666 1.1193825 4476760
-0.3761788 0.060816467 1.1216562 4015442
-0.42691481 0.057316951 1.1203676 3883351
-0.42334256 0.057825215 1.1152534 4475995
-0.38971356 0.060265817 1.1143056 5068641
-0.38121501 0.064882435 1.1165327 4082513
-0.37562421 0.066998988 1.1211057 3752531
-0.42606956 0.067492992 1.1138805 4079443
-0.38066304 0.074185893 1.1158967 3621705
-0.37590745 0.072590597 1.119139 3751503
-0.38339224 0.081405848 1.1142492 3490378
-0.40242523 0.02536862 1.1323463 5002588
-0.39926305 0.02585309 1.1324238 5528419
-0.41441613 0.033242546 1.1319505 4739163
-0.40673754 0.031470008 1.1292241 5002333
-0.39730322 0.032605141 1.129403 5397092
-0.38854164 0.036019575 1.1309538 5332066
-0.38279453 0.038087215 1.1327257 4740695
-0.41629019 0.036905486 1.1266112 4082256
-0.40919915 0.036799885 1.1250468 5068120
-0.38668874 0.0408144 1.1275935 5200736
-0.37913477 0.045403838 1.12988 4345175
-0.37247372 0.048411101 1.1323155 4278096
-0.3778294 0.055153534 1.1265314 4147028
-0.37310401 0.055460997 1.1307373 3819087
-0.37433204 0.062832072 1.1268853 3687502
-0.39380702 0.014784068 1.1436867 5528423
-0.38963076 0.015968699 1.1437833 5397348
-0.40504959 0.020942695 1.137993 4804702
-0.39563054 0.022170067 1.1376462 5462626
-0.38649902 0.024254505 1.1404437 5003105
-0.37906405 0.02900089 1.1415218 4804440
-0.415663 0.029518891 1.1389598 3817824
-0.4090957 0.026681021 1.1351595 4673622
-0.39324251 0.029109851 1.1355481 5660265
-0.38617551 0.031766232 1.1357049 5069150
-0.37772334 0.035936505 1.1378827 4475986
-0.37299204 0.041000504 1.1379533 4014924
-0.37583458 0.042595789 1.1358615 4606547
-0.37054735 0.04587432 1.1364654 3620428
-0.39942932 0.0071169268 1.1506228 4079956
-0.39269474 0.007118661 1.1485121 5266270
-0.38703102 0.0084682647 1.1509324 5002845
-0.40315288 0.012758859 1.1484656 4079963
-0.3951847 0.011323616 1.1466881 5330781
-0.38516113 0.015130844 1.1485577 5002331
-0.38276422 0.021529455 1.1469055 5001816
-0.37910011 0.024992585 1.1481655 4540755
-0.37569493 0.032444932 1.1469759 4213074
-0.39218685 -0.0023782793 1.1629163 5265766
-0.39406809 0.0018214826 1.1599648 5068639
-0.38570243 0.0047718473 1.1596761 4214103
-0.40296313 0.0067336019 1.1545361 1580089
-0.38231844 0.011757817 1.1556897 4145996
-0.38046867 0.017881297 1.1550069 4212054
-0.39845493 -0.0043597389 1.1657743 3618132
-0.39286345 -0.0046138801 1.1659231 5199718
-0.38651869 -0.0025310181 1.166067 4214875
-0.379421 -0.061796121 1.1828796 528927
-0.37425929 -0.061681043 1.1830132 1517876
-0.37394869 -0.071474865 1.1951287 4419983
-0.38987446 -0.067040063 1.1926655 1651559
-0.38452527 -0.065488696 1.1896448 1782104
-0.37212598 -0.066161051 1.1878678 4154236
-0.36764404 -0.061973333 1.1917639 3028033
-0.3828266 -0.058044024 1.1947562 2369321
-0.3749899 -0.056998175 1.1913484 2040105
-0.38553569 -0.039105512 1.1904854 4146252
-0.38909489 -0.071758591 1.2027391 5077683
-0.38193387 -0.07329189 1.2016084 4617364
-0.37256193 -0.072237864 1.2018422 4549258
-0.36807168 -0.066135056 1.1992278 6582660
-0.39174032 -0.060628284 1.1985519 7695014
-0.38471678 -0.05576029 1.1993513 2040625
-0.37687734 -0.053328022 1.1988636 2172202
-0.36943576 -0.057211056 1.1990987 2760198
-0.38206714 -0.082452476 1.2110379 4683677
-0.37643453 -0.08158952 1.211176 3831442
-0.39061669 -0.076808035 1.2096121 3299734
-0.38328055 -0.077937774 1.2084125 4683420
-0.37475833 -0.077125803 1.2095724 3960460
-0.37821752 -0.15534925 1.2249073 3829135
-0.37025693 -0.15364215 1.2250973 4223637
-0.36403686 -0.15314335 1.2252545 3960467
-0.38044035 -0.14620274 1.2247534 3498881
-0.37217268 -0.1444788 1.2245511 3895695
-0.36462474 -0.14196995 1.2251221 3631246
-0.38194087 -0.13515954 1.2215973 3499128
-0.3746587 -0.13485523 1.2217844 4025235
-0.36615187 -0.13255927 1.2238404 3499655
-0.38270536 -0.12581715 1.2194787 3826560
-0.37605223 -0.12483636 1.2201424 4156303
-0.36816186 -0.12414741 1.2228422 3630985
-0.38398319 -0.11634421 1.2223473 3893387
-0.37747049 -0.11505101 1.2209477 4157333
-0.37033534 -0.11341799 1.2231733 3762828
-0.38363826 -0.10768629 1.2242664 3762325
-0.37829942 -0.10432409 1.2207025 4420507
-0.37219203 -0.10352418 1.2231879 3828877
-0.38686627 -0.094192341 1.2240407 4222878
-0.3793965 -0.094960801 1.2205091 4552347
-0.37329119 -0.0944039 1.2235972 3631755
-0.38964468 -0.086694017 1.2182873 3627913
-0.38078839 -0.087101065 1.2164555 4683676
-0.37398291 -0.084713437 1.2195488 3892613
-0.37415045 -0.076804981 1.2161875 3563127
-0.3784616 -0.165263 1.2304355 3033484
-0.37014151 -0.16495684 1.2330455 2897991
-0.36029556 -0.16264334 1.2327881 3891064
-0.35299444 -0.16073784 1.2346261 2638186
-0.38377863 -0.15690115 1.2287799 666715
-0.3726669 -0.15747106 1.2290761 4813457
-0.35968775 -0.15250015 1.2293631 3499654
-0.35271257 -0.15126041 1.233218 3561592
-0.38615334 -0.14573643 1.2286009 6722
-0.36125869 -0.14309195 1.2292235 3694979
-0.35485744 -0.14182739 1.2313782 3233144
-0.36127284 -0.13256806 1.2291129 3104639
-0.3567304 -0.1318154 1.2324066 2640231
-0.36342564 -0.12307357 1.2289572 2907007
-0.35921848 -0.12248965 1.2336081 3099492
-0.38744214 -0.11435571 1.2282386 4089741
-0.36527705 -0.11365619 1.2291675 3496061
-0.36130595 -0.11184848 1.2338969 4278874
-0.38637987 -0.10600603 1.2281789 2972810
-0.36752024 -0.1035157 1.2300096 3757171
-0.36368099 -0.1039917 1.2337526 3748927
-0.38611072 -0.100117 1.2281241 3630740
-0.3680051 -0.096173525 1.2285558 3953004
-0.36996421 -0.17117032 1.2382936 984897
-0.36019188 -0.16574571 1.2384921 4350584
-0.353659 -0.1404531 1.2390647 4674411
-0.35506839 -0.13201752 1.2412739 6974583
-0.35847628 -0.12131948 1.2410728 3815753
-0.39142385 -0.11554649 1.2371505 5799072
-0.35902017 -0.11176024 1.2379572 5064001
-0.3529664 -0.14621606 1.2514814 7039097
-0.35413751 -0.14052936 1.2523917 7565430
-0.35612363 -0.13206965 1.2519177 8223350
-0.35752934 -0.12399027 1.2471279 9076613
