# .PCD v0.7 - Point Cloud Data file format
VERSION 0.7
FIELDS x y z rgba
SIZE 4 4 4 4
TYPE F F F U
COUNT 1 1 1 1
WIDTH 174
HEIGHT 1
VIEWPOINT 0 0 0 1 0 0 0
POINTS 174
DATA ascii
-0.3970587 0.076976642 1.1013103 5134174
-0.39030033 0.077020153 1.1028483 5134176
-0.39862907 0.081404567 1.101066 4871515
-0.40216944 0.057735112 1.1068389 4936281
-0.39169171 0.057745572 1.1092219 5199967
-0.38707539 0.058903191 1.1103013 5397348
-0.41146934 0.062320899 1.1045332 4673880
-0.40360495 0.063692495 1.1043895 4870232
-0.39473879 0.06601581 1.1072009 5068382
-0.38566589 0.068693623 1.1098919 5068384
-0.37883353 0.072029278 1.1125097 4476504
-0.41378331 0.071445122 1.1028373 4607822
-0.40679964 0.073176116 1.1031017 4673623
-0.39622357 0.075055763 1.1055546 5134174
-0.38656482 0.078400075 1.1078362 4739419
-0.37941962 0.079983234 1.1108204 4081746
-0.41631091 0.079495251 1.1041772 4410445
-0.40799785 0.082594812 1.1030691 4213839
-0.39836049 0.085539564 1.1053357 4345429
-0.38872898 0.087529153 1.1075766 4016211
-0.38119784 0.089096352 1.1105129 3621193
-0.40870467 0.088025734 1.1030467 3884109
-0.40005246 0.091207266 1.1050953 3752784
-0.39017174 0.093615234 1.1074035 3621192
-0.38301477 0.094286487 1.1090481 3686459
-0.40954491 0.043653484 1.1155013 4673626
-0.40101188 0.044765681 1.1145563 4870741
-0.39210972 0.045800906 1.1167964 5265754
-0.38280675 0.04887661 1.1192644 5397604
-0.37602949 0.053488348 1.1239595 4608350
-0.41174299 0.052273165 1.1111908 4673629
-0.40297836 0.052817013 1.110975 4870744
-0.39453837 0.053306866 1.1125649 5134174
-0.38347477 0.05815899 1.1158735 5397606
-0.37674153 0.060784649 1.1217452 4476760
-0.37225515 0.066144168 1.1251402 4015442
-0.42126316 0.058547344 1.113802 3883351
-0.41681856 0.05951551 1.1095029 4475995
-0.38399345 0.064731121 1.1152538 5068641
-0.37652701 0.069951683 1.1191905 4082513
-0.3721424 0.072366178 1.1248114 3752531
-0.42005339 0.06896773 1.107777 4079443
-0.37667099 0.07928504 1.1188284 3621705
-0.37252018 0.077977911 1.1229192 3751503
-0.37964189 0.086307928 1.1167929 3490378
-0.39690676 0.028331921 1.1298555 5002588
-0.39387482 0.029070809 1.1305639 5528419
-0.4092266 0.035206512 1.127229 4739163
-0.40103903 0.034159862 1.1260438 5002333
-0.39195627 0.036056999 1.1281005 5397092
-0.3839964 0.040124014 1.1314064 5332066
-0.37890768 0.042595372 1.1343119 4740695
-0.41033226 0.038878601 1.1216854 4082256
-0.40309033 0.039405778 1.1215504 5068120
-0.38194609 0.045163121 1.1285571 5200736
-0.37541163 0.050277311 1.132365 4345175
-0.36964127 0.053737458 1.1361167 4278096
-0.37432846 0.060206715 1.1295002 4147028
-0.37056053 0.060760487 1.1345607 3819087
-0.37164745 0.068129852 1.1306633 3687502
-0.38978434 0.018118579 1.1424994 5528423
-0.38582632 0.019637283 1.1434382 5397348
-0.40018937 0.023521356 1.1347997 4804702
-0.39102679 0.025526542 1.1363398 5462626
-0.38283369 0.028257739 1.1409189 5003105
-0.37619311 0.033558551 1.1435214 4804440
-0.41149068 0.031163111 1.1337922 3817824
-0.4040865 0.028999887 1.1313174 4673622
-0.38888639 0.032704223 1.1348684 5660265
-0.3822439 0.035923596 1.1364609 5069150
-0.37477443 0.040697385 1.1403328 4475986
-0.37060574 0.046126608 1.1414191 4014924
-0.37311244 0.047552254 1.1388335 4606547
-0.36834991 0.051230814 1.1405232 3620428
-0.3959662 0.009791309 1.1480626 4079956
-0.38897514 0.010414317 1.1473235 5266270
-0.38403222 0.01214214 1.1508362 5002845
-0.399672 0.01517782 1.1453054 4079963
-0.39141616 0.01445942 1.1451128 5330781
-0.3823199 0.019010447 1.1489868 5002331
-0.380211 0.025635011 1.1479455 5001816
-0.37717822 0.029342853 1.1499606 4540755
-0.37426612 0.037084263 1.1495889 4213074
-0.39046845 0.00051885471 1.1613868 5265766
-0.39209419 0.0046459753 1.1581913 5068639
-0.38412151 0.0082792584 1.1596084 4214103
-0.40014949 0.0089905262 1.1511943 1580089
-0.38064331 0.015647039 1.1564835 4145996
-0.37923437 0.021920647 1.1562798 4212054
-0.39697802 -0.0020627091 1.1629183 3618132
-0.39152277 -0.0018630205 1.1641639 5199718
-0.38553351 0.000726372 1.1655918 4214875
-0.37674057 -0.058283068 1.1825023 528927
-0.37173426 -0.057750285 1.1836543 1517876
-0.37294751 -0.067881808 1.1954306 4419983
-0.3884089 -0.064686537 1.1899443 1651559
-0.38272795 -0.062603228 1.1880651 1782104
-0.37020975 -0.062198982 1.1887605 4154236
-0.36695591 -0.057789776 1.1935329 3028033
-0.38271308 -0.055217918 1.1935323 2369321
-0.3744826 -0.053421684 1.1917567 2040105
-0.3861689 -0.036433708 1.1891214 4146252
-0.38920563 -0.069656551 1.1998949 5077683
-0.38185617 -0.070560127 1.2001754 4617364
-0.37283799 -0.068750709 1.2022723 4549258
-0.36847049 -0.062217522 1.2006963 6582660
-0.39193797 -0.058647588 1.1954505 7695014
-0.3856554 -0.0532501 1.1977006 2040625
-0.37811297 -0.050169375 1.1988103 2172202
-0.37055227 -0.053435791 1.2004466 2760198
-0.38303331 -0.080008239 1.2092417 4683677
-0.37763274 -0.078692093 1.2105033 3831442
-0.39159662 -0.075038552 1.2062485 3299734
-0.38409764 -0.07552354 1.2065027 4683420
-0.37606943 -0.074055463 1.2093356 3960460
-0.37565538 -0.15276447 1.2224027 3829135
-0.36806405 -0.15041864 1.2241888 4223637
-0.36206177 -0.14941779 1.2255793 3960467
-0.37859058 -0.1438306 1.2219627 3498881
-0.3706241 -0.14142984 1.2234251 3895695
-0.36357987 -0.13833179 1.2255163 3631246
-0.38039833 -0.13284884 1.2187538 3499128
-0.3733474 -0.13195573 1.2203799 4025235
-0.36563805 -0.12904042 1.2241125 3499655
-0.38154212 -0.12353534 1.2166792 3826560
-0.37525749 -0.1220357 1.2186595 4156303
-0.36813667 -0.12079291 1.222875 3630985
-0.38417286 -0.11429907 1.2193937 3893387
-0.37764955 -0.11243138 1.219329 4157333
-0.37125576 -0.11029433 1.222946 3762828
-0.3849622 -0.10571033 1.2214845 3762325
-0.37934238 -0.10180612 1.2191006 4420507
-0.37393105 -0.10059166 1.2227557 3828877
-0.38924262 -0.092525914 1.2208469 4222878
-0.38118893 -0.092562824 1.2188476 4552347
-0.37587628 -0.091610581 1.2230892 3631755
-0.39148372 -0.085093737 1.2147819 3627913
-0.38243893 -0.084713444 1.2147282 4683676
-0.37660217 -0.08188048 1.2191432 3892613
-0.37679562 -0.073905289 1.2159449 3563127
-0.37611333 -0.16284262 1.2276108 3033484
-0.36852196 -0.16194299 1.231817 2897991
-0.35905403 -0.15882392 1.2335466 3891064
-0.35244608 -0.15638903 1.2368211 2638186
-0.38170975 -0.1548939 1.2250751 666715
-0.37086326 -0.15456168 1.2275501 4813457
-0.35867152 -0.14855716 1.2304755 3499654
-0.35271817 -0.14687891 1.2356515 3561592
-0.38496357 -0.1439613 1.2246137 6722
-0.36099541 -0.13930969 1.2301825 3694979
-0.35527277 -0.1375974 1.2335793 3233144
-0.36190096 -0.12882441 1.2302437 3104639
-0.35817227 -0.12781195 1.2343814 2640231
-0.36479759 -0.11953811 1.2298214 2907007
-0.36164689 -0.11876614 1.2352206 3099492
-0.38887525 -0.11279671 1.2245177 4089741
-0.3674646 -0.11031608 1.2298162 3496061
-0.36466601 -0.10834701 1.2352656 4278874
-0.38855049 -0.10439071 1.2248056 2972810
-0.37070051 -0.10042675 1.2303647 3757171
-0.36763984 -0.1007106 1.2347838 3748927
-0.38878801 -0.098500848 1.2249016 3630740
-0.37152737 -0.093104795 1.2289642 3953004
-0.36883467 -0.16829155 1.2368944 984897
-0.35979775 -0.16209465 1.2391073 4350584
-0.35572278 -0.13638502 1.2413726 4674411
-0.35826319 -0.12817098 1.2433977 6974583
-0.3624815 -0.11778708 1.2427028 3815753
-0.39440247 -0.11460406 1.2324474 5799072
-0.36323386 -0.1082065 1.2396982 5064001
-0.3569715 -0.14248013 1.2535855 7039097
-0.35878688 -0.13694169 1.2543396 7565430
-0.36136869 -0.12866193 1.2536213 8223350
-0.36250746 -0.12057051 1.2487812 9076613
