# .PCD v0.7 - Point Cloud Data file format
VERSION 0.7
FIELDS x y z rgba
SIZE 4 4 4 4
TYPE F F F U
COUNT 1 1 1 1
WIDTH 1130
HEIGHT 1
VIEWPOINT 0 0 0 1 0 0 0
POINTS 1130
DATA ascii
-0.12938154 -0.14476055 1.0877204 2114980
-0.13508849 -0.13365653 1.0867122 1063065
-0.13055632 -0.13638392 1.087639 2447769
-0.13481194 -0.12608851 1.0868946 2578847
-0.13238205 -0.12565136 1.0899546 2907546
0.16526438 -0.11696023 1.0945735 6851775
0.17086682 -0.11632068 1.093199 13029078
-0.1343949 -0.11600258 1.0878892 3104917
-0.13270156 -0.11311014 1.0902416 3170462
0.16359796 -0.10620945 1.0947918 3040417
0.17342828 -0.10925422 1.0934153 13422807
0.1762671 -0.10605449 1.0935464 13619661
-0.1367998 -0.10353923 1.0881329 3104162
0.16216482 -0.09801697 1.0943116 2973607
-0.13635139 -0.095208079 1.0885867 3169952
0.16228019 -0.087954834 1.0966932 2843043
-0.13837864 -0.08556132 1.0879295 3301299
-0.12426219 -0.16356944 1.0982336 4750553
-0.12060302 -0.16574967 1.1002563 1196192
-0.12639765 -0.15628405 1.09516 3036848
-0.12254617 -0.1585806 1.1003853 1789334
0.16139945 -0.14738292 1.1037899 12898004
-0.12565359 -0.14540316 1.0968521 2776475
0.1616876 -0.13825089 1.1029087 9087435
0.16744392 -0.13338809 1.0997351 13488846
-0.12816888 -0.13472214 1.0968295 3038106
0.16128983 -0.12758707 1.1021497 4354994
0.169129 -0.12536916 1.0999562 13752800
-0.13031785 -0.12509911 1.098457 2973083
0.16099519 -0.11784284 1.1032798 2121388
-0.13540949 -0.11157402 1.0942255 3301280
-0.13197544 -0.11652344 1.0978161 3039132
0.16156049 -0.10971768 1.101339 2646946
0.17761315 -0.10411137 1.1036234 13817039
-0.13556983 -0.10528057 1.0943694 3366820
-0.13311291 -0.1058002 1.0994085 3105183
0.15955098 -0.097599924 1.1051174 3631271
0.17861138 -0.10198154 1.103693 13817037
-0.13585488 -0.094092213 1.0946254 3499424
-0.13321385 -0.095132448 1.0984554 3302563
0.15897068 -0.087344818 1.1045865 3369127
-0.1334133 -0.085628085 1.0983735 3434147
0.16062173 -0.077740535 1.1058123 2908578
0.16634454 -0.074925035 1.1040819 8233160
-0.1382762 -0.074534997 1.0958922 3365295
-0.1329864 -0.075682804 1.0989609 3499689
0.16117452 -0.068142071 1.1057855 4024485
0.16613017 -0.066510916 1.1042743 11192030
-0.13701181 -0.065672755 1.0982684 2181536
-0.13181429 -0.065428309 1.099578 3433908
0.16021748 -0.062784374 1.1082458 2708114
-0.13568431 -0.057509694 1.1024876 8233201
-0.13179682 -0.058492217 1.1008267 3564980
0.0062597552 0.11802703 1.1054118 9935247
0.011946733 0.11907132 1.1055492 9934992
-0.11493238 -0.17472023 1.1088556 929696
-0.11078721 -0.17502278 1.1112397 1984411
0.15136728 -0.16419965 1.1167036 13424882
-0.11614231 -0.16513453 1.1067624 2512540
-0.11153857 -0.16699289 1.1100786 2906513
0.15258811 -0.15818971 1.1144228 8955594
0.15827683 -0.15662256 1.1110153 14080986
-0.12366288 -0.15125206 1.1075377 2381461
-0.12045739 -0.15639791 1.1094196 2776212
0.15258765 -0.14855979 1.1134119 3697834
-0.12427696 -0.14536491 1.1084969 2841752
-0.12210015 -0.1497044 1.1116068 2906774
0.15417884 -0.13861355 1.1141564 2646183
-0.12645429 -0.13488053 1.1097231 2907034
-0.12237176 -0.13904399 1.1118507 2775704
0.15451138 -0.12989523 1.1154673 3696546
0.15646061 -0.12529689 1.1150466 3761571
-0.12768522 -0.12542668 1.1085063 2973083
0.1579964 -0.11914261 1.1145542 3368880
-0.12902801 -0.11523888 1.1081733 3039134
0.15800487 -0.10752437 1.1144319 3500454
-0.12946518 -0.10479251 1.1081086 3171232
0.15669887 -0.099141039 1.1156154 3631529
-0.13023159 -0.09602607 1.1075981 3302564
0.15501407 -0.08869113 1.1115385 3697839
0.15537778 -0.089002103 1.1145399 3763633
-0.13060914 -0.085498415 1.1086371 3368355
0.15566257 -0.077732354 1.1145232 3436468
0.16987114 -0.073758885 1.1151844 10992842
-0.12853639 -0.075028516 1.1089232 3697068
0.15310583 -0.064951092 1.119059 3765679
0.15646461 -0.067256913 1.1142514 3830452
0.1694088 -0.06951879 1.1152744 11387079
-0.12759294 -0.067178391 1.1069244 3631022
-0.12548968 -0.063904665 1.1065426 3500456
0.15235128 -0.057986911 1.1163166 3830449
0.15912625 -0.058254138 1.1139643 5207985
0.16558985 -0.059196033 1.1181078 10334913
-0.12817781 -0.055215977 1.109265 3434161
0.15126923 -0.04907643 1.1162493 3893939
0.15838848 -0.049363937 1.1155822 8428221
-0.12875982 -0.045281656 1.1130588 6194370
-0.12428308 -0.043086883 1.1140566 4421311
0.14878842 -0.037358925 1.1185269 5734064
0.15516001 -0.040898494 1.1196623 10203587
-0.12312018 -0.036390793 1.1142362 6852289
0.14719516 -0.031428561 1.1165239 8955077
0.013554377 0.094767183 1.1200199 9737616
-0.083657108 -0.2109279 1.1192768 7635861
-0.080314532 -0.21139802 1.122 8100012
-0.094216339 -0.20133278 1.1219591 10535920
-0.087077431 -0.20377725 1.1196898 5996227
-0.080405951 -0.20780966 1.1220821 6394567
-0.10434269 -0.19036722 1.1140105 8431615
-0.097339578 -0.19269952 1.1168656 1526185
-0.091179788 -0.19503215 1.1210234 1262491
0.13235484 -0.18668979 1.1268051 11717846
-0.11311228 -0.18202992 1.1140311 7571711
-0.10610493 -0.18415946 1.1156769 1917611
-0.099141188 -0.18659294 1.1195379 2379673
-0.092364877 -0.1894373 1.122274 2644619
0.13376905 -0.17978086 1.1269947 5010097
0.14105697 -0.17656165 1.1240705 10599906
0.14814274 -0.1751543 1.1233867 14081762
-0.10644783 -0.17539762 1.1185311 2709143
0.13454154 -0.16916054 1.1272584 2909858
0.14125256 -0.16843024 1.1235889 4026283
0.14892457 -0.16834648 1.1200597 12307424
-0.11362969 -0.16172087 1.1144956 2775446
-0.10919946 -0.1658906 1.1173967 2775442
0.14225893 -0.15947561 1.1246369 3105445
0.14727966 -0.15840447 1.1197593 2578854
-0.11588744 -0.15462674 1.1167716 2775449
-0.11170123 -0.15703125 1.1213136 2906778
0.14431067 -0.14965516 1.126308 3564451
0.14771701 -0.1485005 1.1224008 3433893
-0.11998226 -0.14607657 1.1180309 2840984
0.14556648 -0.14147612 1.1281248 3565217
0.14939862 -0.13914134 1.1229198 3499430
-0.1250274 -0.13419686 1.1149127 2841497
-0.12211948 -0.1360396 1.1209303 2907290
0.15135697 -0.12852252 1.1255414 3237547
-0.12547973 -0.12478773 1.1167246 2973083
-0.12282313 -0.12530427 1.1211674 3038877
0.15417798 -0.1187923 1.1270075 3827369
0.1569345 -0.11751904 1.1209073 3564710
-0.12681597 -0.11488026 1.1181874 3039391
-0.12420393 -0.11681646 1.1220053 3170977
0.15419342 -0.10869867 1.127062 3565735
0.15671664 -0.10896786 1.1211029 3500198
-0.12719332 -0.10674614 1.1205139 3170977
0.15424448 -0.099662952 1.1266072 3631790
0.15531752 -0.10137594 1.1292564 3434923
-0.12759708 -0.096179262 1.1197525 3302823
0.15361352 -0.088229261 1.1270288 3566513
-0.12779428 -0.086151376 1.1186491 3368614
0.15247259 -0.079001643 1.1272603 3632560
-0.12751348 -0.078468174 1.1201683 3565995
0.15104112 -0.068839245 1.1261971 3895728
-0.12499446 -0.063391954 1.1221718 3697842
0.14847925 -0.058911543 1.1249111 4158132
-0.12352011 -0.055022135 1.1211598 3502262
0.1470533 -0.048305534 1.1263312 4027837
-0.12110636 -0.045433179 1.1208459 3698611
0.14182952 -0.037081383 1.1304917 4619197
0.14782153 -0.03990477 1.1250038 4946612
-0.12745109 -0.039065 1.1170892 7180220
-0.12008647 -0.036047097 1.1245095 4815032
0.14159268 -0.030589826 1.1299719 5209534
0.14641623 -0.028548688 1.1227787 8425655
0.014714816 0.090700716 1.1229494 9474444
-0.056679994 -0.22083262 1.1292524 8300241
-0.075023182 -0.2130127 1.1254327 7642055
-0.067559563 -0.21353234 1.1277063 4815810
-0.060745649 -0.21684657 1.1292648 5210825
-0.084453933 -0.20132583 1.1251547 932767
-0.07743331 -0.20463297 1.1269019 2382238
-0.068787858 -0.20750968 1.1293234 2251168
0.1145587 -0.19967274 1.1331509 6518691
0.12039556 -0.19846793 1.131866 11319227
-0.086389527 -0.19467503 1.1271393 2447513
-0.080951907 -0.1980591 1.1293025 2513045
0.12202203 -0.19021291 1.1324674 4617903
0.12912177 -0.1899842 1.1296651 10929103
-0.096114546 -0.18388116 1.1267861 2971544
-0.090120241 -0.18750916 1.1273661 2774929
0.12386986 -0.1808843 1.132108 2909086
0.12879579 -0.17975909 1.1298978 3105187
-0.10395247 -0.1708519 1.1254797 2709911
-0.099251159 -0.17584813 1.1278104 2644371
0.13005149 -0.16992563 1.1307683 3368356
-0.10648692 -0.16434148 1.1274006 2775444
-0.10143153 -0.1683583 1.1282561 2709910
0.13419835 -0.15997764 1.1320685 3368613
0.13835929 -0.1568715 1.1306231 3499683
-0.10991079 -0.15584922 1.1272128 2841497
0.1357591 -0.15253636 1.1346745 3237027
0.14047015 -0.14964788 1.1321679 3302821
-0.11611553 -0.14439175 1.1264284 2645144
-0.11263864 -0.14608929 1.1289986 2775964
0.14331855 -0.13966125 1.1333069 3237542
0.14733055 -0.13596164 1.1326243 3106215
-0.11817674 -0.13606405 1.1274657 2907291
0.14443848 -0.13009146 1.134038 3499683
0.14751875 -0.12799878 1.1326237 3303338
-0.11943326 -0.12619071 1.1286175 3039134
0.14891116 -0.11947832 1.1331196 3499947
-0.12489482 -0.11197262 1.1264403 3236770
-0.12269356 -0.11628419 1.1297181 3236770
0.15036628 -0.10894317 1.1338015 3500458
-0.1250598 -0.10549641 1.1265885 3237027
-0.12340523 -0.10590845 1.1306136 3302821
0.1524539 -0.098352246 1.1345584 3632048
-0.12530729 -0.095782101 1.1268107 3302824
-0.1236398 -0.096701466 1.1308242 3302569
0.15050274 -0.089509159 1.1346225 3632047
-0.12597007 -0.086726218 1.1270093 3434408
-0.12333424 -0.084384218 1.1311183 3434665
0.14683758 -0.078545012 1.1344422 4026292
-0.12580228 -0.07635349 1.1272552 3631531
-0.12417793 -0.075579561 1.1313074 3631531
0.14676858 -0.070536569 1.1332537 4157366
-0.12596728 -0.069877289 1.1274033 4025255
-0.1229943 -0.064732239 1.1298695 3632304
0.14594078 -0.058756873 1.1330681 4289211
-0.11975303 -0.055645533 1.1295747 3568048
0.14249881 -0.048089396 1.133916 4094399
0.14491422 -0.052447021 1.1351961 4224702
-0.11856472 -0.049531121 1.1280262 3764911
-0.11528555 -0.045191314 1.130694 3895729
0.13971333 -0.0397553 1.1348438 4487616
-0.12029899 -0.031536482 1.1314139 6458567
-0.11525775 -0.035169639 1.1308289 3895996
0.13938296 -0.028701447 1.1340407 5735616
0.14616773 -0.025269486 1.1338556 9477559
-0.11994835 -0.028867595 1.1324837 6852289
-0.11669863 -0.028786317 1.1325502 5933254
0.04743043 0.077026531 1.1342851 9474701
-0.019907128 -0.23063917 1.1417599 7248329
0.01298016 -0.23139009 1.1415956 5801654
0.020980926 -0.23004834 1.1412524 5210039
0.033759438 -0.23039231 1.1428323 6328255
0.041422103 -0.23020068 1.1429892 7379645
0.052973825 -0.22979009 1.1432283 8430007
0.060955517 -0.22772531 1.1394333 8625323
-0.057841979 -0.22327875 1.1331742 9678537
-0.047151566 -0.22316247 1.1399187 4422071
-0.037830364 -0.2236394 1.1415672 2778029
-0.028025981 -0.22520925 1.1417254 2513574
-0.020346384 -0.22772937 1.1418191 2315684
0.0095931031 -0.22771078 1.1424147 2120102
0.021634437 -0.22740965 1.1426611 2185635
0.034742553 -0.22598653 1.1429549 2186146
0.040243771 -0.22694424 1.1430418 2316696
0.055513337 -0.22437176 1.1434056 4486314
0.063099705 -0.22374134 1.1415701 5997746
0.074151076 -0.22052479 1.1427225 6063288
0.082757309 -0.21887113 1.1440756 6589614
0.090863407 -0.21888746 1.1442364 8757678
-0.063581869 -0.21145788 1.1333364 1855898
-0.056864113 -0.21387282 1.1366531 2249885
-0.049205802 -0.21608382 1.1407902 2381985
-0.041040443 -0.21802416 1.1416347 3039902
0.076594412 -0.21343929 1.1440802 2841504
0.08260113 -0.2127414 1.1442159 3302564
0.092131861 -0.21021688 1.1431304 4420011
0.10199597 -0.20903677 1.138971 6984117
0.11140577 -0.20599389 1.1369424 6254993
-0.075006843 -0.20124134 1.1341486 2710418
-0.067272387 -0.20439404 1.1378113 2775447
-0.06055139 -0.20651987 1.1407156 2906776
0.094359249 -0.2022891 1.1442938 3171492
0.10288672 -0.20063798 1.1417006 3237285
0.11127276 -0.19911717 1.1376723 3629215
-0.078149363 -0.19446215 1.1382465 2775191
-0.069978155 -0.19780773 1.1408653 2906012
0.10457855 -0.19142495 1.1434838 3040421
0.11154361 -0.1894902 1.1402798 3105703
0.11751268 -0.18952605 1.1374489 2777257
-0.093735375 -0.18066943 1.1334571 2710677
-0.086943254 -0.18446529 1.1370343 2709909
-0.080685787 -0.18797402 1.1395484 2709910
0.11241043 -0.18117061 1.1440723 3368100
0.12003 -0.17904446 1.1398784 3302561
-0.095191538 -0.17423233 1.1366912 2710421
-0.090417333 -0.17705876 1.1408108 2644886
0.11424056 -0.17339578 1.1457648 3040936
0.12224231 -0.17004879 1.1439142 3237031
0.12862816 -0.16692126 1.1411998 3368615
-0.10510436 -0.16137561 1.1336823 2776209
-0.099655323 -0.16582964 1.1384386 2841240
0.12401652 -0.16156551 1.1462358 3237287
0.13051549 -0.15905869 1.1412783 3302822
-0.10636394 -0.15485802 1.138345 2710683
-0.1016423 -0.15809661 1.1411645 2841499
0.13251215 -0.15064946 1.1440704 3237541
0.13748857 -0.14772268 1.1404243 3237798
-0.10872168 -0.14637478 1.1391064 2907293
0.13392164 -0.14190674 1.1468923 3237797
0.13868777 -0.1391297 1.1420497 3303334
-0.11524508 -0.1347484 1.1352466 2907805
-0.11312591 -0.13647029 1.1413085 2907805
0.14023831 -0.12978567 1.1448557 3434407
-0.11601115 -0.12549461 1.1369723 3039392
-0.11346953 -0.12673555 1.1423297 3039391
0.14193986 -0.12016697 1.1449875 3500202
0.14612238 -0.11702402 1.1397129 3631274
-0.11942985 -0.11645468 1.1389834 3170979
0.14358726 -0.10990645 1.1473881 3631791
0.14707838 -0.10911804 1.1416954 3566510
-0.12012079 -0.10614841 1.1403921 3105957
0.14250661 -0.098790765 1.1464037 3632305
0.14789012 -0.099615753 1.1404886 3501227
-0.12071194 -0.096084543 1.1383289 3237546
0.14183582 -0.089715719 1.1457233 3698099
0.146561 -0.089861579 1.140757 3698094
-0.12034204 -0.086331934 1.1388025 3434923
0.14282462 -0.08042901 1.146506 3895479
0.14523619 -0.082240596 1.1405087 3895477
-0.1202418 -0.075885639 1.1396681 3566256
0.14276911 -0.06915763 1.1481024 4027579
0.14531335 -0.068441838 1.1448348 4157882
-0.11945935 -0.066938341 1.1391362 3567024
0.14049762 -0.059664398 1.1477691 4159422
0.14491659 -0.05959947 1.1434329 4289724
-0.11735264 -0.056997862 1.1372135 3567791
-0.11440597 -0.055112097 1.1426519 3764403
0.13856275 -0.049640574 1.1464741 4356797
-0.11277182 -0.045995746 1.1367995 3830196
0.13567595 -0.040108066 1.1457059 4619718
-0.11162355 -0.035118371 1.1394154 3896507
0.1312746 -0.028335862 1.1463828 4817095
0.13587867 -0.02872429 1.1432415 4948420
-0.11948328 -0.026165672 1.1405599 6916535
-0.1119783 -0.026501261 1.1403935 5210049
0.1302238 -0.022018783 1.1486218 5013440
0.13471815 -0.021435842 1.1463903 5998788
0.028146841 0.049602851 1.1441227 5859448
0.03637531 0.049928531 1.1424359 6122362
0.041869532 0.050125867 1.1455511 6319482
0.052864395 0.051576078 1.1498055 5330522
0.028645523 0.054097652 1.1427132 5792108
0.036456287 0.055150449 1.1423595 5527648
0.041758373 0.054489017 1.145651 5067354
-0.014226205 -0.23053822 1.1448764 4354997
-0.0068840245 -0.23142788 1.1470026 4684224
0.0030301688 -0.23085202 1.1457456 4289976
0.013955857 -0.22826461 1.1454898 2054307
0.024396298 -0.22855258 1.1456906 2777510
0.029911872 -0.2295128 1.1457777 4026798
0.046374705 -0.22910108 1.1461146 5604271
0.050174091 -0.22735883 1.1462308 4881326
-0.033461288 -0.22066528 1.144725 3039902
-0.025502238 -0.22139555 1.1453663 2710943
-0.017044757 -0.22315735 1.148299 2645152
-0.0071655558 -0.22584553 1.1517963 2514339
0.0027787387 -0.22548099 1.151469 2514851
0.012658513 -0.22269306 1.1501964 2842787
0.022572104 -0.22197106 1.1482093 2908579
0.032219008 -0.22134602 1.1489048 3039651
0.042404082 -0.22181982 1.1502079 2908578
0.051732432 -0.22070888 1.1501691 2778020
0.061763328 -0.21874331 1.1480919 2646433
0.071431324 -0.22115344 1.1467985 5012145
0.082987927 -0.22214557 1.147005 8955830
-0.046706248 -0.21258332 1.1449366 2841242
-0.036855988 -0.21445672 1.1471372 2775960
-0.027857713 -0.21555124 1.1492246 2841500
-0.01847342 -0.21757424 1.1530989 2907551
0.013188422 -0.21604523 1.153764 3105184
0.022388516 -0.21544658 1.1539609 3170722
0.032334752 -0.2151978 1.1541644 3302053
0.042451102 -0.21439195 1.1543844 3170723
0.052926447 -0.21320847 1.1546202 3105188
0.06226781 -0.21214208 1.1531157 3170467
0.071941808 -0.2116016 1.1494331 3236258
0.082033589 -0.20786206 1.1477647 3171236
-0.063597679 -0.20165223 1.1445705 2906776
-0.057035975 -0.20375071 1.1457953 2907033
-0.048638381 -0.20461026 1.1496344 2841497
-0.039346661 -0.20851293 1.1528959 2775704
0.063081518 -0.20668846 1.1549746 3105443
0.071922623 -0.20646735 1.1551554 3105443
0.082642548 -0.2024523 1.1541986 3105956
0.091002196 -0.19929123 1.1509002 3105956
-0.074852496 -0.19095218 1.1445971 2644884
-0.067755416 -0.1944119 1.1476586 2775705
-0.059368186 -0.19713585 1.1504296 2841497
0.086007863 -0.19505739 1.1557022 3172006
0.093621179 -0.19246176 1.1549138 3040421
0.099471286 -0.18990824 1.1525886 2974628
-0.083856359 -0.18239215 1.1446183 2645144
-0.077232562 -0.18406487 1.147771 2710425
-0.071892701 -0.18668756 1.1493292 2776216
0.10271226 -0.18119258 1.1531069 3171493
0.10769466 -0.17876515 1.1501112 3237026
-0.087149233 -0.17451572 1.1473265 2710424
-0.080805287 -0.17665714 1.1513616 2710937
0.10539357 -0.1746687 1.1565644 3302823
0.11168052 -0.1703537 1.1536309 3172005
0.11741034 -0.16705024 1.1529795 3172006
-0.096057221 -0.16329661 1.1448222 2841498
-0.09169808 -0.1658209 1.1497753 2907290
0.11395313 -0.16339692 1.156998 3303592
0.12013871 -0.15982932 1.1558704 3237544
0.12630874 -0.15517308 1.1494322 3303337
-0.098070927 -0.15492816 1.146693 2973342
-0.093527615 -0.158081 1.1529982 3038879
0.12355773 -0.15199485 1.1567886 3237544
0.1279294 -0.14875226 1.1524159 3303336
-0.10637279 -0.14356565 1.1460791 2973342
-0.10031918 -0.14668201 1.1506287 2973600
0.13108091 -0.1395748 1.1538936 3368872
-0.10817743 -0.13577832 1.1475788 3039392
-0.10284282 -0.13659348 1.1533155 3236259
0.13210607 -0.13014847 1.1558852 3500460
0.13658497 -0.1274623 1.1502844 3434923
-0.10953321 -0.12618098 1.1483126 3170978
0.13290182 -0.12121992 1.157027 3500719
0.13759668 -0.11852565 1.1538484 3500718
-0.11632051 -0.11511867 1.1455461 3237029
-0.11259403 -0.11653328 1.1515899 3237286
0.13765377 -0.10973016 1.1568284 3697329
-0.11654419 -0.10633906 1.1457468 3237543
-0.11414657 -0.10601541 1.1533056 3172263
0.13864948 -0.10058177 1.1565566 3697843
-0.11715188 -0.096785255 1.1489596 3303340
-0.11520437 -0.095778488 1.1540242 3303852
0.13814992 -0.090157077 1.1571907 3764149
-0.11740401 -0.086959884 1.1461829 3500716
-0.11488157 -0.085713163 1.154266 3501229
0.14085248 -0.079619467 1.1560615 3764661
-0.11724319 -0.078902751 1.1463746 3566512
-0.11424743 -0.075505406 1.1508793 3632306
0.13761443 -0.069489077 1.1561332 3896764
-0.11389097 -0.065875217 1.1511115 3698357
0.13133332 -0.059655361 1.1584353 4291265
0.13530466 -0.060598537 1.1529658 4225217
-0.11250288 -0.056823872 1.1509869 3764408
0.13188417 -0.050022673 1.1580046 4554434
0.1345998 -0.049543206 1.1520669 4488640
-0.10983733 -0.046062626 1.152092 3895997
-0.10586338 -0.042836472 1.1554478 4027323
0.13123764 -0.039217554 1.157244 4817354
-0.10846887 -0.036414623 1.1488764 3962044
-0.10464172 -0.035247803 1.1548493 4093118
0.12154154 -0.027197339 1.1603338 5014224
0.12708168 -0.029699653 1.1563834 4751563
-0.10761005 -0.025950573 1.1478043 4290235
-0.10282417 -0.02580639 1.1524383 4158908
-0.096773535 -0.023442455 1.156082 4028609
0.11973462 -0.020163074 1.1586837 4817874
0.1265118 -0.019589178 1.1536071 5145287
-0.10056817 -0.019052826 1.1505066 4487616
-0.095343113 -0.016356453 1.1549423 4356800
0.11057081 -0.0078716204 1.1585666 5276623
0.1170596 -0.010636494 1.1549149 5604813
0.12651753 -0.011585407 1.1536832 6720449
-0.093446359 -0.0093528181 1.1564777 5671109
0.10854238 -0.0023892969 1.1600838 5802961
0.11500756 -0.0029029027 1.156103 6787017
0.032088853 0.011479042 1.1594601 12972031
-0.023348335 0.020052195 1.1565577 5869264
0.0090898089 0.0171699 1.1591359 7515376
0.016589569 0.016988859 1.1592808 8764660
0.026203251 0.016787007 1.1594672 10146554
0.032860346 0.015921421 1.1595793 10870005
-0.081138916 0.027056634 1.1495699 8028800
-0.076026462 0.027550563 1.1496831 7305855
-0.01902901 0.021258339 1.1586727 5671370
-0.015713595 0.021341249 1.1587405 5869265
0.0074942904 0.021921672 1.1592153 6988787
0.01191484 0.022032216 1.1593058 7185904
0.097890332 0.033028558 1.1612719 6314850
-0.074934371 0.03258054 1.1498224 8028802
0.094705857 0.036487401 1.1612895 6117979
0.070650093 0.046592936 1.1530439 5593178
0.072845146 0.046647832 1.1530888 5658970
-0.013004993 -0.22049485 1.1571413 2973083
-0.0074320165 -0.22146505 1.1572293 2973595
0.0019679107 -0.2208149 1.1580983 2973598
-0.033248521 -0.20990534 1.1569865 2842012
-0.026836768 -0.21113196 1.1570853 2776219
-0.017467428 -0.21341312 1.1587427 2907806
-0.0078746779 -0.21458995 1.1605407 2907807
0.0026885094 -0.21487041 1.1609195 2973599
0.011557926 -0.21224815 1.1584893 3039136
0.022257674 -0.21100557 1.1593981 3170723
0.032241404 -0.21062127 1.1589385 3236770
0.042036954 -0.20990027 1.158483 3170979
0.051073682 -0.20946088 1.1586729 3170980
0.057684977 -0.20763117 1.1588472 3171236
-0.044563979 -0.20131168 1.1569625 2842012
-0.037829511 -0.20344226 1.1585019 2842011
-0.02818267 -0.20548308 1.1596533 2842012
-0.019892503 -0.20676053 1.1613274 2907805
0.026600353 -0.2069895 1.1622461 3302309
0.032602713 -0.20565647 1.1612532 3302308
0.041275784 -0.2052874 1.1600765 3171236
0.052083753 -0.20555209 1.1587845 3171236
0.062636316 -0.20395273 1.160699 3105443
0.07241822 -0.20176992 1.1602775 3171492
0.078936242 -0.19970247 1.1594549 3040420
-0.065916441 -0.19074988 1.1567851 2841497
-0.057085305 -0.19329059 1.1574348 2907291
-0.048610471 -0.1957604 1.1588951 2907549
-0.041950855 -0.19682774 1.1611211 2907551
0.075277984 -0.19463822 1.1635026 3040420
0.082281925 -0.19257811 1.1617943 3106213
0.090074681 -0.18973359 1.1599095 3106214
-0.067624129 -0.18435121 1.1589017 2907290
-0.060996905 -0.18709934 1.1604699 2973340
0.08617872 -0.18545848 1.1639339 3302823
0.092208244 -0.18286771 1.1617132 3237030
0.098254874 -0.17931359 1.1620944 3237031
-0.085277021 -0.17126164 1.1568559 2841497
-0.076806068 -0.17454189 1.1574812 2842012
-0.070681281 -0.17668146 1.1600207 2907547
0.10325895 -0.1714839 1.1615218 3368361
0.10827628 -0.1680854 1.1607774 3237285
-0.086906292 -0.16538462 1.156961 2973085
-0.080177568 -0.16550377 1.1598301 3039135
0.10540503 -0.16427366 1.1608095 3368615
0.11182705 -0.16079912 1.161746 3237799
0.11632498 -0.15734309 1.1611887 3303337
-0.094628863 -0.15263264 1.1571057 2973857
-0.089143619 -0.15606126 1.1586908 3039137
-0.083239563 -0.15685047 1.1612353 3104930
0.11359889 -0.15328346 1.1632303 3172264
0.11977155 -0.15020786 1.162091 3238059
-0.096048385 -0.14448822 1.1582685 3039650
-0.09203738 -0.14805204 1.1612662 3105700
0.12273106 -0.14042367 1.1638665 3369132
0.12699066 -0.14043264 1.1617961 3434410
-0.099035509 -0.13601562 1.1591218 3171236
0.12439424 -0.13228329 1.1651366 3500719
0.12772998 -0.12986816 1.1640588 3435183
-0.10645284 -0.12407924 1.1575384 3302823
-0.10180654 -0.12600377 1.1602536 3171495
0.12823807 -0.11975323 1.1641235 3566514
-0.10844754 -0.11552656 1.1591539 3368873
-0.10477477 -0.11665124 1.1609468 3368875
0.13073853 -0.11047371 1.1633716 3697588
-0.1096061 -0.10651646 1.1605543 3303850
0.13200875 -0.10090178 1.1662503 3763892
0.1352831 -0.10005844 1.162905 3698099
-0.11118779 -0.096325345 1.159694 3435181
-0.10537045 -0.096724182 1.1622014 3435438
0.1327586 -0.090768777 1.167074 3829942
0.13564672 -0.090082318 1.1642889 3764149
-0.11040648 -0.086640999 1.1603361 3501229
0.13241842 -0.077416599 1.1673794 3896505
0.13692889 -0.080136634 1.1652226 3830455
-0.11005045 -0.07675986 1.1601125 3632563
-0.10596576 -0.07335788 1.1627359 3567542
0.12992914 -0.070261024 1.1649246 4027837
0.13527609 -0.073650591 1.1635224 3896505
-0.10954387 -0.066683263 1.160153 3829940
-0.10613585 -0.066681787 1.1628886 3699127
0.12815893 -0.060719386 1.1663512 4291009
-0.10937312 -0.056525033 1.1598604 3895737
-0.10577942 -0.055698026 1.1631526 4027576
0.12821259 -0.050663233 1.1659205 4422849
-0.10834566 -0.04978469 1.159238 4158911
-0.10399412 -0.046022192 1.1614134 4093372
0.12791823 -0.040914144 1.1656424 4817355
-0.1004777 -0.036523983 1.1612437 4093630
-0.095858768 -0.033023059 1.16388 4094397
0.1201812 -0.030375645 1.1664575 5080014
0.12481889 -0.033412434 1.1642555 4883149
-0.098522864 -0.028826863 1.1599233 4028348
-0.094114251 -0.026193321 1.1615733 4028864
0.11545452 -0.020839386 1.1661419 4949202
-0.090803869 -0.016524427 1.1621834 4029123
-0.086687379 -0.014237195 1.1645015 3963586
0.10910358 -0.011153065 1.1671314 5146069
0.11270884 -0.01540722 1.1644357 5080276
-0.090159819 -0.0086452514 1.1605614 5342665
-0.08317519 -0.0064127222 1.1647544 4882633
-0.019844234 -0.0010604635 1.1661383 6070261
-0.013167716 -0.00089348853 1.1662749 6528744
-0.0064912001 -0.00072652102 1.1664115 8827627
0.0090873344 -0.00033691525 1.1667303 10340848
0.017846588 -0.00075407326 1.1668947 8895736
0.025367539 -0.0012658164 1.1670322 6266608
0.099721238 0.0013959408 1.1675719 5475287
0.10432364 -0.00196895 1.1659173 5475028
-0.079816468 -0.00029160082 1.1629634 5999306
-0.073187239 0.00098377466 1.1631249 5540557
-0.064694814 0.0045465156 1.1627101 5803727
-0.052080959 0.0065455958 1.1656754 4950220
-0.043094117 0.0056457445 1.165833 5016280
-0.033349793 0.0052874461 1.1656182 5411294
-0.023269866 0.0055680722 1.1639842 5806569
-0.013318918 0.0057922229 1.165828 7120874
-0.0037658373 0.0067642406 1.1666409 12379901
0.0068872324 0.0065641403 1.1643205 13891069
0.016717618 0.0065867454 1.1638424 12969723
0.026644308 0.007051833 1.1649352 9946095
0.03670923 0.0070627406 1.1655384 10013177
0.046397962 0.0091912523 1.16554 7449069
0.052961938 0.011151992 1.1678711 5411552
0.096742585 0.0052450076 1.1661021 6526426
-0.050228737 0.011540323 1.1658291 6264275
-0.042608485 0.012591705 1.163504 5803990
-0.033022024 0.013495877 1.162215 5345755
-0.02305191 0.015007094 1.1624485 5412839
-0.013491157 0.015827894 1.1631579 5676266
-0.0044812141 0.015077911 1.1656777 7253489
0.0053881006 0.015185714 1.1640184 8436213
0.01543958 0.013228416 1.163172 12051453
0.029742859 0.018024459 1.1635684 10082302
0.037598241 0.017481193 1.1637119 10607102
0.046100553 0.016848445 1.163866 7515119
0.053124931 0.016379878 1.1653286 6068200
-0.01140111 0.021433793 1.1628304 6001365
-0.0069653308 0.021544732 1.1629211 6396124
0.1053348 0.0301231 1.1653539 6447199
-0.0045841029 -0.21080393 1.165539 3039391
0.0029111635 -0.21007863 1.1672057 3039135
0.014397419 -0.2103292 1.1659274 3104930
-0.033899121 -0.20036507 1.1652005 2776478
-0.027542464 -0.20114762 1.1673094 2842271
-0.017645877 -0.2025896 1.1696553 2907807
-0.0083859852 -0.20422925 1.170315 2908063
0.0016277013 -0.20485389 1.1716044 2973600
0.011928096 -0.20360309 1.1713715 3105187
0.02186108 -0.20298244 1.1706635 3236773
0.031541072 -0.20138529 1.1702124 3237029
0.042484313 -0.20119877 1.170501 3171237
0.052201349 -0.20185295 1.1683778 3171236
0.061689194 -0.20004275 1.1680315 3105444
0.070513479 -0.1983124 1.1673238 3171493
-0.046376865 -0.19187939 1.1683524 2841758
-0.038238026 -0.1940017 1.1692649 2907551
-0.02935978 -0.19495098 1.1722441 2842271
-0.018671956 -0.19589941 1.1736113 2908064
-0.011898261 -0.19685483 1.1737236 2973857
0.0094610695 -0.19632065 1.1741607 3105444
0.022301171 -0.19499969 1.1744468 3237030
0.032373182 -0.19514531 1.1738431 3302823
0.042012919 -0.19411996 1.1739357 3171495
0.051343959 -0.19246641 1.1736913 3105703
0.061060131 -0.19247729 1.1736754 3105703
0.07088767 -0.19168976 1.1719882 3105702
0.079209432 -0.18891332 1.1694316 3105958
-0.057815976 -0.1844313 1.1667454 2973598
-0.049866997 -0.18605316 1.1712205 2907551
-0.039972194 -0.18771477 1.1733793 2908065
0.072383516 -0.18332577 1.1757152 3237288
0.081230164 -0.18233484 1.1734686 3302823
0.089897387 -0.18000683 1.1707098 3237287
-0.067527145 -0.17343259 1.1680202 3105183
-0.06004642 -0.1766946 1.1713548 2974112
-0.051731266 -0.17872909 1.1733557 2842786
0.082500994 -0.17559703 1.176097 3171750
0.091061324 -0.17174207 1.1750234 3172008
0.099165328 -0.1696846 1.1708972 3303081
-0.075851411 -0.16390726 1.165886 3104930
-0.069687776 -0.16621178 1.1719575 3170978
0.093309879 -0.16337147 1.1765978 3303337
0.10109035 -0.16160548 1.1745427 3368873
0.10805931 -0.16005123 1.1715114 3237543
-0.086045921 -0.15141907 1.1679764 3040164
-0.079252705 -0.15503205 1.1691502 3105701
-0.072847113 -0.15938538 1.1733884 3302822
0.1023882 -0.15260327 1.1770301 3303597
0.10981289 -0.14989009 1.1728754 3238059
0.1168377 -0.14661846 1.1714543 3303852
-0.088669822 -0.14517498 1.1691818 3106213
-0.080940053 -0.14712103 1.1735142 3172007
0.11039891 -0.14090043 1.1772628 3369387
0.11840302 -0.14037389 1.1736324 3435181
-0.096031949 -0.13506477 1.1668264 3237030
-0.089530848 -0.13567515 1.1712767 3237800
-0.083114997 -0.13902047 1.1736604 3303594
0.11205901 -0.13481423 1.1776383 3500972
0.12042003 -0.130252 1.1746596 3500976
0.12512195 -0.12712169 1.170074 3500977
-0.097441874 -0.12588266 1.1687917 3237545
-0.092817672 -0.127524 1.172847 3303852
0.12190024 -0.12077033 1.1781622 3566772
0.12530893 -0.12092437 1.1742245 3566515
-0.10020296 -0.11624454 1.1691011 3369389
0.122514 -0.11122079 1.1783978 3763639
0.12594932 -0.11008727 1.1736014 3763639
-0.10729863 -0.10253978 1.1673629 3435181
-0.10189927 -0.10616663 1.1706251 3435438
0.12287408 -0.10012428 1.1786644 3895737
0.12795615 -0.0997587 1.1735951 3764149
-0.10698469 -0.096079297 1.1685874 3435438
-0.1016804 -0.09667106 1.1727425 3501231
0.12273089 -0.09450376 1.178793 3961530
0.12810871 -0.090270028 1.1738199 3961528
0.13526355 -0.086648852 1.171222 3895735
-0.10695089 -0.086839989 1.1694044 3501489
-0.10274801 -0.086578704 1.1723778 3501490
0.12227266 -0.076518111 1.1792045 4159679
0.12819393 -0.080938578 1.1744893 3962041
0.13520665 -0.084415883 1.1712731 3895735
-0.10758676 -0.079491213 1.1685631 3501747
-0.10291475 -0.076245055 1.1713998 3567541
0.12136092 -0.070166938 1.1793349 4225473
0.1251449 -0.070483044 1.1754007 4159424
-0.10137884 -0.066029787 1.1706021 3764919
0.12088518 -0.061305258 1.1795326 4422597
0.12488802 -0.060400385 1.1756314 4357059
-0.10113189 -0.056246582 1.1706642 3896505
-0.096476048 -0.056117989 1.1753334 3962298
0.12048978 -0.050691858 1.179773 4685767
0.12463114 -0.050317723 1.1758621 4422851
-0.099867433 -0.047046602 1.1690751 4027836
-0.095006309 -0.045281958 1.1745245 4028094
0.11838809 -0.040101651 1.1778601 4948684
0.12442935 -0.041735131 1.1730573 4751818
-0.098346345 -0.038865644 1.1676959 4093632
-0.092981532 -0.03541521 1.1737322 4094399
0.11133651 -0.029924139 1.1800766 5080784
0.11576968 -0.030770689 1.1753427 5211343
-0.089920208 -0.02686166 1.1725098 4094402
-0.083525531 -0.023698002 1.1753484 4226244
-0.077100061 -0.021888822 1.1765189 4620744
-0.023168288 -0.019415215 1.1776488 5412064
-0.00068478193 -0.018852912 1.1781088 6463211
0.0074805394 -0.022486351 1.1781862 6397929
0.017146749 -0.021603823 1.178399 6397929
0.026328154 -0.019462861 1.1786315 6003432
0.10814739 -0.020667151 1.1777284 5081042
0.11354408 -0.023511641 1.1722666 5081041
-0.082263194 -0.01573658 1.170424 4160963
-0.074319184 -0.014722295 1.1758842 4752075
-0.059371009 -0.011322066 1.1771184 4949201
-0.052611642 -0.011715434 1.1772436 5016022
-0.042993449 -0.012579381 1.1767476 5213659
-0.033133615 -0.01322408 1.1763642 5411552
-0.023281276 -0.013769545 1.1769782 5740773
-0.013193908 -0.013541676 1.1779844 6003172
-0.0030695992 -0.013276279 1.1777917 6331366
0.0070744255 -0.012937568 1.1753999 6989552
0.017163411 -0.012698591 1.1760063 6792432
0.027257346 -0.012423754 1.175563 5937640
0.035673022 -0.011349812 1.1780065 5806054
0.046330106 -0.009803392 1.179255 5674725
0.053046517 -0.0085105971 1.1794187 5674983
0.098921098 -0.009894155 1.1802982 5146841
0.10510219 -0.011671022 1.1746625 5080789
-0.079044729 -0.0071013197 1.1688223 4554184
-0.075680263 -0.0062593371 1.1719103 4751049
-0.060501538 -0.0056804866 1.1752269 4818129
-0.053046733 -0.0054734573 1.1745796 5015507
-0.043443948 -0.0051418096 1.1713766 5147609
-0.033315498 -0.004854314 1.170284 5346018
-0.023721822 -0.0050564036 1.1730824 5937898
-0.013263372 -0.0055464208 1.173501 6462952
-0.0028136978 -0.0045169741 1.1728436 8303605
0.0065783691 -0.0043618605 1.1720176 8501495
0.016471859 -0.0050738826 1.171384 7252467
0.02774461 -0.0042683855 1.1724664 6069484
0.036843542 -0.0029728487 1.1735392 6135528
0.046898894 -0.0031759515 1.1768317 5741031
0.056247137 -0.002782613 1.1786158 5543655
0.065668583 -0.001272954 1.1798389 5477092
0.075694732 0.00030450523 1.180075 5739747
0.087067746 0.00033895671 1.1803019 5280481
0.096423693 -0.0019679964 1.1767398 5015513
0.10200597 -0.0037477762 1.1745003 4949463
-0.072516039 -0.0002348423 1.1691127 4818122
-0.063112587 0.00099338591 1.1693283 5147606
-0.054447189 0.0019548908 1.169523 4818639
-0.045718599 0.00043534487 1.1696609 5344472
-0.0010704082 0.0021105558 1.1705877 12971007
0.0034100562 0.0016639978 1.1706662 12905215
0.027974375 0.0022783354 1.1711688 5807584
0.0413731 0.0026134253 1.171443 6004710
0.047410045 0.003722012 1.1715889 5807083
0.056092054 0.0063664317 1.1739577 5477863
0.064552501 0.006084621 1.1766537 5542628
0.07636781 0.003320843 1.180159 5673698
0.086911269 0.0055777505 1.1789205 5804766
0.092734858 0.0038979352 1.1724939 5147865
0.058953609 0.014225103 1.1720639 5412324
-0.0051811757 -0.19969848 1.1777924 3039650
0.001280861 -0.2001818 1.1779096 3039650
-0.025686018 -0.1923109 1.1775577 2842271
-0.018918123 -0.19214165 1.1776961 2973857
-0.0085954936 -0.19300389 1.1791449 2973857
0.0011711335 -0.19454148 1.1805668 3039395
0.011791151 -0.19232406 1.1800809 3171237
0.02107079 -0.19065742 1.1795928 3237030
0.03138781 -0.18985969 1.1802886 3302569
0.039730273 -0.18978757 1.1802509 3237546
-0.045611985 -0.18232912 1.177395 2908065
-0.038013756 -0.18310648 1.1775279 2973857
-0.029311109 -0.18467566 1.1786646 2973857
-0.019543469 -0.18635818 1.1799376 2973858
-0.011271364 -0.18702354 1.1819696 3105444
0.020418761 -0.18623099 1.1826181 3237030
0.032075483 -0.18442956 1.1828918 3302825
0.040997118 -0.18374422 1.1827774 3171754
0.050896227 -0.18397629 1.1812757 3171752
0.061235491 -0.18328077 1.1809089 3171753
0.069597721 -0.17994428 1.1807412 3237546
0.077772297 -0.17730857 1.1799649 3303592
-0.057025224 -0.17315555 1.1773827 2908579
-0.04882016 -0.17516622 1.1794996 2908579
-0.038971156 -0.17641075 1.1805758 3105444
-0.03030128 -0.17798698 1.1818027 3105443
0.064327911 -0.17607336 1.1837283 3303339
0.072325826 -0.17356923 1.1826119 3303082
0.080706224 -0.17120308 1.1807377 3237545
0.086566277 -0.16805962 1.180356 3303850
-0.066336446 -0.16210213 1.177456 3302822
-0.059662446 -0.16629249 1.1797417 3040165
-0.052477129 -0.16993503 1.1815501 3040167
0.075415149 -0.16673656 1.1841671 3303598
0.081391707 -0.16257018 1.1834418 3238061
0.089938186 -0.16024929 1.1817173 3303596
0.097587481 -0.1576263 1.180819 3369131
-0.076380491 -0.15181944 1.1774968 3171751
-0.069893725 -0.15532286 1.1789563 3368615
-0.06295158 -0.1588726 1.1816007 3171751
0.099204063 -0.15104462 1.1825057 3369134
-0.078534059 -0.14481936 1.1776177 3369130
-0.072427981 -0.14669546 1.1806966 3434922
0.10005254 -0.14139277 1.1842966 3435183
-0.080503918 -0.13630007 1.1791117 3434923
0.10261969 -0.13423666 1.1846675 3501232
0.10930915 -0.13092272 1.1842659 3435694
0.11604477 -0.12894899 1.1818565 3501232
-0.08899945 -0.1253605 1.1788652 3369646
-0.083221376 -0.12900844 1.1805621 3435182
0.11277153 -0.1216372 1.1859642 3567282
0.11690459 -0.12094927 1.1838796 3567027
-0.097689949 -0.11285035 1.1779845 3501231
-0.093061872 -0.11672843 1.1807371 3435439
0.11256971 -0.11371517 1.1861454 3829686
0.11763529 -0.11073487 1.1845372 3829431
-0.097776152 -0.10946663 1.178062 3501231
-0.093507387 -0.1061575 1.1798916 3567024
0.11969391 -0.10131287 1.1852431 3830201
-0.098135352 -0.095367745 1.1783844 3632818
-0.094928898 -0.096053816 1.180433 3698612
0.12155354 -0.090639777 1.1848627 3896507
-0.098379612 -0.085780509 1.1786038 3633333
-0.094587311 -0.085945532 1.1814766 3764919
0.12113915 -0.080429606 1.184593 4093886
-0.099054955 -0.076994091 1.1787958 3633334
-0.09510649 -0.076034963 1.1820983 3830201
0.11787753 -0.070902333 1.1854734 4291523
-0.094915196 -0.065692395 1.1808099 3896506
0.11713354 -0.060421519 1.1850812 4619975
-0.091880836 -0.056066018 1.1811429 4028348
0.11092622 -0.049207266 1.1876212 5146320
0.11542889 -0.051292848 1.1866615 4883148
-0.09037526 -0.046579968 1.1799654 3962814
-0.085482866 -0.045157317 1.1826686 3963072
0.10973962 -0.040374797 1.1863035 5146577
0.11358204 -0.041855417 1.1843443 5080527
-0.08922632 -0.037471984 1.1799154 4028607
-0.083137617 -0.035621624 1.182214 4291526
-0.033330139 -0.032431096 1.1851461 5147865
-0.025866091 -0.032017939 1.1853042 5344731
-0.0095913755 -0.030704968 1.1856583 5345501
-0.0028006351 -0.030535139 1.1857973 5739743
0.0074573695 -0.032479949 1.1846218 5936862
0.016501471 -0.032269649 1.1851399 5871068
0.026654743 -0.030930921 1.1863735 5739228
0.044734556 -0.029346325 1.18677 5213656
0.10764001 -0.031542607 1.1863682 4949970
-0.081508242 -0.028080635 1.1802884 4422856
-0.073237538 -0.023152657 1.182387 4686797
-0.062905163 -0.021770127 1.1828066 4884690
-0.052507333 -0.022982813 1.1844857 4950486
-0.042021334 -0.023460597 1.1838492 5213659
-0.03338917 -0.024373636 1.1821319 5279707
-0.023212507 -0.025265664 1.1827135 5345244
-0.013092333 -0.023378149 1.1828699 5411808
-0.0032055946 -0.024240136 1.1828442 5806052
0.0062235445 -0.027109221 1.182055 6068964
0.018264938 -0.027184278 1.1822926 6068963
0.028217817 -0.024575636 1.1834749 6003173
0.036609057 -0.022667252 1.1845636 5608417
0.046792544 -0.022435583 1.1853718 5411038
0.053615879 -0.022329576 1.1871105 5279709
0.098258488 -0.019435123 1.1871421 5212630
0.10402771 -0.022841886 1.1854327 5015248
-0.069648243 -0.017344214 1.1807752 4949712
-0.062880345 -0.017174952 1.1809137 4949713
-0.052728496 -0.016921066 1.1811213 5016279
-0.043319065 -0.017061949 1.1813052 5213659
-0.034652039 -0.017597608 1.1814649 5345501
0.038088482 -0.015214115 1.1829665 5871590
0.046533983 -0.014438592 1.1831524 5871847
0.056689318 -0.011997595 1.1854123 5543139
0.063936681 -0.010693699 1.1858727 5280225
0.088413045 -0.010134943 1.1880873 5411294
0.094358273 -0.011341609 1.1856307 5279196
0.066058159 -0.0054855943 1.1837499 5411556
0.075602919 -0.0035539344 1.1839848 5412066
0.086882748 -0.0032718405 1.1842155 5477344
0.093708113 -0.0053584054 1.1843024 5213404
0.0019393321 -0.1900607 1.1861632 3105189
-0.018656496 -0.18213259 1.1869396 3039906
-0.0089146653 -0.18403341 1.1875176 3039908
0.00060671568 -0.18499997 1.1895899 3105447
0.011242039 -0.18389809 1.1872425 3105702
0.020304207 -0.18240517 1.1867073 3171750
0.029275235 -0.18176763 1.1869005 3237289
0.040687107 -0.17962292 1.1871774 3237548
0.050907485 -0.1793673 1.1873865 3171752
0.059992269 -0.17914011 1.1875725 3171752
-0.046565838 -0.17135155 1.1856365 3039909
-0.038719326 -0.17190695 1.1866688 3105701
-0.030532543 -0.17439005 1.1884308 3105443
-0.020829719 -0.17957473 1.1899576 3040163
0.0099110072 -0.17789388 1.1906079 3105960
0.021276679 -0.1764949 1.1908666 3105958
0.030347247 -0.17473823 1.1902876 3237545
0.040734891 -0.17339236 1.1894302 3237547
0.05077491 -0.17281678 1.1891378 3237544
0.060826488 -0.17234007 1.189433 3237545
0.069444194 -0.17011297 1.1886383 3303339
-0.05804839 -0.16220784 1.1856221 3172009
-0.049597137 -0.16521585 1.1881208 3105961
-0.040241316 -0.16723454 1.1898603 3171752
0.043826118 -0.16655715 1.1915472 3303337
0.050662547 -0.16638617 1.1916871 3303593
0.060729541 -0.16515723 1.1919159 3303594
0.069890618 -0.16228461 1.1909146 3303596
0.076725587 -0.16054162 1.1883399 3238062
-0.065646745 -0.15387602 1.1856658 3434409
-0.059919327 -0.15556043 1.1885651 3237547
-0.051547438 -0.15774907 1.1898574 3237805
0.070641272 -0.15499264 1.1923506 3238318
0.079881147 -0.15180282 1.1914884 3238572
0.090028152 -0.15129614 1.1900212 3434926
0.096533984 -0.15050177 1.1889684 3369134
-0.068240896 -0.14493644 1.1870548 3435179
-0.062295295 -0.14685149 1.189454 3369388
0.084322222 -0.14502333 1.1928556 3500977
0.089870952 -0.14132245 1.192052 3435186
0.095386349 -0.14113748 1.1891646 3500720
-0.077021129 -0.13440758 1.1868955 3566511
-0.071281381 -0.13718139 1.1886121 3566767
-0.064032681 -0.13961308 1.1900333 3500977
0.091129936 -0.13366891 1.1927563 3501234
0.099007465 -0.13096708 1.1902248 3501490
-0.086926475 -0.12145701 1.1860009 3566770
-0.08010447 -0.12592953 1.1886332 3632306
-0.07338015 -0.13072638 1.1900554 3632563
0.1005512 -0.12230581 1.192297 3699127
0.10800052 -0.12078384 1.1903621 3633076
-0.088296577 -0.11592529 1.1871035 3566770
-0.082331248 -0.11674337 1.1902044 3763892
0.10118475 -0.11325 1.1939338 3633335
0.10785127 -0.11083281 1.1916773 3764407
-0.088720754 -0.10589617 1.1891304 3698868
-0.084387101 -0.10642708 1.1904048 3699126
0.10144968 -0.10127277 1.1942191 3962811
0.10801153 -0.10117039 1.1931847 3830969
0.11579482 -0.10112893 1.1905059 3830714
-0.090109974 -0.095931374 1.187458 3699126
-0.084895097 -0.096432611 1.1906284 3830712
0.10844583 -0.091231577 1.1939927 4028606
0.11667419 -0.091043018 1.1907592 3962300
-0.08978498 -0.086452633 1.1883634 3830970
-0.08494208 -0.086064681 1.1908698 3962813
0.10847484 -0.082185522 1.1948051 4291522
0.11641444 -0.081491053 1.1913412 4094399
-0.090344988 -0.076399669 1.1887017 3962044
-0.08550813 -0.076632641 1.1910791 4093630
0.10978976 -0.071401335 1.1948166 4554438
0.11472645 -0.071937814 1.1911671 4357059
-0.089969665 -0.066337295 1.1885633 4093886
-0.085464567 -0.065556698 1.191339 4291009
0.10770197 -0.06089412 1.1943983 4686026
0.11379236 -0.060761016 1.1914099 4685769
-0.088517629 -0.05900313 1.1874298 4159935
-0.083637953 -0.056477744 1.1904442 4225985
0.1001725 -0.051142149 1.195366 5015248
0.10634215 -0.052201305 1.192796 5014991
-0.080858685 -0.04657251 1.1899912 4292037
-0.075470097 -0.048694473 1.191932 4619977
-0.052856155 -0.04128857 1.1925547 5279449
-0.044880316 -0.041089099 1.1927179 5016538
-0.032317828 -0.041914981 1.1929482 4950743
-0.02275775 -0.043352455 1.1931046 4950488
-0.013668838 -0.042968668 1.1932943 5147351
-0.0032484764 -0.041758012 1.1935297 5278422
0.0073916507 -0.043786246 1.1928045 5212886
0.016738912 -0.042870104 1.1921502 5278423
0.026675548 -0.041795611 1.1928731 5147094
0.037557054 -0.041958988 1.1943362 4885460
0.047015451 -0.040201668 1.1938376 4950741
0.056094218 -0.039475866 1.1947627 5016279
0.098460294 -0.041298922 1.1941615 5212370
0.10593364 -0.042209458 1.1916876 5212369
-0.078952894 -0.039554402 1.1900756 4423370
-0.076954044 -0.036300048 1.1897912 4554187
-0.052512325 -0.036251009 1.1924125 5147610
-0.042643026 -0.035235196 1.1908983 5081818
-0.033483662 -0.037281003 1.1910325 5016538
-0.022377662 -0.03556959 1.1914268 5278938
-0.013291567 -0.034735858 1.1916268 5344730
-0.0027832454 -0.035327166 1.1907547 5673948
0.0075163762 -0.037285171 1.1898465 5805277
0.016601158 -0.03705797 1.1900324 5541848
0.026792608 -0.035666827 1.1902674 5475544
0.036955126 -0.033140182 1.1905285 5213397
0.047606371 -0.033513024 1.1914377 5082070
0.057238895 -0.032529138 1.1933471 5016536
0.066085756 -0.030170642 1.1951789 5213915
0.076803848 -0.028925411 1.195421 5279453
0.087753735 -0.029107578 1.1956344 5213659
0.097292304 -0.031752393 1.1941614 5212628
0.1039554 -0.031464569 1.1918995 5146833
-0.07674931 -0.030302592 1.1883348 4554443
-0.051585324 -0.027855262 1.1888922 5016281
-0.04429435 -0.028581925 1.1890202 5147611
-0.013155823 -0.028712176 1.189636 5411294
0.057514053 -0.022399805 1.1911883 5148123
0.066228233 -0.02219101 1.1915666 5213915
0.076234393 -0.022205777 1.1933049 5213917
0.086972199 -0.021884583 1.1941028 5213659
0.095057219 -0.023369849 1.1922454 5212887
0.087623075 -0.0148293 1.1919638 5279708
0.09216547 -0.014715701 1.1920568 5411037
-0.015279747 -0.18029319 1.1950535 3106213
-0.0095589207 -0.18015012 1.1951705 3105959
0.0017359313 -0.18052182 1.1953864 3105706
0.012180211 -0.17960644 1.1956154 3105960
-0.026324205 -0.17370048 1.1949881 3105700
-0.018881612 -0.17478204 1.1958611 3105957
-0.0097235339 -0.17455301 1.1960485 3106216
0.00056794938 -0.17443603 1.1971062 3106217
0.011194529 -0.17365095 1.1971643 3171752
0.019082496 -0.17295179 1.1969995 3303337
0.03025366 -0.16999587 1.1961993 3369130
0.037118647 -0.16982418 1.1963398 3369132
-0.039212298 -0.16281684 1.1953199 3171753
-0.029528446 -0.16504511 1.1978481 3171752
-0.019275051 -0.16511965 1.2001312 3172010
-0.01008078 -0.16619161 1.2012393 3172012
-7.4208714e-005 -0.16554451 1.2022492 3237802
0.010581472 -0.16456312 1.2019383 3303338
0.019777605 -0.16436589 1.2023257 3369133
0.030115604 -0.16383272 1.2008228 3369388
0.04025086 -0.1632271 1.2003477 3303853
0.049542457 -0.16177121 1.1985259 3369643
0.059654728 -0.16067708 1.197237 3303851
-0.05722753 -0.15157695 1.1948912 3303598
-0.049084395 -0.15424204 1.1967058 3303341
-0.040547911 -0.15585238 1.200268 3303340
-0.031227741 -0.15712906 1.2032819 3369132
-0.023012556 -0.15880942 1.203406 3303600
0.010389058 -0.15797408 1.2040894 3303598
0.023058638 -0.15765722 1.2043486 3435186
0.030545205 -0.15746999 1.2045019 3369391
0.040335335 -0.15722515 1.2047021 3369392
0.050081369 -0.15405084 1.2043544 3369390
0.059689142 -0.15265401 1.2009917 3435184
0.069104955 -0.15070713 1.1974226 3369392
-0.05837366 -0.14461973 1.1958314 3369646
-0.051282033 -0.14688031 1.2007219 3303853
-0.043979339 -0.15011427 1.2031925 3173034
0.051801797 -0.14587495 1.2051954 3566773
0.059963439 -0.14434505 1.2047265 3566516
0.069780223 -0.1421451 1.2020384 3500977
0.079762809 -0.1424823 1.1995118 3500975
-0.068825312 -0.13289568 1.1950974 3632562
-0.059932478 -0.13582161 1.1982073 3501236
-0.052507922 -0.13592513 1.2029102 3501494
0.071703047 -0.13310376 1.2058897 3698612
0.079321474 -0.13319455 1.2036743 3567283
0.088170566 -0.13046503 1.2012097 3567283
0.09556587 -0.12714896 1.1984994 3501747
-0.076262884 -0.12343249 1.1951709 3895478
-0.07066834 -0.12589228 1.1977258 3698613
-0.06184227 -0.12672943 1.2020503 3633080
0.072974049 -0.12644546 1.2060707 3699128
0.079449087 -0.12309214 1.2062777 3830713
0.088939115 -0.12243797 1.2052811 3699126
0.09586031 -0.12073058 1.1986554 3633333
-0.07777454 -0.11545655 1.1953274 3961271
-0.071118422 -0.11586849 1.2004524 3896247
-0.064381175 -0.11835618 1.2035296 3764921
0.079165801 -0.11614913 1.2064345 3962300
0.089968927 -0.11335534 1.2062438 3896506
0.097568475 -0.11113753 1.2009146 3764920
-0.079403549 -0.10621303 1.1970119 3830712
-0.072661564 -0.10574291 1.2023261 4093627
0.092646793 -0.10244367 1.2070229 4028352
0.098128177 -0.10157427 1.2018163 3962812
-0.080076016 -0.095924303 1.1977394 3962556
-0.07372421 -0.097031914 1.2033979 4028606
0.091855347 -0.092058584 1.20725 4357317
0.09834826 -0.091991439 1.2033788 4225985
0.10372814 -0.088020913 1.1995766 4225985
-0.079813972 -0.086908579 1.1979554 4028606
-0.075165294 -0.087125868 1.2040455 4094655
0.092177317 -0.084016383 1.2074444 4554695
0.098046452 -0.081603497 1.2030154 4554182
0.10427716 -0.07961183 1.1997842 4619462
-0.080736995 -0.076242588 1.1966563 4159424
-0.072916523 -0.075207993 1.2031375 4160448
-0.066677302 -0.073468462 1.2045336 4554440
0.092297651 -0.070645072 1.2077595 4620747
0.097937249 -0.071469277 1.2056013 4686026
0.10446425 -0.071975023 1.1999665 4619977
-0.080353945 -0.066557974 1.1964196 4291265
-0.072398491 -0.066490658 1.2018318 4357573
-0.066853359 -0.066558219 1.2046916 4751563
0.0071760127 -0.062017784 1.2062694 4818903
0.014834983 -0.061057944 1.206444 4819160
0.090237677 -0.062168527 1.2079169 4752590
0.097700559 -0.062272824 1.2058116 4817869
0.10311603 -0.063995004 1.2001263 4752076
-0.078611456 -0.056928098 1.1966794 4291778
-0.072710425 -0.056161631 1.2003952 4554440
-0.067058749 -0.058496278 1.2048761 4883149
-0.048578642 -0.05086796 1.2014199 5674209
-0.042838775 -0.05072441 1.2015375 5082331
-0.031445555 -0.053321686 1.2035707 4950745
-0.022037715 -0.054765932 1.201256 4884953
-0.012850958 -0.054522462 1.2012442 4753366
-0.002578971 -0.053196207 1.20268 4884692
0.0080609471 -0.054533601 1.2020154 4884692
0.016785217 -0.053608019 1.2028657 4884692
0.026898429 -0.052220762 1.2055565 4950484
0.037891496 -0.05285548 1.2039815 4950488
0.046640452 -0.052399445 1.20516 4950489
0.057184421 -0.050712235 1.2064606 5411037
0.066135056 -0.050267339 1.207716 5542623
0.080193013 -0.047898993 1.2080508 5213404
0.088040881 -0.050583828 1.2081441 5081558
