# .PCD v0.7 - Point Cloud Data file format
VERSION 0.7
FIELDS x y z rgba
SIZE 4 4 4 4
TYPE F F F U
COUNT 1 1 1 1
WIDTH 1125
HEIGHT 1
VIEWPOINT 0 0 0 1 0 0 0
POINTS 1125
DATA ascii
0.14854486 -0.11541856 1.1329696 3500458
-0.12635705 -0.098255455 1.1253675 3237027
-0.12472191 -0.098602936 1.1294067 3302821
0.15116838 -0.10492669 1.1333392 3632048
-0.12611066 -0.088539511 1.1252328 3302824
-0.12448838 -0.089394405 1.1292789 3302569
0.14966892 -0.095999539 1.1330767 3632047
-0.12631246 -0.079460472 1.1250981 3434408
-0.12355739 -0.077106088 1.1291209 3434665
0.14656515 -0.084877416 1.1324904 4026292
-0.12561788 -0.069107629 1.1249633 3631531
-0.12395266 -0.068268947 1.1289859 3631531
0.14690192 -0.076924846 1.1310087 4157366
-0.12545361 -0.06263034 1.1248734 4025255
-0.12222093 -0.057555847 1.1271518 3632304
0.14667329 -0.06513308 1.1303899 4289211
-0.11852263 -0.048662435 1.1265268 3568048
0.14377828 -0.054280628 1.1308424 4094399
0.14597043 -0.058705363 1.1322839 4224702
-0.1170267 -0.042677242 1.1247561 3764911
-0.11352898 -0.03841456 1.127266 3895729
0.14142051 -0.045787387 1.1314609 4487616
-0.11784178 -0.024505518 1.1274792 6458567
-0.11299211 -0.028409041 1.1270329 3895996
0.14165126 -0.034767967 1.1302521 5735616
0.14860141 -0.031694114 1.1299478 9477559
-0.11735508 -0.021820411 1.1284508 6852289
-0.11410536 -0.021901898 1.1285174 5933254
0.055187359 0.075431131 1.1265258 9474701
-0.027682267 -0.22793561 1.1452249 7248329
0.0051242802 -0.23036131 1.1451203 5801654
0.013182554 -0.22944114 1.1447358 5210039
0.025928516 -0.23037538 1.1463397 6328255
0.033591162 -0.23056751 1.1464968 7379645
0.045149039 -0.23073563 1.146732 8430007
0.053221896 -0.22921962 1.1428715 8625323
-0.06520202 -0.21897826 1.136338 9678537
-0.054513462 -0.21915755 1.1430842 4422071
-0.04522704 -0.22004637 1.1447581 2778029
-0.035514895 -0.22210526 1.1449833 2513574
-0.027973119 -0.225007 1.1451769 2315684
0.0019291928 -0.22648713 1.1458005 2120102
0.013970498 -0.22678909 1.1460474 2185635
0.027134232 -0.2260237 1.1463014 2186146
0.032579787 -0.2272557 1.1464288 2316696
0.047960617 -0.22545043 1.1467125 4486314
0.055567566 -0.22527391 1.1448627 5997746
0.066769063 -0.22258264 1.1459069 6063288
0.075449385 -0.22131963 1.1472068 6589614
0.083544336 -0.22174171 1.1473759 8757678
-0.070333995 -0.20688316 1.1360607 1855898
-0.063744582 -0.20951277 1.1394702 2249885
-0.056204751 -0.21195649 1.1436932 2381985
-0.048147723 -0.21427667 1.1446162 3039902
0.069570318 -0.21558529 1.1470059 2841504
0.075604856 -0.21518886 1.1471218 3302564
0.085250519 -0.21319321 1.1459535 4420011
0.095158108 -0.21266907 1.1417632 6984117
0.10470849 -0.21018456 1.1396334 6254993
-0.081224628 -0.19607666 1.1364862 2710418
-0.073656984 -0.19948152 1.1402695 2775447
-0.067050032 -0.20183785 1.1432564 2906776
0.087878719 -0.20535141 1.1468273 3171492
0.096476711 -0.20423183 1.1441835 3237285
0.10492556 -0.20328778 1.1401103 3629215
-0.084015116 -0.18900076 1.1403294 2775191
-0.076022014 -0.1926586 1.1430771 2906012
0.09863586 -0.19505736 1.1456288 3040421
0.10568731 -0.19359778 1.1423628 3105703
0.11164433 -0.19404063 1.1395409 2777257
-0.098884784 -0.17461941 1.1350217 2710677
-0.09229102 -0.17862144 1.1387424 2709909
-0.086217575 -0.18234876 1.1413897 2709910
0.10697895 -0.18519932 1.1458482 3368100
0.11469292 -0.18361828 1.1415864 3302561
-0.10000924 -0.16800228 1.1380159 2710421
-0.095381066 -0.17091437 1.1422411 2644886
0.10920312 -0.17747056 1.1472559 3040936
0.11736285 -0.17460449 1.1452914 3237031
0.12389688 -0.17190707 1.1424702 3368615
-0.109259 -0.15477785 1.1345273 2776209
-0.10403895 -0.15932524 1.1394494 2841240
0.11956771 -0.16614276 1.1473018 3237287
0.12618116 -0.16415292 1.1422619 3302822
-0.11018176 -0.14803793 1.1389465 2710683
-0.10562818 -0.15140642 1.1418875 2841499
0.12860483 -0.15575913 1.1447453 3237541
0.13372019 -0.15322469 1.140999 3237798
-0.11210494 -0.13942365 1.1393936 2907293
0.13045906 -0.14700156 1.1472458 3237797
0.13535574 -0.14464983 1.1423091 3303334
-0.11803287 -0.12763053 1.1351033 2907805
-0.11599846 -0.12923412 1.1412264 2907805
0.13738135 -0.13529989 1.1447717 3434407
-0.11832646 -0.11829267 1.1364874 3039392
-0.11584634 -0.11946356 1.1418892 3039391
0.13956933 -0.12578169 1.1445519 3500202
0.14390135 -0.12305097 1.1391696 3631274
-0.12127981 -0.10902306 1.1381619 3170979
0.14173785 -0.11553685 1.1465758 3631791
0.1452594 -0.1151363 1.1408614 3566510
-0.12144516 -0.098650232 1.1391907 3105957
0.14122227 -0.10442428 1.145183 3632305
0.14655162 -0.10573822 1.1393074 3501227
-0.12152629 -0.088651866 1.1367588 3237546
0.14101262 -0.095357977 1.1441693 3698099
0.14571983 -0.09592586 1.1392162 3698094
-0.12066111 -0.078919828 1.1368744 3434923
0.14247251 -0.086111009 1.1446114 3895479
0.1447836 -0.088261694 1.138687 3895477
-0.12002969 -0.068467379 1.137356 3566256
0.14299095 -0.07480035 1.1457928 4027579
0.14556532 -0.074335143 1.1425036 4157882
-0.11879431 -0.05959693 1.1364968 3567024
0.14120425 -0.065222651 1.1451092 4159422
0.1456169 -0.065541476 1.1407777 4289724
-0.1161872 -0.049853574 1.1342125 3567791
-0.11314367 -0.047921505 1.139581 3764403
0.13977981 -0.055167805 1.1434451 4356797
-0.11105385 -0.03912092 1.1333994 3830196
0.13738017 -0.045535635 1.1423247 4619718
-0.10935229 -0.028227195 1.1356152 3896507
0.13358299 -0.033538185 1.1425648 4817095
0.13815856 -0.034274992 1.1394442 4948420
-0.11674619 -0.018850923 1.1364228 6916535
-0.10926806 -0.019573115 1.136276 5210049
0.13285638 -0.027097955 1.1445693 5013440
0.13737254 -0.026826337 1.1423222 5998788
0.034544684 0.049401857 1.1373448 5859448
0.042777561 0.049247064 1.1356552 6122362
0.048277505 0.049279369 1.1387664 6319482
0.059335642 0.050324522 1.1429753 5330522
0.035269745 0.053810768 1.1357718 5792108
0.043123577 0.054451801 1.1353872 5527648
0.048388176 0.053643249 1.1387058 5067354
-0.02200076 -0.22800896 1.1483412 4354997
-0.014711337 -0.22919169 1.1505057 4684224
-0.0047818217 -0.2291666 1.1492381 4289976
0.0062609417 -0.22714856 1.148898 2054307
0.016673461 -0.22795883 1.1491194 2777510
0.022133224 -0.22919407 1.1492471 4026798
0.038596015 -0.22960687 1.1495847 5604271
0.04247909 -0.22805673 1.1496406 4881326
-0.040709723 -0.21718407 1.1478088 3039902
-0.032797456 -0.21829358 1.1484842 2710943
-0.024437752 -0.22037378 1.1514877 2645152
-0.014704695 -0.22343001 1.155091 2514339
-0.0047550164 -0.22358325 1.1547601 2514851
0.0052524582 -0.22134927 1.1533958 2842787
0.015188139 -0.22120513 1.1513931 2908579
0.024854956 -0.2210457 1.1520746 3039651
0.035003982 -0.22198802 1.153404 2908578
0.044376682 -0.22135441 1.1533335 2778020
0.054492593 -0.21997841 1.1511953 2646433
0.064024538 -0.2229223 1.1500006 5012145
0.075516015 -0.2244918 1.1502546 8955830
-0.053526923 -0.20843756 1.1477106 2841242
-0.043782558 -0.21072675 1.1499881 2775960
-0.034849618 -0.21219948 1.1521231 2841500
-0.025576707 -0.21455286 1.1560781 2907551
0.0061225067 -0.21461044 1.1567174 3105184
0.015341306 -0.21447296 1.156901 3170722
0.02528752 -0.21472237 1.157105 3302053
0.035431936 -0.21442378 1.157305 3170723
0.045954075 -0.21376598 1.1575074 3105188
0.055336192 -0.21323133 1.1559739 3170467
0.06502185 -0.21331844 1.1522833 3236258
0.075289026 -0.21016002 1.1504885 3171236
-0.069841705 -0.19668354 1.1469271 2906776
-0.063393958 -0.19906619 1.1482345 2907033
-0.055047423 -0.20020959 1.1521107 2841497
-0.045962974 -0.20445672 1.1555223 2775704
0.056427494 -0.20776151 1.157632 3105443
0.065268576 -0.2079832 1.1578132 3105443
0.076177724 -0.2045556 1.1567202 3105956
0.084684163 -0.20194641 1.153316 3105956
-0.080538549 -0.18543196 1.1465499 2644884
-0.073623598 -0.18913293 1.1497433 2775705
-0.065383054 -0.19217575 1.1526206 2841497
0.07991562 -0.19729093 1.1579545 3172006
0.087650217 -0.19511601 1.1570786 3040421
0.093620382 -0.19294997 1.1546669 2974628
-0.089096017 -0.1764307 1.1462481 2645144
-0.082562901 -0.17832078 1.1494666 2710425
-0.07736174 -0.18115231 1.1511252 2776216
0.097300284 -0.18439701 1.1548681 3171493
0.10239685 -0.18233737 1.1517901 3237026
-0.091982186 -0.1683031 1.1486621 2710424
-0.085751578 -0.17061436 1.1527793 2710937
0.10031256 -0.17789519 1.1580863 3302823
0.10680791 -0.17401567 1.1550025 3172005
0.11269754 -0.17103364 1.1542358 3172006
-0.10031113 -0.15674557 1.1457391 2841498
-0.096081384 -0.15930445 1.1507857 2907290
0.10943393 -0.16706437 1.1581142 3303592
0.11579171 -0.16385931 1.1568624 3237544
0.12218448 -0.15976197 1.1502635 3303337
-0.10189554 -0.14822263 1.1472994 2973342
-0.097512566 -0.15136853 1.1537206 3038879
0.11960502 -0.15618019 1.1574956 3237544
0.12413184 -0.15332653 1.153011 3303336
-0.10961016 -0.13648337 1.1462607 2973342
-0.10371857 -0.139734 1.1509275 2973600
0.1277467 -0.14427289 1.1541539 3368872
-0.11101562 -0.12856463 1.1474719 3039392
-0.10572415 -0.12943849 1.1532398 3236259
0.12925103 -0.13484405 1.1557993 3500460
0.13385557 -0.13259625 1.1501079 3434923
-0.11188157 -0.11889035 1.1478515 3170978
0.13050026 -0.12593153 1.1566131 3500719
0.13532305 -0.1235977 1.1533424 3500718
-0.11810075 -0.10760666 1.1446741 3237029
-0.11444549 -0.10898585 1.1507695 3237286
0.13582945 -0.11471299 1.1559975 3697329
-0.11787806 -0.098825559 1.1445524 3237543
-0.11546032 -0.0983468 1.1520964 3172263
0.13728824 -0.10564313 1.155391 3697843
-0.11799686 -0.089141719 1.1474116 3303340
-0.11599621 -0.088049904 1.1524377 3303852
0.13731936 -0.095190279 1.1556414 3764149
-0.11775215 -0.079424798 1.1442758 3500716
-0.11516242 -0.078011878 1.1523101 3501229
0.14055261 -0.084852085 1.1541289 3764661
-0.11718217 -0.071384639 1.1441716 3566512
-0.11401369 -0.067980722 1.1485515 3632306
0.13783328 -0.074574523 1.1538254 3896764
-0.11316839 -0.058379047 1.1484303 3698357
0.13206178 -0.064356625 1.155759 4291265
0.1359752 -0.065700442 1.1503316 4225217
-0.11132249 -0.049420558 1.147975 3764408
0.13310076 -0.05478666 1.1549754 4554434
0.13583192 -0.054664042 1.1490268 4488640
-0.10811286 -0.038775265 1.1486868 3895997
-0.10397719 -0.035634074 1.1519258 4027323
0.13300318 -0.043997865 1.153818 4817354
-0.10625904 -0.029333778 1.1451206 3962044
-0.10237222 -0.028144345 1.1510502 4093118
0.12393284 -0.031395406 1.1564549 5014224
0.12933517 -0.034319203 1.1526046 4751563
-0.10487086 -0.018973283 1.1436658 4290235
-0.10007967 -0.018902309 1.148296 4158908
-0.093913518 -0.016716532 1.1518564 4028609
0.12248401 -0.024343781 1.154546 4817874
0.12927704 -0.024301589 1.1494584 5145287
-0.097485319 -0.012347512 1.14612 4487616
-0.092126094 -0.0097589567 1.1504587 4356800
0.11395618 -0.011615388 1.1539689 5276623
0.12029289 -0.014838427 1.1504275 5604813
0.12968934 -0.016311035 1.1492406 6720449
-0.089874707 -0.0028090328 1.1517378 5671109
0.11221016 -0.0059851259 1.1552818 5802961
0.11863735 -0.0069722161 1.1513289 6787017
0.036559124 0.011715874 1.1540751 12972031
-0.018373683 0.022981085 1.1508063 5869264
0.013878505 0.018551685 1.1535201 7515376
0.021359518 0.017995432 1.1536788 8764660
0.030950705 0.017312557 1.1538818 10146554
0.037555344 0.016114712 1.154032 10870005
-0.075740173 0.032650195 1.14351 8028800
-0.070609145 0.032887645 1.1436099 7305855
-0.013996784 0.024043135 1.1528797 5671370
-0.01068138 0.023960002 1.1529477 5869265
0.012526451 0.023378059 1.1534234 6988787
0.01694699 0.02326721 1.153514 7185904
0.10337174 0.02994772 1.1551585 6314850
-0.06926287 0.037857406 1.1435655 8028802
0.10036705 0.033562131 1.1550461 6117979
0.076848194 0.044566773 1.1464117 5593178
0.079043239 0.044511743 1.1464567 5658970
-0.020260055 -0.21759705 1.1602303 2973083
-0.01474347 -0.21884516 1.1603594 2973595
-0.0053218771 -0.21864176 1.161213 2973598
-0.039939769 -0.20600593 1.1596673 2842012
-0.033598501 -0.20755215 1.1598172 2776219
-0.024355631 -0.21024382 1.1615663 2907806
-0.014833419 -0.21183953 1.1634156 2907807
-0.0042977743 -0.21264198 1.1638148 2973599
0.0046911957 -0.21056452 1.1612985 3039136
0.015441053 -0.20983446 1.1621714 3170723
0.025431002 -0.20997481 1.1617078 3236770
0.035250112 -0.20976943 1.1612357 3170979
0.044297665 -0.20978287 1.1614181 3170980
0.050993506 -0.20828611 1.1615314 3171236
-0.050804183 -0.19685537 1.1593168 2842012
-0.04418524 -0.19926727 1.1609398 2842011
-0.03465347 -0.20175174 1.1621748 2842012
-0.026437383 -0.20338625 1.1639026 2907805
0.019984646 -0.20594224 1.1648743 3302309
0.026046071 -0.20495312 1.163839 3302308
0.034725636 -0.20506845 1.162658 3171236
0.045505051 -0.20592895 1.161387 3171236
0.056126934 -0.2047984 1.1632518 3105443
0.06600669 -0.20313214 1.1627599 3171492
0.072620563 -0.20142998 1.1618683 3040420
-0.07159283 -0.18523642 1.158731 2841497
-0.062901556 -0.18819679 1.1594821 2907291
-0.054561786 -0.19103855 1.1610404 2907549
-0.047962978 -0.19236028 1.1633105 2907551
0.069227852 -0.19604127 1.1657237 3040420
0.076325864 -0.19440365 1.1639478 3106213
0.084251329 -0.19202967 1.1619674 3106214
-0.072971448 -0.1786859 1.1606096 2907290
-0.066490941 -0.18170762 1.162284 2973340
0.080581136 -0.18741736 1.1658283 3302823
0.086732462 -0.18521944 1.1635199 3237030
0.092952132 -0.18196538 1.1637762 3237031
-0.089938588 -0.16480061 1.1580676 2841497
-0.081644617 -0.16848171 1.1588211 2842012
-0.075634107 -0.17083487 1.1614434 2907547
0.098346889 -0.17442626 1.1629214 3368361
0.10352967 -0.17131655 1.1620578 3237285
-0.091267176 -0.15884855 1.1579553 2973085
-0.084550619 -0.15920389 1.1608332 3039135
0.10085575 -0.16736533 1.161947 3368615
0.10744678 -0.1641894 1.1627616 3237799
0.11211393 -0.16098905 1.1620821 3303337
-0.098332003 -0.14572413 1.1576242 2973857
-0.093026556 -0.14936641 1.1593394 3039137
-0.087167911 -0.15036049 1.161917 3104930
0.10959937 -0.15672399 1.1639707 3172264
0.11591924 -0.15400976 1.1627252 3238059
-0.099335015 -0.13748093 1.1584858 3039650
-0.095507495 -0.1411314 1.1616162 3105700
0.11937344 -0.14432991 1.1641432 3369132
0.12362523 -0.14463121 1.1620786 3434410
-0.1018872 -0.12884197 1.1590246 3171236
0.12144904 -0.13624337 1.1651151 3500719
0.12490217 -0.13404197 1.1639527 3435183
-0.10869016 -0.11661048 1.1569968 3302823
-0.10414518 -0.1186675 1.1597855 3171495
0.12592337 -0.12397034 1.1636465 3566514
-0.11024646 -0.10791399 1.1582954 3368873
-0.10663395 -0.10915716 1.1601321 3368875
0.12889123 -0.11486366 1.1625568 3697588
-0.11094467 -0.098811343 1.1593629 3303850
0.13064852 -0.10526936 1.1650835 3763892
0.13395849 -0.10471679 1.1617126 3698099
-0.1120075 -0.088591516 1.1581275 3435181
-0.10621569 -0.089192957 1.1606536 3435438
0.13191278 -0.09516412 1.1655352 3829942
0.13482952 -0.094727933 1.1627297 3764149
-0.11073478 -0.078942314 1.1584145 3501229
0.13225144 -0.0818097 1.16535 3896505
0.13661602 -0.084832639 1.163299 3830455
-0.10987757 -0.069106884 1.1578287 3632563
-0.10562302 -0.065822721 1.1603293 3567542
0.1301266 -0.074631892 1.1626318 4027837
0.13529325 -0.078337826 1.1613601 3896505
-0.10885984 -0.059074335 1.1574997 3829940
-0.10545368 -0.059145506 1.1602367 3699127
0.12884454 -0.064966723 1.1637055 4291009
-0.10817365 -0.048955481 1.1568345 3895737
-0.10453963 -0.048191752 1.1600976 4027576
0.12940848 -0.054948878 1.1629058 4422849
-0.10680575 -0.042303424 1.1559662 4158911
-0.1022668 -0.038689449 1.1580061 4093372
0.12960938 -0.045214206 1.1622697 4817355
-0.098272674 -0.029394738 1.1574912 4093630
-0.093479522 -0.026038475 1.1600018 4094397
0.12241831 -0.034273557 1.16269 5080014
0.12689382 -0.037620757 1.1606054 4883149
-0.095930621 -0.02186048 1.1558911 4028348
-0.091392465 -0.019395456 1.1574475 4028864
0.11818178 -0.02452758 1.16202 4949202
-0.087594748 -0.0098912865 1.1577055 4029123
-0.083365321 -0.0077324957 1.1599422 3963586
0.11233187 -0.014501415 1.162647 5146069
0.11571399 -0.019029275 1.1601129 5080276
-0.086552814 -0.0021198466 1.1557961 5342665
-0.079460055 -9.2491508e-005 1.1599109 4882633
-0.015937792 0.0020836964 1.1611589 6070261
-0.0092612933 0.0019162744 1.1612958 6528744
-0.0025847945 0.0017488599 1.1614326 8827627
0.012993704 0.0013582259 1.161752 10340848
0.021720611 0.0005030632 1.1619401 8895736
0.029205985 -0.00038459152 1.1621037 6266608
0.10359936 -0.0014844164 1.1626174 5475287
0.10802346 -0.0051371828 1.1610919 5475028
-0.07579641 0.0057802647 1.1578996 5999306
-0.069110818 0.0067223832 1.1580207 5540557
-0.060448773 0.0098315924 1.1574836 5803727
-0.04774702 0.011295006 1.1603858 4950220
-0.038817342 0.0099462941 1.160585 5016280
-0.029103983 0.0090859309 1.160393 5411294
-0.019024283 0.0087940916 1.1587596 5806569
-0.0090731438 0.0085801184 1.1606035 7120874
0.000517698 0.0090949088 1.1613895 12379901
0.011144773 0.0082689747 1.1590884 13891069
0.020963188 0.0077747256 1.1586193 12969723
0.030901663 0.007774882 1.159704 9946095
0.040954687 0.0072967559 1.1603161 10013177
0.050739013 0.0089290738 1.1602489 7449069
0.057396188 0.010638185 1.1625128 5411552
0.10081872 0.0024543926 1.1610043 6526426
-0.045643374 0.016191483 1.1603577 6264275
-0.037981655 0.016768426 1.1580031 5803990
-0.028362799 0.017136641 1.1566911 5345755
-0.018328592 0.018147111 1.1568786 5412839
-0.0087378621 0.01850678 1.1575667 5676266
0.00022461545 0.017393202 1.1601211 7253489
0.010085177 0.016938642 1.1584685 8436213
0.020023515 0.014443651 1.1577042 12051453
0.034552265 0.018518403 1.1579382 10082302
0.042370044 0.017582521 1.1581092 10607102
0.050829381 0.016524874 1.1582947 7515119
0.057822205 0.015754171 1.1597804 6068200
-0.0063660964 0.023983501 1.1570356 6001365
-0.0019303281 0.023872271 1.1571265 6396124
0.11066268 0.026819743 1.1593517 6447199
-0.011350332 -0.20804453 1.1682748 3039391
-0.0038264077 -0.20764011 1.1699209 3039135
0.0076311463 -0.2085205 1.168664 3104930
-0.040097639 -0.19614983 1.1675248 2776478
-0.033787042 -0.19717622 1.1696672 2842271
-0.023974366 -0.19903186 1.172074 2907807
-0.014809113 -0.20111436 1.1728026 2908063
-0.0048389211 -0.20219901 1.1741236 2973600
0.005511493 -0.20148233 1.1738549 3105187
0.01546254 -0.20139334 1.1731342 3236773
0.025210749 -0.20030752 1.1726342 3237029
0.036149595 -0.20066655 1.1729264 3171237
0.045818966 -0.20189086 1.1708381 3171236
0.055386186 -0.20057879 1.1704348 3105444
0.064286321 -0.19932598 1.1696727 3171493
-0.052125476 -0.1869314 1.1703509 2841758
-0.044104114 -0.1894294 1.1713486 2907551
-0.035282876 -0.19071832 1.1743692 2842271
-0.024655797 -0.19215748 1.1757808 2908064
-0.01793927 -0.19345093 1.1759347 2973857
0.0034200093 -0.19398651 1.1763725 3105444
0.016310882 -0.19330975 1.1766224 3237030
0.026361953 -0.19398876 1.1760343 3302823
0.036041405 -0.19345158 1.1760985 3171495
0.045444161 -0.19228414 1.1758027 3105703
0.055147223 -0.19278905 1.1757966 3105703
0.065000549 -0.19256411 1.1740912 3105702
0.073450297 -0.19030964 1.1714424 3105958
-0.063172996 -0.17897598 1.1684606 2973598
-0.055312634 -0.18083407 1.1729999 2907551
-0.045513067 -0.18291569 1.1752278 2908065
0.066922598 -0.18415572 1.17751 3237288
0.075806148 -0.18369849 1.1752372 3302823
0.084577948 -0.18191652 1.1724032 3237287
-0.072311871 -0.16745889 1.1693213 3105183
-0.065003499 -0.17097199 1.1727805 2974112
-0.056800604 -0.17335133 1.174863 2842786
0.077419885 -0.17694196 1.1776178 3171750
0.08616399 -0.17356876 1.1764115 3172008
0.094358325 -0.17207839 1.1722205 3303081
-0.080143541 -0.15760788 1.1668308 3104930
-0.074099474 -0.159998 1.1729888 3170978
0.088836186 -0.16527101 1.1776798 3303337
0.096694455 -0.16397908 1.1755687 3368873
0.10373065 -0.16289309 1.1724893 3237543
-0.08968877 -0.14454976 1.1684513 3040164
-0.083086766 -0.14845754 1.1697637 3105701
-0.076906741 -0.15297204 1.1741649 3302822
0.098450072 -0.15496916 1.1777252 3303597
0.10599925 -0.15279092 1.173481 3238059
0.11317986 -0.14993465 1.1719476 3303852
-0.091991074 -0.13814041 1.1694243 3106213
-0.084366247 -0.14031616 1.1738327 3172007
0.10704501 -0.14368761 1.177536 3369387
0.11506226 -0.14370188 1.1738966 3435181
-0.098832346 -0.12776266 1.166692 3237030
-0.092366636 -0.12853862 1.1711681 3237800
-0.086126842 -0.13211569 1.1736792 3303594
0.1090124 -0.1376839 1.1776893 3500972
0.11759166 -0.13366462 1.1745533 3500976
0.12244238 -0.13094759 1.1698605 3500977
-0.099772342 -0.11845484 1.1683176 3237545
-0.095233843 -0.12017891 1.1724349 3303852
0.11955465 -0.12414816 1.177707 3566772
0.12294759 -0.12461959 1.1737808 3566515
-0.10204008 -0.10868408 1.1682702 3369389
0.12065284 -0.11463992 1.1775924 3763639
0.12413698 -0.11385918 1.1727608 3763639
-0.10843213 -0.094709702 1.1660233 3435181
-0.10322101 -0.098483875 1.1694216 3435438
0.12157626 -0.10357372 1.1774518 3895737
0.12666579 -0.10365307 1.1723773 3764149
-0.10778936 -0.088232912 1.1670101 3435438
-0.10251826 -0.088940352 1.1711892 3501231
0.12171882 -0.097952254 1.1773738 3961530
0.12730026 -0.094182536 1.172254 3961528
0.13462743 -0.09102723 1.1695317 3895735
-0.10728563 -0.078983486 1.1674874 3501489
-0.10307224 -0.078827001 1.1704532 3501490
0.12217501 -0.079963572 1.1771243 4159679
0.12785989 -0.084849179 1.1725802 3962041
0.13468409 -0.088793881 1.1695007 3895735
-0.10754821 -0.071647748 1.1663762 3501747
-0.10271482 -0.068541095 1.1690965 3567541
0.12158713 -0.07357379 1.1770205 4225473
0.12534663 -0.074225888 1.1731044 4159424
-0.1006628 -0.058453191 1.1679256 3764919
0.12156224 -0.064698108 1.1768924 4422597
0.12560236 -0.064141527 1.1729645 4357059
-0.099919245 -0.04869948 1.1676289 3896505
-0.095258698 -0.048636172 1.1722946 3962298
0.1217066 -0.05407666 1.1767426 4685767
0.12585811 -0.05405717 1.1728246 4422851
-0.098190598 -0.039640147 1.1657043 4027836
-0.093241245 -0.03792578 1.17109 4028094
0.12014376 -0.043470763 1.1744401 4948684
0.12608996 -0.045584168 1.1697065 4751818
-0.096257217 -0.03160315 1.1640271 4093632
-0.090718687 -0.028210342 1.1699378 4094399
0.11362018 -0.032873757 1.1762748 5080784
0.11800037 -0.034117587 1.1715794 5211343
-0.08722797 -0.019873954 1.1684052 4094402
-0.080678336 -0.016937062 1.1711321 4226244
-0.074168235 -0.015414812 1.1722416 4620744
-0.020179443 -0.015643589 1.1733322 5412064
0.0023040082 -0.016207367 1.1737932 6463211
0.010274323 -0.020245507 1.1740117 6397929
0.019973066 -0.019847818 1.1742014 6397929
0.029251562 -0.018168814 1.1743641 6003432
0.1109032 -0.02355919 1.1735853 5081042
0.11614355 -0.026872694 1.1682367 5081041
-0.079017699 -0.0092362016 1.1659198 4160963
-0.071027547 -0.0084268972 1.1713469 4752075
-0.05592487 -0.0057471991 1.17247 4949201
-0.049194094 -0.006478481 1.1726161 5016022
-0.039632641 -0.0078474134 1.1721615 5213659
-0.029818621 -0.0090056807 1.1718115 5411552
-0.020006154 -0.010027885 1.1724547 5740773
-0.0099193342 -0.010275833 1.1734617 6003172
0.00020521041 -0.010532215 1.1732692 6331366
0.0103512 -0.010797158 1.1708764 6989552
0.020439841 -0.011048771 1.1714834 6792432
0.030534307 -0.011303388 1.1710401 5937640
0.038995851 -0.010569245 1.1734507 5806054
0.049718834 -0.0095212758 1.1746519 5674725
0.056492381 -0.0085661039 1.1747745 5674983
0.10223827 -0.01224447 1.1757488 5146841
0.10831609 -0.014538661 1.1701881 5080789
-0.075366259 -0.00084017217 1.1640054 4554184
-0.071960606 -5.7339668e-005 1.1670636 4751049
-0.056769118 -0.00012873858 1.1703715 4818129
-0.049313992 -0.00032448769 1.1697242 5015507
-0.039709628 -0.00059876591 1.1665206 5147609
-0.029580638 -0.00086633116 1.165428 5346018
-0.0200071 -0.0014525205 1.1682411 5937898
-0.0095866639 -0.0024573505 1.1686877 6462952
0.00090121571 -0.0019847751 1.1680031 8303605
0.010288295 -0.0023372844 1.167181 8501495
0.020132283 -0.0035736188 1.1665835 7252467
0.03143236 -0.0033024773 1.1676466 6069484
0.040586308 -0.0024321973 1.1686801 6135528
0.050621316 -0.0030246899 1.1719875 5741031
0.059979063 -0.0030414015 1.1737651 5543655
0.069466114 -0.0019683018 1.1749409 5477092
0.079559647 -0.00089446455 1.1751288 5739747
0.090919934 -0.0014293417 1.1753653 5280481
0.10014345 -0.0043376908 1.1718994 5015513
0.10562612 -0.0064796954 1.1697322 4949463
-0.06849701 0.0056919083 1.1640499 4818122
-0.059043117 0.0064480603 1.1642293 5147606
-0.050339915 0.0069747493 1.164397 4818639
-0.041699629 0.0050199553 1.1645992 5344472
0.002976832 0.0044583604 1.165507 12971007
0.0074289027 0.0037880316 1.1656063 12905215
0.031993162 0.0031720772 1.1661099 5807584
0.045391858 0.0028360933 1.1663846 6004710
0.05147744 0.0036412627 1.1664956 5807083
0.060284663 0.0059265196 1.168774 5477863
0.068722293 0.0053145736 1.1714869 5542628
0.080385126 0.0020848513 1.1751026 5673698
0.091028489 0.0037563965 1.1737924 5804766
0.096753493 0.0015481859 1.1674374 5147865
0.063539959 0.013554886 1.1665959 5412324
-0.011371631 -0.19648072 1.1801116 3039650
-0.0049423799 -0.19728698 1.1802528 3039650
-0.031475011 -0.18807492 1.1795859 2842271
-0.024707135 -0.18824464 1.1797247 2973857
-0.014440326 -0.18957627 1.1812141 2973857
-0.0047631245 -0.19155464 1.182701 3039395
0.005955366 -0.18989876 1.1821443 3171237
0.015307233 -0.18872458 1.1816044 3237030
0.025652073 -0.18842687 1.1822804 3302569
0.033987395 -0.18877994 1.1822481 3237546
-0.050868452 -0.17710674 1.1790376 2908065
-0.043319389 -0.1782636 1.1792063 2973857
-0.034706656 -0.18022993 1.1804082 2973857
-0.02503594 -0.1823585 1.1817516 2973858
-0.016806483 -0.18336804 1.1838148 3105444
0.014883566 -0.18416268 1.1844645 3237030
0.026616976 -0.18294673 1.1846833 3302825
0.035561793 -0.18272005 1.1845524 3171754
0.045434996 -0.18350953 1.1830698 3171752
0.055795908 -0.18335393 1.1826878 3171753
0.064316645 -0.18045485 1.1824058 3237546
0.072613835 -0.17826799 1.1815412 3303592
-0.061801061 -0.16737203 1.1786774 2908579
-0.05370681 -0.16971773 1.1808747 2908579
-0.043932766 -0.17142051 1.1820054 3105444
-0.035353035 -0.17338891 1.1832978 3105443
0.05925291 -0.17621425 1.1852437 3303339
0.067366675 -0.17416221 1.1840439 3303082
0.075854763 -0.17229512 1.1820922 3237545
0.081866547 -0.16946948 1.1816009 3303850
-0.070538819 -0.15586476 1.1783359 3302822
-0.06408421 -0.16030192 1.1807804 3040165
-0.057091549 -0.16423583 1.1827283 3040167
0.070800424 -0.16744277 1.1853502 3303598
0.076980211 -0.16361475 1.184478 3238061
0.085631996 -0.16179577 1.1826779 3303596
0.093403824 -0.15959939 1.1816914 3369131
-0.080047622 -0.1450907 1.1779895 3171751
-0.073745862 -0.14886308 1.1795828 3368615
-0.066990584 -0.15266132 1.1823624 3171751
0.095354103 -0.15305082 1.1831369 3369134
-0.081842788 -0.13799055 1.1778512 3369130
-0.075837113 -0.14006004 1.1810027 3434922
0.096693285 -0.14339527 1.1845731 3435183
-0.08337608 -0.12933312 1.1790295 3434923
0.099620901 -0.13637 1.1846834 3501232
0.10646968 -0.13341706 1.1841669 3435694
0.11329469 -0.13187774 1.1816933 3501232
-0.091305271 -0.11799265 1.1783733 3369646
-0.085718408 -0.12186456 1.1802087 3435182
0.11040069 -0.12426328 1.1855266 3567282
0.11456149 -0.12386313 1.1834222 3567027
-0.099349976 -0.10509805 1.1770256 3501231
-0.094922371 -0.1091025 1.1799231 3435439
0.11060163 -0.11633992 1.1854167 3829686
0.1158106 -0.11368178 1.1837051 3829431
-0.099264152 -0.10171375 1.1769786 3501231
-0.094831191 -0.098560765 1.1786897 3567024
0.11834572 -0.10435693 1.1840667 3830201
-0.098906547 -0.087612502 1.176783 3632818
-0.095737234 -0.088384859 1.1788585 3698612
0.12074468 -0.093813226 1.1832964 3896507
-0.098663375 -0.07802365 1.1766499 3633333
-0.094881773 -0.078275472 1.1795305 3764919
0.12084914 -0.08361198 1.1826516 4093886
-0.098891422 -0.069213152 1.1765187 3633334
-0.094896391 -0.068335205 1.1797874 3830201
0.11807638 -0.073905468 1.1831787 4291523
-0.094181225 -0.058069974 1.1781204 3896506
0.11786529 -0.06342186 1.1824012 4619975
-0.090661563 -0.048604399 1.1781027 4028348
0.1122378 -0.051821157 1.1845218 5146320
0.11662789 -0.054166544 1.1836436 4883148
-0.08867722 -0.039256681 1.1765792 3962814
-0.083716467 -0.037986062 1.1792331 3963072
0.11150016 -0.042994164 1.1828794 5146577
0.11526065 -0.044738945 1.1809797 5080527
-0.087067239 -0.030226789 1.1761961 4028607
-0.080890357 -0.02860491 1.178431 4291526
-0.030982509 -0.027842544 1.1812924 5147865
-0.023506969 -0.027803473 1.1814425 5344731
-0.0071862657 -0.027306609 1.181764 5345501
-0.00039554294 -0.027476892 1.1819032 5739743
0.0097493939 -0.029982008 1.1808099 5936862
0.018792965 -0.030212417 1.1813287 5871068
0.029002227 -0.029346675 1.1825222 5739228
0.047139533 -0.028668851 1.1828777 5213656
0.10985187 -0.03407032 1.1826179 4949970
-0.078881823 -0.02123218 1.1762315 4422856
-0.070369631 -0.016656876 1.1781559 4686797
-0.05997999 -0.015786409 1.1785345 4884690
-0.049655676 -0.01746314 1.180267 4950486
-0.039208055 -0.018495902 1.1796587 5213659
-0.03063494 -0.019908585 1.1779844 5279707
-0.020516198 -0.021294348 1.1786083 5345244
-0.010313086 -0.019918762 1.178705 5411808
-0.00048291404 -0.021282114 1.1787206 5806052
0.0087876311 -0.024653412 1.1780463 6068964
0.020809881 -0.02533114 1.1782982 6068963
0.030883456 -0.023189679 1.1793936 6003173
0.039361764 -0.021671243 1.1804198 5608417
0.049544595 -0.02192755 1.1812288 5411038
0.056366056 -0.022104442 1.1829691 5279709
0.10109807 -0.021481775 1.1829377 5212630
0.10668529 -0.025237583 1.1813601 5015248
-0.06649141 -0.011101313 1.1763353 4949712
-0.059723526 -0.011271022 1.1764741 4949713
-0.049571708 -0.011525579 1.1766822 5016279
-0.040181417 -0.012137316 1.1768801 5213659
-0.031552635 -0.013106227 1.1770679 5345501
0.041216373 -0.01436653 1.1785516 5871590
0.04969053 -0.014014617 1.1787171 5871847
0.059958756 -0.012011215 1.1808957 5543139
0.067263395 -0.01106105 1.1813149 5280225
0.091738522 -0.011665151 1.1835314 5411294
0.097612597 -0.013261572 1.1811264 5279196
0.069644734 -0.0060488433 1.1790044 5411556
0.079275489 -0.0045971125 1.1791775 5412066
0.090555288 -0.0048799589 1.1794088 5477344
0.097265951 -0.007305868 1.1795788 5213404
-0.003763333 -0.1869162 1.1881298 3105189
-0.023929231 -0.17792919 1.1885947 3039906
-0.014295995 -0.18029979 1.1892515 3039908
-0.004834136 -0.18167195 1.1913671 3105447
0.0058413162 -0.18119854 1.1889912 3105702
0.014967128 -0.18018843 1.1884103 3171750
0.023959126 -0.18000066 1.1885886 3237289
0.035465442 -0.17842957 1.1887978 3237548
0.045685798 -0.17868584 1.1890073 3171752
0.054770559 -0.17891365 1.1891936 3171752
-0.051256157 -0.16579975 1.1868696 3039909
-0.043447062 -0.16671467 1.1879292 3105701
-0.03539538 -0.16954398 1.1897891 3105443
-0.025967028 -0.17515516 1.1915146 3040163
0.0048199585 -0.17501497 1.1921327 3105960
0.016242241 -0.17418647 1.1923509 3105958
0.025389798 -0.17291518 1.1917166 3237545
0.035831623 -0.17213097 1.1908205 3237547
0.045887649 -0.17207715 1.1905168 3237544
0.055950724 -0.17210104 1.1908041 3237545
0.064669713 -0.17034514 1.1899365 3303339
-0.062259503 -0.15609139 1.1865084 3172009
-0.053969689 -0.15943095 1.1891241 3105961
-0.044726919 -0.16185696 1.1909456 3171752
0.039267898 -0.16538848 1.192688 3303337
0.046104312 -0.1655599 1.1928282 3303593
0.056220934 -0.16483623 1.1930215 3303594
0.065515175 -0.16247128 1.1919243 3303596
0.072427534 -0.16117337 1.189294 3238062
-0.06942486 -0.14738844 1.1862389 3434409
-0.063787781 -0.14925398 1.1892036 3237547
-0.055536702 -0.15181604 1.1905835 3237805
0.066636495 -0.15517904 1.1930923 3238318
0.076025665 -0.15249641 1.1921226 3238572
0.086183995 -0.15255994 1.1906476 3434926
0.092720836 -0.15213618 1.1895728 3369134
-0.071560405 -0.13828368 1.187296 3435179
-0.065717585 -0.14040886 1.1897697 3369388
0.080806561 -0.1459056 1.1932443 3500977
0.086535349 -0.14252329 1.1923108 3435186
0.092050448 -0.1427248 1.1894239 3500720
-0.079794697 -0.12733546 1.1867419 3566511
-0.074201703 -0.13033229 1.1885649 3566767
-0.067084581 -0.13307516 1.1900814 3500977
0.088182062 -0.13492289 1.1927348 3501234
0.096184365 -0.13271938 1.1901134 3501490
-0.089030325 -0.11394012 1.1853629 3566770
-0.082441919 -0.11865368 1.1881642 3632306
-0.075968631 -0.1237304 1.1897681 3632563
0.098167859 -0.12407745 1.1918679 3699127
0.10568311 -0.12300783 1.1898856 3633076
-0.090116732 -0.10830921 1.1862605 3566770
-0.084197871 -0.10931481 1.189395 3763892
0.099261984 -0.11501153 1.1931717 3633335
0.10604064 -0.11302049 1.1908344 3764407
-0.09002918 -0.098203853 1.1879174 3698868
-0.085726947 -0.098907024 1.1892145 3699126
0.10013513 -0.10306081 1.1930174 3962811
0.10669278 -0.10332987 1.1919863 3830969
0.11446572 -0.10378212 1.1893152 3830714
-0.090912014 -0.088249482 1.185879 3699126
-0.085726492 -0.088898189 1.1890706 3830712
0.10763201 -0.093402974 1.1924293 4028606
0.11585643 -0.093751393 1.189199 3962300
-0.090105228 -0.078772634 1.1864361 3830970
-0.085246623 -0.078539386 1.1889312 3962813
0.10812114 -0.084346354 1.1929091 4291522
0.11608265 -0.084183648 1.1894296 4094399
-0.090153642 -0.068698578 1.1864045 3962044
-0.085332729 -0.069089457 1.1887935 4093630
0.10998208 -0.073649719 1.192526 4554438
0.11488188 -0.074569844 1.1889035 4357059
-0.08926788 -0.058680121 1.1858971 4093886
-0.08472646 -0.058027953 1.1886467 4291009
0.10843026 -0.06307248 1.1917202 4686026
0.11451686 -0.063358665 1.1887349 4685769
-0.08744625 -0.051475734 1.1844965 4159935
-0.082441919 -0.04909246 1.187421 4225985
0.10140664 -0.052921753 1.1923219 5015248
0.10751224 -0.054386519 1.1897985 5014991
-0.079163581 -0.039364472 1.1866074 4292037
-0.073887974 -0.041684683 1.1886299 4619977
-0.050926521 -0.035418957 1.1890023 5279449
-0.042950712 -0.035618957 1.1891657 5016538
-0.030446183 -0.037072763 1.1894385 4950743
-0.020971306 -0.03898719 1.1896569 4950488
-0.011874471 -0.03905879 1.189841 5147351
-0.0014058659 -0.038371086 1.190042 5278422
0.0091168676 -0.040962331 1.1894021 5212886
0.018498007 -0.040546726 1.1887237 5278423
0.028477035 -0.039952453 1.1894162 5147094
0.039337505 -0.040614434 1.1908948 4885460
0.048872493 -0.039359223 1.1903414 4950741
0.057977237 -0.039061967 1.1912479 5016279
0.1001955 -0.043055136 1.1907552 5212370
0.10761072 -0.044434253 1.1883236 5212369
-0.076903723 -0.03245385 1.1864358 4423370
-0.074742436 -0.029317848 1.1860341 4554187
-0.05032742 -0.030413978 1.1886755 5147610
-0.040420633 -0.029956982 1.1871346 5081818
-0.031376876 -0.032459013 1.1873528 5016538
-0.020197947 -0.031300537 1.1876947 5278938
-0.011081053 -0.030922547 1.1878728 5344730
-0.00061710924 -0.032078378 1.1870332 5673948
0.0095689585 -0.03458897 1.1862075 5805277
0.018653719 -0.034816775 1.1863937 5541848
0.028902877 -0.03393732 1.1865875 5475544
0.03918083 -0.031922184 1.1867654 5213397
0.049800206 -0.032801844 1.1876981 5082070
0.059471972 -0.032239005 1.1895794 5016536
0.068428844 -0.030267194 1.1913319 5213915
0.079196557 -0.029559858 1.1915386 5279453
0.090123244 -0.030289941 1.1917691 5213659
0.099513851 -0.03346806 1.1904035 5212628
0.10618094 -0.033602245 1.188139 5146833
-0.074234664 -0.023396052 1.1843587 4554443
-0.04897837 -0.022211067 1.1848503 5016281
-0.0417336 -0.023301877 1.1850119 5147611
-0.01064134 -0.024990685 1.1856624 5411294
0.06025929 -0.022222802 1.1870505 5148123
0.068973169 -0.022443101 1.1874292 5213915
0.078967214 -0.022902198 1.1891767 5213917
0.089708187 -0.023097672 1.1899726 5213659
0.09770567 -0.025058821 1.1881789 5212887
0.090714633 -0.016167842 1.1875768 5279708
0.095257014 -0.016281746 1.1876699 5411037
-0.020456146 -0.17596701 1.1966388 3106213
-0.014735335 -0.17611045 1.1967561 3105959
-0.0034737512 -0.17704713 1.1969965 3105706
0.0070037423 -0.17665556 1.1972018 3105960
-0.031151574 -0.16882874 1.1963208 3105700
-0.023772735 -0.17025411 1.1972401 3105957
-0.014614685 -0.17048377 1.1974279 3106216
-0.0043296013 -0.17085084 1.1984906 3106217
0.0063231867 -0.17060487 1.1985301 3171752
0.014236333 -0.17031372 1.1983474 3303337
0.025542486 -0.16796035 1.19745 3369130
0.032407455 -0.16813248 1.1975908 3369132
-0.043469977 -0.15729977 1.1962403 3171753
-0.033909526 -0.15992266 1.198858 3171752
-0.023671109 -0.16043398 1.2011522 3172010
-0.014542162 -0.16193008 1.2023078 3172012
-0.0045147389 -0.16175537 1.203303 3237802
0.0061767506 -0.16132848 1.2029666 3303338
0.015371377 -0.16158447 1.2033556 3369133
0.02572176 -0.16163254 1.2018441 3369388
0.035874266 -0.1615603 1.2013568 3303853
0.045226183 -0.16064604 1.1994919 3369643
0.055379808 -0.16011494 1.1981735 3303851
-0.060891487 -0.14518279 1.1953818 3303598
-0.052892588 -0.14818957 1.1973009 3303341
-0.044445727 -0.1500995 1.2009281 3303340
-0.035199724 -0.15173638 1.2039959 3369132
-0.027080376 -0.1538261 1.2041894 3303600
0.0063211564 -0.15466365 1.2048742 3303598
0.018990703 -0.15498134 1.2051339 3435186
0.026477255 -0.15516907 1.2052875 3369391
0.036267355 -0.15541457 1.2054881 3369392
0.046161719 -0.15275423 1.2050335 3369390
0.055825021 -0.15197153 1.2016312 3435184
0.065324351 -0.15063772 1.1980021 3369392
-0.061681949 -0.13814652 1.1960648 3369646
-0.054709896 -0.14058326 1.2010418 3303853
-0.04757867 -0.14409104 1.2036366 3173034
0.048295919 -0.14465091 1.2055756 3566773
0.056524299 -0.14355573 1.2050587 3566516
0.066437736 -0.14195736 1.2023011 3500977
0.076388039 -0.14289363 1.1997983 3500975
-0.07152532 -0.12594165 1.1948909 3632562
-0.062789798 -0.12919928 1.1981146 3501236
-0.055375867 -0.12950701 1.2028253 3501494
0.068820715 -0.13289005 1.2058197 3698612
0.076422714 -0.13344891 1.2036166 3567283
0.085396804 -0.13126464 1.2010621 3567283
0.092948556 -0.12843017 1.1982391 3501747
-0.078472607 -0.11611663 1.1946096 3895478
-0.073007934 -0.11876191 1.1972585 3698613
-0.064231902 -0.11988689 1.2016194 3633080
0.070428401 -0.12630273 1.2057574 3699128
0.077065572 -0.12327726 1.2058475 3830713
0.086575687 -0.12314293 1.2048368 3699126
0.093568735 -0.12203365 1.1981596 3633333
-0.079577096 -0.10807385 1.1944717 3961271
-0.0729459 -0.10863487 1.1996149 3896247
-0.066340946 -0.11134686 1.2027878 3764921
0.077135414 -0.11632775 1.205749 3962300
0.088066317 -0.11409511 1.2054663 3896506
0.095763907 -0.11246326 1.2000668 3764920
-0.080733031 -0.098703928 1.1958141 3830712
-0.073971123 -0.098382033 1.2011139 4093627
0.0912956 -0.10331228 1.205847 4028352
0.096809402 -0.10291412 1.2006173 3962812
-0.080881439 -0.088374555 1.1961627 3962556
-0.074589029 -0.089594834 1.2018642 4028606
0.091032811 -0.092899069 1.2056919 4357317
0.097517289 -0.093303941 1.2018272 4225985
0.10308848 -0.08975403 1.1978871 4225985
-0.080161653 -0.079381935 1.1960479 4028606
-0.075524561 -0.079611294 1.2021464 4094655
0.09176299 -0.084881887 1.2055913 4554695
0.097743124 -0.082934424 1.2010823 4554182
0.10406405 -0.081381738 1.1977863 4619462
-0.080542944 -0.068737723 1.1943573 4159424
-0.072674222 -0.067864388 1.2008038 4160448
-0.066353463 -0.066393889 1.202141 4554440
0.092562556 -0.0715314 1.2054155 4620747
0.098151073 -0.072719641 1.2032944 4686026
0.10463893 -0.073762745 1.1976882 4619977
-0.07966873 -0.059100285 1.1937655 4291265
-0.07171531 -0.05923843 1.1991793 4357573
-0.066178188 -0.059482489 1.2020452 4751563
0.0079876306 -0.058652747 1.2035269 4818903
0.015685618 -0.058077354 1.2036736 4819160
0.090935886 -0.062961131 1.2052594 4752590
0.098381951 -0.063521519 1.2031667 4817869
0.10369788 -0.065724067 1.1975538 4752076
-0.077439182 -0.049568295 1.1936733 4291778
-0.07150352 -0.048966601 1.1973643 4554440
-0.065973707 -0.051419187 1.2019333 4883149
-0.04713311 -0.044871289 1.1982174 5674209
-0.041393261 -0.045015216 1.1983351 5082331
-0.03014484 -0.048111364 1.2004733 4950745
-0.020824566 -0.050115541 1.1982224 4884953
-0.011637317 -0.050339542 1.1982106 4753366
-0.0013099471 -0.04948486 1.1996067 4884692
0.0092477165 -0.051384397 1.1990019 4884692
0.018008495 -0.050872486 1.1998262 4884692
0.028181516 -0.049902786 1.202474 4950484
0.039126746 -0.051152378 1.2009341 4950488
0.047888625 -0.051098302 1.2021035 4950489
0.058505841 -0.049902152 1.2033515 5411037
0.067468643 -0.049866617 1.2045984 5542623
0.08162903 -0.04820459 1.2048597 5213404
0.089330487 -0.051279292 1.2050591 5081558
0.09762647 -0.053761661 1.2028611 5015248
-0.07194341 -0.039237425 1.1936353 4685772
-0.049738072 -0.039315078 1.1951749 5542365
-0.040778045 -0.039719451 1.1954132 4951002
-0.032020606 -0.040982015 1.1944646 4884951
-0.02281078 -0.043086614 1.1946802 4753366
-0.0090518165 -0.04228662 1.1949458 4950484
-0.00019181613 -0.042795036 1.1951317 5015763
0.029820671 -0.044406369 1.1957593 5015764
0.036685642 -0.044578511 1.1959 4885461
0.048642494 -0.043896899 1.196131 4884950
0.059416164 -0.043077592 1.1981829 5082072
0.068757139 -0.042131677 1.2013122 5542624
0.078254767 -0.043494634 1.2039238 5279197
0.088489458 -0.042541083 1.2013154 5213144
0.095820032 -0.045297988 1.1971012 5212627
0.063233525 -0.036084116 1.1963124 5016538
0.06899786 -0.034511145 1.1964059 5213917
0.078595415 -0.032270946 1.1965671 5345245
0.088868499 -0.034829643 1.1974776 5213917
0.17982221 -0.039140496 1.206707 13158081
-0.014597384 -0.15691473 1.2084866 3303598
-0.0018859543 -0.15723348 1.2087471 3303850
-0.042755131 -0.14556937 1.2077563 3303853
-0.033037316 -0.14740458 1.2083356 3304111
-0.023560595 -0.14973734 1.2103088 3303857
-0.014508361 -0.15028022 1.2111439 3303856
-0.0040910896 -0.15056941 1.2116078 3369903
0.0064082979 -0.14934634 1.2088008 3435441
0.015447376 -0.15048599 1.2089992 3435187
0.025936201 -0.15011135 1.209205 3500978
0.0364535 -0.15009972 1.2094167 3369649
0.043196917 -0.14864981 1.2095317 3435441
-0.050731733 -0.13789104 1.2074852 3370159
-0.044202965 -0.13882571 1.2076302 3370416
-0.033904634 -0.13931565 1.2100953 3436469
-0.023598861 -0.13985884 1.2130616 3502005
-0.014316106 -0.14009161 1.2132518 3501749
-0.0039612986 -0.14383487 1.2135142 3501493
0.0065883459 -0.14048311 1.2124281 3567542
0.015855916 -0.14081502 1.2135572 3567541
0.026290681 -0.14095205 1.2125815 3633333
0.036696717 -0.14094846 1.2102277 3567541
0.045326184 -0.140448 1.2094566 3633079
0.055413585 -0.13851513 1.2096319 3632566
-0.050902002 -0.12940618 1.2073598 3501750
-0.044106003 -0.12981281 1.2100033 3567798
-0.035776973 -0.13053179 1.2126821 3633848
-0.022291377 -0.1340856 1.2130048 3633591
-0.015329305 -0.13426018 1.2131475 3699128
0.0067466605 -0.13365254 1.2135834 3830714
0.017189756 -0.13391441 1.2137975 3764921
0.02670756 -0.13320298 1.213979 3830712
0.037288666 -0.13255845 1.2138255 3830713
0.046008561 -0.13248117 1.2136904 3830458
0.056378514 -0.13250223 1.2119341 3764409
0.064574301 -0.13119692 1.2102669 3764407
-0.059640057 -0.11831652 1.2070243 3698874
-0.053090751 -0.11913405 1.2094187 3764923
-0.044609446 -0.12000133 1.2123528 3765435
-0.038300753 -0.12439451 1.212543 3699641
0.055300336 -0.12674159 1.2144618 3896252
0.065590009 -0.12256631 1.2119892 3831226
0.073009327 -0.12210533 1.2097503 3830458
-0.0620557 -0.10879783 1.2076285 3896508
-0.053002648 -0.10893019 1.2120245 4028352
-0.045129966 -0.10982431 1.2121959 4094143
0.067130648 -0.11270978 1.2109258 4159936
0.076510698 -0.11170805 1.2096713 4028352
0.084576696 -0.11054184 1.2098169 3962559
-0.069784909 -0.098865181 1.2065402 4093628
-0.062902413 -0.099091657 1.2074323 4028352
-0.052746587 -0.099625692 1.2115833 4094401
-0.045996018 -0.098190539 1.2120111 4225986
0.068783864 -0.10354387 1.2130357 4357317
0.07709378 -0.10274497 1.2123675 4225732
0.085993759 -0.1025401 1.2097304 4159938
-0.070528388 -0.089099377 1.2063848 4028609
-0.062381692 -0.089357324 1.2079166 3963330
-0.053127035 -0.089596398 1.211744 4160708
-0.046788916 -0.092829116 1.2119181 4292035
0.071713313 -0.089994572 1.2142639 4620236
0.07712125 -0.092881575 1.213025 4488649
0.085646704 -0.093778014 1.2095973 4357318
-0.071424387 -0.078834131 1.2062191 4160449
-0.062906019 -0.07917396 1.2100923 4160708
-0.053647555 -0.079419389 1.2115871 4489161
0.0784586 -0.083632112 1.2132365 4555212
0.086844526 -0.082670622 1.2094618 4620489
-0.16342451 -0.067841522 1.2092097 14082013
-0.069861673 -0.07149411 1.206145 4226242
-0.06175442 -0.069372699 1.2087785 4620234
-0.054660469 -0.067472272 1.2113948 5079759
-0.020613905 -0.067938931 1.2120873 6791922
-0.012462068 -0.066982143 1.2122376 5608162
-0.0020189723 -0.067244008 1.2124517 5016279
0.0080732051 -0.069549337 1.2113241 5608413
0.016531818 -0.068289779 1.2128404 4950485
0.023508597 -0.067884117 1.212975 5016277
0.081437506 -0.072820328 1.2142128 4752847
0.087402917 -0.073025838 1.2110995 4620747
-0.062171794 -0.060472272 1.2071416 4948687
-0.051854901 -0.063671932 1.2113967 5408980
-0.030182581 -0.06110834 1.2098726 6134248
-0.021503687 -0.060857859 1.2094667 5344990
-0.012585072 -0.06126114 1.2100093 4884696
-0.0014250996 -0.061583251 1.2103229 4818902
0.0090569444 -0.063142136 1.2076143 4818646
0.018194202 -0.062277406 1.2085004 4818646
0.028288726 -0.062076345 1.2097368 4884696
0.038382046 -0.061834682 1.2099724 5344733
0.047635756 -0.062052626 1.2098045 5936870
0.057314102 -0.061734855 1.2127339 5608416
0.066409379 -0.061063673 1.2137409 5082072
0.079243258 -0.06220175 1.2110149 5016278
0.085585952 -0.063904688 1.2091665 4884178
-0.030507591 -0.054748803 1.2066967 5082331
-0.0016179793 -0.055473223 1.207289 4687574
0.021493714 -0.056052756 1.2077628 4687574
0.02943447 -0.055591047 1.2079161 4819159
0.036516313 -0.056429453 1.2080708 4950233
0.049227744 -0.056748196 1.2083313 5542369
0.057991397 -0.055683013 1.2084925 5805540
0.070886582 -0.053821974 1.2087255 5213659
0.078205287 -0.054005496 1.2088755 5147866
0.087015919 -0.056153826 1.2090838 5081557
-0.0039358959 -0.13960007 1.217455 3633335
-0.031183794 -0.12832575 1.2167441 3699641
-0.023674861 -0.12896261 1.2169044 3765177
-0.014000461 -0.12935717 1.2187525 3830714
-0.0037655067 -0.13055333 1.2202092 3962299
0.0068259733 -0.12828037 1.2181758 4028092
0.015627766 -0.1292986 1.2179866 3962300
0.025137033 -0.12916867 1.2186179 3962299
0.03469453 -0.12808503 1.2202903 3962299
0.047163606 -0.1273672 1.2183082 3896509
0.056954287 -0.12714669 1.2185022 3830714
-0.040657282 -0.11770896 1.2164006 3962813
-0.034181114 -0.11957702 1.2183362 3962813
-0.023308765 -0.12103494 1.2207991 4028350
-0.014125133 -0.12339035 1.221018 4093886
-0.0071173776 -0.12356608 1.2211616 4093886
0.0069869971 -0.12041328 1.2214003 4291263
0.016330671 -0.12064758 1.2215918 4291265
0.025674341 -0.12088187 1.2217834 4291265
0.036185972 -0.12114546 1.2219989 4225471
0.046648644 -0.12119148 1.2197094 4159424
0.05593776 -0.12129614 1.2183975 4028351
-0.041585222 -0.10836557 1.2162474 4159681
-0.036155265 -0.11021362 1.2192935 4159937
0.0071943542 -0.11223669 1.2212869 4685507
0.016795317 -0.11154238 1.2214702 4685766
0.025671804 -0.11176496 1.2216523 4685768
0.037689012 -0.1121513 1.2218997 4685254
0.046929274 -0.11204389 1.2218343 4553924
0.056179784 -0.11200099 1.2185189 4357059
0.062053785 -0.10979934 1.2183554 4291524
-0.042371131 -0.10040697 1.2164507 4291267
-0.036623526 -0.09962672 1.2194228 4291525
0.01788372 -0.10549177 1.2214051 5080013
0.024891475 -0.10566749 1.2215488 5013964
0.040193431 -0.10137589 1.2217953 5014215
0.04720119 -0.10155161 1.221939 4948424
0.056522746 -0.10172673 1.221329 4686025
0.064185433 -0.10134055 1.2198771 4554696
-0.049202822 -0.08720427 1.2157897 4423366
-0.043767616 -0.089473732 1.2177991 4489158
-0.037882093 -0.092405163 1.2200938 4554697
0.040460028 -0.090863138 1.2216494 6725605
0.047695458 -0.091278337 1.2218012 5541334
0.056811456 -0.091273159 1.2219846 4949456
0.066790961 -0.092704199 1.2206819 4752076
-0.05013077 -0.077860862 1.2156366 4751821
-0.044486642 -0.079310775 1.2184387 4817612
-0.018780034 -0.076520585 1.2202501 6133729
-0.016444115 -0.076579161 1.2202979 5804510
0.0080632763 -0.077972904 1.2208116 6726116
0.016258737 -0.077399194 1.2209684 6791913
0.029106287 -0.077721357 1.2212317 5673696
0.0377221 -0.08105427 1.2214532 5344728
0.048872724 -0.081723481 1.2216874 5475805
0.057048436 -0.081928492 1.221855 5147095
0.0675143 -0.082127556 1.2208682 4949712
0.076223962 -0.079281732 1.2182019 4621777
0.18444484 -0.081616528 1.2244163 11781308
-0.052311435 -0.07198111 1.2155082 4883150
-0.043337077 -0.070264451 1.2156643 6001884
-0.032432288 -0.068984538 1.2158654 6133474
-0.020919248 -0.072147667 1.2177433 6067939
-0.013046984 -0.071642295 1.2173853 6594284
-0.0019957861 -0.070648476 1.2175937 6002915
0.0089052105 -0.074215144 1.2167732 6857704
0.017957717 -0.072416618 1.2175965 6397928
0.0271415 -0.071966328 1.2189754 6397674
0.036160246 -0.072372936 1.2196964 6002659
0.048152722 -0.072386563 1.2204716 5476060
0.05723897 -0.072505482 1.2199727 5213402
0.067737594 -0.073975541 1.2211556 5081814
0.077882454 -0.073212981 1.2187636 4818898
