# .PCD v0.7 - Point Cloud Data file format
VERSION 0.7
FIELDS x y z rgba
SIZE 4 4 4 4
TYPE F F F U
COUNT 1 1 1 1
WIDTH 1126
HEIGHT 1
VIEWPOINT 0 0 0 1 0 0 0
POINTS 1126
DATA ascii
0.14273539 -0.12490797 1.1321636 3499683
0.14574961 -0.12283511 1.1305871 3303338
-0.12121727 -0.12609202 1.131466 3039134
0.14698739 -0.11427649 1.1306211 3499947
-0.12698729 -0.11210641 1.1286675 3236770
-0.12464645 -0.11620296 1.1321197 3236770
0.14825259 -0.10369549 1.1307367 3500458
-0.12727346 -0.10563523 1.1284876 3237027
-0.12554045 -0.10580956 1.132497 3302821
0.15015037 -0.093043432 1.1309125 3632048
-0.1277027 -0.095928453 1.1282179 3302824
-0.12594727 -0.096609727 1.1322414 3302569
0.14803189 -0.084245712 1.1305611 3632047
-0.12853493 -0.086887889 1.1279659 3434408
-0.12587215 -0.084290132 1.1319001 3434665
0.14415513 -0.073373832 1.1298892 4026292
-0.1285612 -0.076514915 1.1276784 3631531
-0.12688059 -0.075504214 1.1316549 3631531
0.14391202 -0.065439686 1.1282947 4157366
-0.12884736 -0.070043735 1.1274986 4025255
-0.12593019 -0.064725444 1.129643 3632304
0.14285597 -0.053702127 1.1275231 4289211
-0.12286899 -0.055608459 1.128824 3568048
0.13922615 -0.043069541 1.1278889 4094399
0.14174668 -0.047310919 1.1293447 4224702
-0.12182536 -0.049561162 1.1269433 3764911
-0.11858317 -0.045030978 1.1293244 3895729
0.13629863 -0.034750812 1.1284415 4487616
-0.1238433 -0.031450659 1.1294391 6458567
-0.11874463 -0.035016779 1.1289467 3895996
0.13574281 -0.023760729 1.127081 5735616
0.1424564 -0.020219967 1.1265945 9477559
-0.1235249 -0.028724343 1.1303645 6852289
-0.12027665 -0.028580658 1.1303662 5933254
0.041804012 0.080149643 1.1236365 9474701
-0.01949537 -0.22789863 1.1480711 7248329
0.013392229 -0.22805861 1.1473329 5801654
0.021358563 -0.22659096 1.1467727 5210039
0.03416723 -0.2266207 1.1481299 6328255
0.041826405 -0.22628188 1.148134 7379645
0.053370588 -0.22564945 1.1481367 8430007
0.061243042 -0.2236377 1.1440932 8625323
-0.057709791 -0.22168076 1.1398286 9678537
-0.046906069 -0.22102335 1.1463581 4422071
-0.037549786 -0.22124523 1.147855 2778029
-0.027715912 -0.22262624 1.1479105 2513574
-0.019989071 -0.22499809 1.1479899 2315684
0.009950432 -0.22440428 1.148026 2120102
0.02198628 -0.22387186 1.1480323 2185635
0.035067931 -0.22219729 1.1480089 2186146
0.040587135 -0.22304901 1.1480422 2316696
0.055808753 -0.22018388 1.1479895 4486314
0.06334807 -0.21951079 1.1459833 5997746
0.074354552 -0.21603872 1.1467639 6063288
0.08295016 -0.21416138 1.1478703 6589614
0.09105666 -0.21402195 1.1478808 8757678
-0.063670903 -0.20997354 1.1394937 1855898
-0.056850657 -0.21209216 1.1428037 2249885
-0.049079575 -0.2139478 1.1469049 2381985
-0.040864967 -0.21569327 1.1476953 3039902
0.076685555 -0.20884949 1.1477121 2841504
0.082679294 -0.20803641 1.1477002 3302564
0.092139333 -0.20539808 1.1463099 4420011
0.10190406 -0.20425418 1.1419126 6984117
0.11121665 -0.20114897 1.1395563 6254993
-0.07527303 -0.19993831 1.1399955 2710418
-0.067416206 -0.20275727 1.1436697 2775447
-0.060605519 -0.20460831 1.1465532 2906776
0.094234928 -0.19738176 1.1470251 3171492
0.10268213 -0.19571131 1.1441925 3237285
0.11096507 -0.19424736 1.1399363 3629215
-0.078471728 -0.19301565 1.1437995 2775191
-0.070193045 -0.19607294 1.1464332 2906012
0.10422871 -0.18638954 1.1454709 3040421
0.1110978 -0.18449573 1.1420431 3105703
0.11701553 -0.18456849 1.1391071 2777257
-0.094400808 -0.17977327 1.1386029 2710677
-0.087475218 -0.183256 1.1422423 2709909
-0.081108354 -0.18651637 1.1448153 2709910
0.11187224 -0.17597774 1.1453888 3368100
0.11937448 -0.17393178 1.1409506 3302561
-0.095922433 -0.17320594 1.1415305 2710421
-0.09102302 -0.17572948 1.1456995 2644886
0.11358299 -0.16809413 1.1466477 3040936
0.12148532 -0.16470173 1.1444798 3237031
0.12776126 -0.16160226 1.1414907 3368615
-0.10613092 -0.16070342 1.1380538 2776209
-0.10051453 -0.16480711 1.1429292 2841240
0.12313773 -0.15607943 1.1463315 3237287
0.12949897 -0.15371303 1.1411322 3302822
-0.10743232 -0.15397869 1.1424003 2710683
-0.10260054 -0.15698156 1.145293 2841499
0.13138348 -0.14513642 1.1434535 3237541
0.13623783 -0.14231098 1.1395705 3237798
-0.10993803 -0.14551181 1.142771 2907293
0.13267517 -0.13623597 1.1457983 3237797
0.13730103 -0.13362539 1.1407322 3303334
-0.11674971 -0.13421988 1.1384445 2907805
-0.11449125 -0.13558894 1.144546 2907805
0.13872191 -0.12412277 1.1430279 3434407
-0.11766202 -0.12490507 1.1397092 3039392
-0.11500288 -0.12582242 1.1450747 3039391
0.1402413 -0.11448066 1.1426364 3500202
0.14426911 -0.11153753 1.1371312 3631274
-0.12121689 -0.11583738 1.1413192 3170979
0.14173433 -0.104082 1.1444787 3631791
0.1451086 -0.10352399 1.1386892 3566510
-0.12207978 -0.10548658 1.1422122 3105957
0.14042412 -0.093053132 1.142948 3632305
0.14571704 -0.094083138 1.1369836 3501227
-0.12289964 -0.095554546 1.1396489 3237546
0.13956799 -0.084038787 1.1418176 3698099
0.14420658 -0.084353857 1.136778 3698094
-0.12270799 -0.085785374 1.1396167 3434923
0.14039269 -0.074707672 1.1421062 3895479
0.14273214 -0.076781094 1.1361655 3895477
-0.12279227 -0.075308293 1.1399456 3566256
0.14014985 -0.063371986 1.1431255 4027579
0.1426218 -0.062779009 1.1397787 4157882
-0.12219054 -0.066387437 1.1389428 3567024
0.13769172 -0.053951349 1.1423502 4159422
0.14203134 -0.054029118 1.1379347 4289724
-0.12030862 -0.056522302 1.1364759 3567791
-0.1173029 -0.054306075 1.1417551 3764403
0.13554296 -0.044044238 1.140581 4356797
-0.11594703 -0.045474518 1.1354152 3830196
0.13246126 -0.034617946 1.1393807 4619718
-0.11496093 -0.034457929 1.1374502 3896507
0.12784827 -0.022908531 1.1395372 4817095
0.1324027 -0.023374148 1.1363347 4948420
-0.12296899 -0.025602691 1.1382821 6916535
-0.11546307 -0.02580981 1.1379932 5210049
0.12671658 -0.016504832 1.1414697 5013440
0.13115883 -0.015955746 1.1391281 5998788
0.02322516 0.052921869 1.1352197 5859448
0.031414818 0.053310014 1.1333655 6122362
0.036958434 0.053767212 1.1363636 6319482
0.047996998 0.055634044 1.1403329 5330522
0.023612823 0.057346575 1.1335734 5792108
0.031394564 0.058521695 1.1330209 5527648
0.036765642 0.058126979 1.1362425 5067354
-0.013763247 -0.22753423 1.1510721 4354997
-0.0063689798 -0.22817966 1.1531038 4684224
0.0035086377 -0.22748893 1.1516347 4289976
0.014376624 -0.22471979 1.1510435 2054307
0.024822582 -0.22480708 1.1510643 2777510
0.030356187 -0.22566104 1.1510977 4026798
0.046811514 -0.22493312 1.1511065 5604271
0.050578356 -0.22311836 1.1510627 4881326
-0.033183277 -0.21803367 1.1507747 3039902
-0.025201632 -0.2185851 1.1513042 2710943
-0.016661521 -0.22003961 1.154165 2645152
-0.0066724755 -0.22236422 1.1576105 2514339
0.0032556951 -0.22183618 1.1570798 2514851
0.013056329 -0.21893808 1.1554828 2842787
0.022917651 -0.21813902 1.1532772 2908579
0.032561615 -0.21730363 1.15376 3039651
0.042775318 -0.21752445 1.1548957 2908578
0.052078582 -0.21624744 1.1546265 2778020
0.062031791 -0.21420914 1.1522652 2646433
0.071719743 -0.2165063 1.1509167 5012145
0.083295055 -0.21727613 1.1509583 8955830
-0.046574563 -0.21019381 1.1508198 2841242
-0.036652938 -0.21177207 1.1529294 2775960
-0.027599903 -0.21259394 1.1549021 2841500
-0.018111655 -0.21424398 1.1586993 2907551
0.013521961 -0.21210706 1.1586956 3105184
0.022710968 -0.2113318 1.1586903 3170722
0.032652672 -0.21089199 1.1586956 3302053
0.042754069 -0.20989199 1.1586856 3170723
0.053207397 -0.2085076 1.1586657 3105188
0.062498629 -0.20735022 1.156935 3170467
0.072093956 -0.20682395 1.1530499 3236258
0.082081333 -0.20299217 1.151005 3171236
-0.063675746 -0.19960511 1.1502105 2906776
-0.057054512 -0.20151812 1.1514184 2907033
-0.048575506 -0.20202622 1.1551393 2841497
-0.039154686 -0.2055863 1.1584225 2775704
0.06324061 -0.20179433 1.1584972 3105443
0.072077684 -0.20140341 1.1585019 3105443
0.082700305 -0.19724853 1.1571418 3105956
0.090938397 -0.19410971 1.1535311 3105956
-0.075130895 -0.18912436 1.1499 2644884
-0.067915976 -0.19229239 1.1530015 2775705
-0.059430555 -0.19471723 1.1557513 2841497
0.085949637 -0.18972608 1.1582026 3172006
0.093496799 -0.18703637 1.157141 3040421
0.099255018 -0.18449979 1.1545799 2974628
-0.08429502 -0.18073978 1.1496515 2645144
-0.077585779 -0.18212739 1.1527618 2710425
-0.072170064 -0.18456891 1.1543522 2776216
0.10233738 -0.17571148 1.1545919 3171493
0.10721876 -0.17335109 1.1513839 3237026
-0.087689556 -0.17279573 1.1520147 2710424
-0.081235528 -0.17461105 1.1560351 2710937
0.10495411 -0.16897076 1.157661 3302823
0.11110459 -0.16469866 1.1543943 3172005
0.1167578 -0.1613294 1.1534684 3172006
-0.096853301 -0.16188413 1.149107 2841498
-0.092359871 -0.16407067 1.1541004 2907290
0.11330289 -0.15753776 1.1573588 3303592
0.11939823 -0.15392092 1.1559354 3237544
0.12536339 -0.14949045 1.1491538 3303337
-0.098993301 -0.15346858 1.1505849 2973342
-0.094279848 -0.15620984 1.1569574 3038879
0.1226825 -0.1459887 1.1563883 3237544
0.12691344 -0.14289628 1.151775 3303336
-0.10752047 -0.14230558 1.1495461 2973342
-0.10132895 -0.14507322 1.1541355 2973600
0.12991449 -0.13359915 1.1527231 3368872
-0.10944692 -0.13448554 1.1506795 3039392
-0.10399717 -0.13490745 1.15635 3236259
0.13079421 -0.12406579 1.1542112 3500460
0.13512129 -0.12159015 1.1483979 3434923
-0.1109728 -0.12488943 1.1509471 3170978
0.13143913 -0.11507735 1.1548803 3500719
0.13602474 -0.11246514 1.1514813 3500718
-0.11801822 -0.11410933 1.147746 3237029
-0.11415916 -0.11514325 1.1537837 3237286
0.13596626 -0.10352846 1.1540065 3697329
-0.11840615 -0.10533652 1.1475022 3237543
-0.11588199 -0.10458104 1.1549886 3172263
0.13678189 -0.094389558 1.1532493 3697843
-0.11913957 -0.095642783 1.1502335 3303340
-0.11712251 -0.094341658 1.1552029 3303852
0.13609436 -0.08395686 1.1533592 3764149
-0.11962856 -0.085979417 1.1469636 3500716
-0.11698801 -0.08427301 1.1549242 3501229
0.13857457 -0.073443837 1.151643 3764661
-0.11961848 -0.077921502 1.1467404 3566512
-0.1166091 -0.074243069 1.1510091 3632306
0.13514514 -0.063383751 1.1512574 3896764
-0.11643282 -0.06460879 1.1507424 3698357
0.12871878 -0.053560551 1.1531708 4291265
0.1326102 -0.054711338 1.1476836 4225217
-0.11522049 -0.055552073 1.1501298 3764408
0.12907766 -0.043954335 1.1522384 4554434
0.1316783 -0.043731514 1.1462344 4488640
-0.11274209 -0.044701535 1.1506338 3895997
-0.10877191 -0.041235317 1.153746 4027323
0.12821129 -0.033216182 1.1509389 4817354
-0.1116154 -0.035208348 1.1469047 3962044
-0.10770634 -0.033666503 1.1527379 4093118
0.1183432 -0.021231361 1.1535906 5014224
0.12385952 -0.023832306 1.1496708 4751563
-0.11097592 -0.024799399 1.1452836 4290235
-0.10611254 -0.024330072 1.1498142 4158908
-0.10004479 -0.021672197 1.1532192 4028609
0.11637323 -0.014325283 1.1516173 4817874
0.12304745 -0.013890013 1.1463927 5145287
-0.10402057 -0.017644845 1.1474985 4487616
-0.098770499 -0.014629349 1.1516924 4356800
0.10697542 -0.0022248626 1.1510432 5276623
0.11345036 -0.0050553456 1.1474173 5604813
0.12290148 -0.005894132 1.1460598 6720449
-0.096981183 -0.007522665 1.1528325 5671109
0.10486964 0.0032904074 1.1523157 5802961
0.11127212 0.0026904866 1.1482468 6787017
0.028165812 0.015715234 1.1524084 12972031
-0.027467804 0.02311787 1.1501048 5869264
0.0050600134 0.020962559 1.1522224 7515376
0.012563253 0.020925663 1.1522366 8764660
0.022180829 0.020908579 1.152254 10146554
0.028854202 0.020171158 1.1522862 10870005
-0.085496172 0.028701268 1.1438458 8028800
-0.080392905 0.029293269 1.1438384 7305855
-0.023135642 0.024509557 1.1520746 5671370
-0.019821739 0.024656154 1.1520764 5869265
0.003375574 0.025682315 1.1520886 6988787
0.0077941096 0.025877766 1.152091 7185904
0.09356492 0.038522862 1.1518912 6314850
-0.079394899 0.034342788 1.1437002 8028802
0.090315692 0.041919537 1.1517915 6117979
0.065929167 0.051148377 1.1434897 5593178
0.068123214 0.051245429 1.1434909 5658970
-0.012517827 -0.2168529 1.162783 2973083
-0.0069266278 -0.21771574 1.1628168 2973595
0.002473034 -0.21685086 1.1634762 2973598
-0.032959722 -0.20665535 1.1624645 2842012
-0.026524944 -0.20775844 1.1625065 2776219
-0.017085878 -0.20978054 1.1641034 2907806
-0.0074421093 -0.21068865 1.1657802 2907807
0.0031295549 -0.21075705 1.1659762 2973599
0.011902887 -0.2081023 1.1632503 3039136
0.022591304 -0.20662022 1.163895 3170723
0.032556184 -0.2060785 1.1632305 3236770
0.042326577 -0.20520377 1.1625565 3170979
0.051355198 -0.20459089 1.1625555 3170980
0.05793234 -0.20263466 1.1625128 3171236
-0.044436097 -0.19828156 1.1622124 2842012
-0.037635975 -0.20020732 1.1637328 2842011
-0.027933044 -0.20201039 1.1648071 2842012
-0.019591676 -0.20304905 1.1663896 2907805
0.026906028 -0.20238465 1.1664529 3302309
0.032863323 -0.20099548 1.1652815 3302308
0.041505609 -0.20052966 1.1639261 3171236
0.052292153 -0.20066381 1.1624483 3171236
0.062844381 -0.19877642 1.1640818 3105443
0.072573774 -0.19644058 1.1633673 3171492
0.079035528 -0.19429994 1.1623189 3040420
-0.065986425 -0.18813306 1.1618932 2841497
-0.057098225 -0.19047593 1.1625073 2907291
-0.048553236 -0.19271278 1.1639339 2907549
-0.041836135 -0.19354293 1.166087 2907551
0.075353168 -0.18910161 1.1661699 3040420
0.082285158 -0.18700501 1.1642284 3106213
0.089987598 -0.18411988 1.1620561 3106214
-0.067778505 -0.18166614 1.1637117 2907290
-0.061073266 -0.18420899 1.1652944 2973340
0.086082302 -0.17971507 1.1659286 3302823
0.092021003 -0.17713267 1.1634666 3237030
0.098004356 -0.17345423 1.163553 3237031
-0.085711852 -0.16902238 1.161329 2841497
-0.077170007 -0.17211151 1.1619632 2842012
-0.070961505 -0.17400587 1.1644942 2907547
0.1028469 -0.16557461 1.1624881 3368361
0.10778439 -0.16212815 1.1614779 3237285
-0.087451093 -0.16317835 1.161164 2973085
-0.080671683 -0.16302738 1.1639097 3039135
0.10484178 -0.1583727 1.1613687 3368615
0.11121173 -0.15473835 1.1620067 3237799
0.1156322 -0.1512343 1.1611898 3303337
-0.095412336 -0.15057841 1.1608009 2973857
-0.08983539 -0.15382063 1.1624568 3039137
-0.083873279 -0.15437041 1.1649277 3104930
0.11286548 -0.14712532 1.1630719 3172264
0.1189571 -0.14400059 1.1616621 3238059
-0.09696658 -0.14241214 1.1615723 3039650
-0.092835829 -0.14574353 1.164673 3105700
0.12175988 -0.13408582 1.1628801 3369132
0.12598163 -0.13412376 1.1607338 3434410
-0.10009962 -0.13396262 1.1620471 3171236
0.12328926 -0.125862 1.1637014 3500719
0.12655866 -0.12344521 1.1624397 3435183
-0.10777067 -0.12226037 1.1599945 3302823
-0.10304119 -0.12395787 1.1627176 3171495
0.1268743 -0.11333276 1.1619781 3566514
-0.10989971 -0.11367362 1.1612079 3368873
-0.10617501 -0.11463762 1.1629874 3368875
0.12918317 -0.10406024 1.1607068 3697588
-0.11120543 -0.104626 1.1621675 3303850
0.13032079 -0.094331406 1.1630687 3763892
0.1335188 -0.093601778 1.1596242 3698099
-0.11299666 -0.09452308 1.1608174 3435181
-0.10712937 -0.094686553 1.163233 3435438
0.13089117 -0.084157497 1.1633594 3829942
0.13371597 -0.083562739 1.1604897 3764149
-0.11238946 -0.084805913 1.1609493 3501229
0.13030118 -0.070815682 1.1629887 3896505
0.13482402 -0.073560521 1.1608901 3830455
-0.11222645 -0.074944511 1.1602147 3632563
-0.10816185 -0.071338378 1.1625843 3567542
0.12763254 -0.063842282 1.1602184 4027837
0.13301773 -0.067201637 1.1588918 3896505
-0.11191201 -0.064871609 1.1597308 3829940
-0.10845684 -0.064667463 1.1623989 3699127
0.12570567 -0.054273687 1.1611884 4291009
-0.11194073 -0.054740444 1.1589165 3895737
-0.10830591 -0.053679999 1.1620947 4027576
0.12555939 -0.044253681 1.1602435 4422849
-0.11105352 -0.048023455 1.1579317 4158911
-0.10673698 -0.044075523 1.1598306 4093372
0.12507381 -0.034538757 1.1594733 4817355
-0.10340637 -0.034536224 1.1591104 4093630
-0.098809361 -0.030820906 1.1614779 4094397
0.11715229 -0.02411478 1.159893 5080014
0.12180758 -0.027175918 1.157763 4883149
-0.1016227 -0.026882887 1.1573625 4028348
-0.097236797 -0.024088234 1.1587932 4028864
0.11223929 -0.014694929 1.1591787 4949202
-0.094101653 -0.014342137 1.158847 4029123
-0.089989342 -0.011864208 1.1609682 3963586
0.10572274 -0.0050876737 1.1597904 5146069
0.1093605 -0.0094085336 1.1572489 5080276
-0.093637139 -0.0065463707 1.1568129 5342665
-0.086623497 -0.0039744824 1.1607555 4882633
-0.023391904 0.0025930554 1.1606846 6070261
-0.016718432 0.0028882623 1.160688 6528744
-0.010044958 0.0031834692 1.1606916 8827627
0.0055264765 0.0038722828 1.1606998 10340848
0.014293644 0.0036235377 1.1607221 8895736
0.021824259 0.0032564476 1.1607456 6266608
0.096111394 0.0072946101 1.1597638 5475287
0.10074735 0.0039333701 1.1581978 5475028
-0.083414614 0.0021065101 1.1585919 5999306
-0.07680916 0.0035088956 1.1585646 5540557
-0.068395071 0.0071994811 1.1578102 5803727
-0.055771329 0.0095775649 1.1604341 4950220
-0.04676754 0.0088506341 1.1604701 5016280
-0.03702347 0.0086590797 1.1600924 5411294
-0.026981181 0.0090386346 1.1582588 5806569
-0.017005326 0.0095382854 1.159903 7120874
-0.0074597094 0.010724448 1.1604872 12379901
0.0031525828 0.010599129 1.1579821 13891069
0.01297076 0.010775931 1.1573205 12969723
0.022904497 0.011477105 1.158203 9946095
0.032976456 0.011702128 1.1586174 10013177
0.042621225 0.014003783 1.1583296 7449069
0.049186669 0.0162009 1.160435 5411552
0.093034178 0.011008181 1.158155 6526426
-0.054012522 0.014606446 1.1602979 6264275
-0.046456046 0.015675321 1.1577806 5803990
-0.036912896 0.016686253 1.1562688 5345755
-0.026970929 0.018388592 1.156239 5412839
-0.017416582 0.019418582 1.1567276 5676266
-0.008350838 0.018963203 1.1591141 7253489
0.001483757 0.019165047 1.1572679 8436213
0.011554305 0.017349996 1.1563355 12051453
0.025768027 0.022419482 1.15622 10082302
0.033633668 0.022027306 1.1562448 10607102
0.042147927 0.021558098 1.1562726 7515119
0.049204722 0.021293223 1.1576263 6068200
-0.015440231 0.025037318 1.1560751 6001365
-0.011006473 0.025233455 1.1560775 6396124
0.10113453 0.035967059 1.155977 6447199
-0.0041367449 -0.20659137 1.1705165 3039391
0.0033715572 -0.20564508 1.172004 3039135
0.014836129 -0.20575207 1.1705265 3104930
-0.033647425 -0.19671875 1.170191 2776478
-0.027240699 -0.19727604 1.1722186 2842271
-0.01727845 -0.1984152 1.1744503 2907807
-0.0079786871 -0.19985005 1.1750205 2908063
0.0020663301 -0.20022529 1.1761532 2973600
0.0123352 -0.19880095 1.1756649 3105187
0.022240439 -0.19803694 1.1747413 3236773
0.031878643 -0.19628927 1.174029 3237029
0.042819709 -0.19588912 1.1741039 3171237
0.052508451 -0.1964747 1.1718363 3171236
0.061952345 -0.19451243 1.1712213 3105444
0.070728049 -0.19266051 1.170262 3171493
-0.046227522 -0.18831062 1.1731372 2841758
-0.038034737 -0.1902348 1.1740053 2907551
-0.029088719 -0.19086795 1.1768631 2842271
-0.018362219 -0.19155023 1.1780778 2908064
-0.011570571 -0.19237523 1.1781126 2973857
0.0097790258 -0.19143081 1.178124 3105444
0.022594571 -0.1898635 1.178103 3237030
0.032655291 -0.18985672 1.1773201 3302823
0.042273786 -0.18865277 1.1771805 3171495
0.051565729 -0.1868445 1.1766784 3105703
0.061278537 -0.18667944 1.1764821 3105703
0.071057864 -0.18580106 1.1745741 3105702
0.079278558 -0.18300885 1.1717244 3105958
-0.057833567 -0.18116432 1.1713653 2973598
-0.049777217 -0.18240905 1.1757685 2907551
-0.039815851 -0.18377718 1.1778247 2908065
0.072459117 -0.17723067 1.1778406 3237288
0.081244126 -0.1761958 1.1753819 3302823
0.089815162 -0.17385545 1.1723468 3237287
-0.067729242 -0.17029311 1.1722572 3105183
-0.060129769 -0.1732427 1.175614 2974112
-0.051743172 -0.17502001 1.1775612 2842786
0.082432121 -0.16930974 1.1776385 3171750
0.090896867 -0.16536 1.1762102 3172008
0.098885879 -0.16337036 1.171834 3303081
-0.076270536 -0.16104314 1.1697946 3104930
-0.069957674 -0.16291989 1.1758599 3170978
0.093012415 -0.15688001 1.1773127 3303337
0.10072016 -0.15508078 1.1750255 3368873
0.1076035 -0.15355794 1.1717896 3237543
-0.08666347 -0.14865151 1.1714337 3040164
-0.079782724 -0.15207517 1.1726639 3105701
-0.073221184 -0.15608755 1.1769987 3302822
0.10188939 -0.14594045 1.1770252 3303597
0.10918627 -0.14330989 1.1725998 3238059
0.11612103 -0.13998842 1.1708829 3303852
-0.089384586 -0.14240244 1.1723673 3106213
-0.081543691 -0.1439822 1.1766487 3172007
0.10967769 -0.13409734 1.1765106 3369387
0.11760489 -0.13361266 1.1727096 3435181
-0.096979171 -0.13256235 1.1696359 3237030
-0.090389967 -0.13282472 1.1739898 3237800
-0.08387021 -0.13592575 1.1764214 3303594
0.11122749 -0.1279707 1.1765436 3500972
0.11944581 -0.12341634 1.1731806 3500976
0.12400525 -0.12044094 1.1683544 3500977
-0.098529473 -0.12331849 1.1711555 3237545
-0.093803816 -0.12466473 1.1752026 3303852
0.12080608 -0.11374173 1.1761662 3566772
0.12414698 -0.11403602 1.1721786 3566515
-0.10146846 -0.11372904 1.1710235 3369389
0.12124119 -0.10418314 1.1759021 3763639
0.12456893 -0.10323545 1.1709908 3763639
-0.10885451 -0.10026315 1.16872 3435181
-0.10332999 -0.10361862 1.172062 3435438
0.12139367 -0.093082875 1.1755948 3895737
0.12637746 -0.092886075 1.1704196 3764149
-0.10864256 -0.093743607 1.1696068 3435438
-0.10325536 -0.09402433 1.1736872 3501231
0.12114532 -0.087466724 1.1754386 3961530
0.12635249 -0.083397187 1.1701566 3961528
0.13338974 -0.07978484 1.1672442 3895735
-0.10877103 -0.084475428 1.16995 3501489
-0.10452203 -0.083985172 1.1728274 3501490
0.12035058 -0.069495022 1.1749393 4159679
0.12627107 -0.074043661 1.1703466 3962041
0.13329108 -0.0775536 1.1671822 3895735
-0.10956207 -0.077192418 1.1687464 3501747
-0.10490362 -0.073720232 1.171326 3567541
0.11932001 -0.063163191 1.174762 4225473
0.12303924 -0.06361229 1.1707795 4159424
-0.10357765 -0.063533247 1.1699791 3764919
0.11867847 -0.054313187 1.1745157 4422597
0.12259372 -0.053537451 1.1704994 4357059
-0.10351676 -0.053756922 1.1695367 3896505
-0.098782465 -0.053303719 1.1741058 3962298
0.1180845 -0.043710414 1.1742208 4685767
0.1221482 -0.043462612 1.1702195 4422851
-0.10245675 -0.044629361 1.1674564 4027836
-0.097534731 -0.042498674 1.1727172 4028094
0.11574721 -0.033272576 1.171809 4948684
0.12173281 -0.035040699 1.1669843 4751818
-0.10111697 -0.036503825 1.165633 4093632
-0.095713325 -0.032650534 1.1713841 4094399
0.10854257 -0.023124516 1.1736337 5080784
0.11290678 -0.024132594 1.1688673 5211343
-0.092838183 -0.024116881 1.1696696 4094402
-0.086456016 -0.020695634 1.1722234 4226244
-0.080046646 -0.018712074 1.1731801 4620744
-0.026160495 -0.01520294 1.1731775 5412064
-0.0036872383 -0.014208809 1.1731894 6463211
0.0045461589 -0.017684318 1.1733003 6397929
0.014195977 -0.016616315 1.1732876 6397929
0.023337439 -0.014299557 1.1732395 6003432
0.10513602 -0.014060065 1.1708754 5081042
0.11048877 -0.017083012 1.1654665 5081041
-0.085433356 -0.012976333 1.166876 4160963
-0.077414975 -0.011538275 1.1721284 4752075
-0.06251508 -0.0078076944 1.1729088 4949201
-0.055748269 -0.0080710724 1.172928 5016022
-0.046125576 -0.0087842718 1.1722977 5213659
-0.036263533 -0.0092683733 1.171764 5411552
-0.026393255 -0.0096022189 1.1722215 5740773
-0.016295888 -0.0091394335 1.1730268 6003172
-0.0061834902 -0.0087001696 1.1726322 6331366
0.003908365 -0.0083004162 1.1700379 6989552
0.014000073 -0.0078470856 1.1704432 6792432
0.024077501 -0.0074118152 1.1697986 5937640
0.032512955 -0.0060607418 1.1720269 5806054
0.043158911 -0.0042585433 1.172996 5674725
0.049851224 -0.0028370693 1.1729684 5674983
0.095752254 -0.0033388138 1.1730629 5146841
0.10186566 -0.0052903891 1.1674112 5080789
-0.082409397 -0.0043777376 1.1647756 4554184
-0.079007626 -0.0033170134 1.1677533 4751049
-0.063786529 -0.0022923499 1.1707529 4818129
-0.056349643 -0.0019833073 1.169957 5015507
-0.046813034 -0.0016421601 1.166563 5147609
-0.036712818 -0.0012270138 1.1652688 5346018
-0.027069097 -0.0011103898 1.1678946 5937898
-0.01659742 -0.0013878942 1.168143 6462952
-0.0061825905 -0.00020368397 1.1672392 8303605
0.003188733 7.956475e-005 1.1662316 8501495
0.013081293 -0.00048399717 1.165451 7252467
0.024353944 0.00058104098 1.1662809 6069484
0.033443972 0.0020953342 1.1671164 6135528
0.043557964 0.002244778 1.1702273 5741031
0.05292704 0.0028993189 1.1718144 5543655
0.062338024 0.0046410188 1.1727831 5477092
0.072334796 0.0064106584 1.1727517 5739747
0.083707295 0.0066636279 1.1727645 5280481
0.093041264 0.0043471307 1.1691514 5015513
0.098616116 0.0025563911 1.1669022 4949463
-0.076009102 0.0026122108 1.1645932 4818122
-0.066628516 0.004020758 1.1645707 5147606
-0.057981007 0.0051484928 1.1645546 4818639
-0.049223877 0.0037970841 1.1646074 5344472
-0.0046064798 0.0063296705 1.1646156 12971007
-0.00011760648 0.0059693307 1.1646335 12905215
0.02443552 0.0070554614 1.1646465 5807584
0.03782814 0.0076478943 1.1646537 6004710
0.043844417 0.0088721588 1.1646303 5807083
0.052514762 0.011792392 1.1666987 5477863
0.061025359 0.011803545 1.1692476 5542628
0.072951436 0.0094390661 1.1726688 5673698
0.083426289 0.011820734 1.1711205 5804766
0.089166507 0.0099188983 1.1646808 5147865
0.055191621 0.019594036 1.1643531 5412324
-0.0047295019 -0.19488321 1.1821957 3039650
0.0017416552 -0.19524223 1.1822169 3039650
-0.025372805 -0.18789172 1.1819656 2842271
-0.018607996 -0.18759248 1.1819692 2973857
-0.0082467869 -0.18819116 1.1832676 2973857
0.0015710518 -0.18947569 1.1845841 3039395
0.012136484 -0.18709335 1.1837878 3171237
0.021372486 -0.18528546 1.1830425 3237030
0.031683046 -0.18426546 1.1835043 3302569
0.040020637 -0.18404362 1.1833076 3237546
-0.045485772 -0.17829564 1.1816643 2908065
-0.03787291 -0.1789268 1.1816952 2973857
-0.029123126 -0.18027687 1.1827484 2973857
-0.019304132 -0.18171374 1.1839235 2973858
-0.010986209 -0.18212312 1.1858325 3105444
0.020689478 -0.18072191 1.1858493 3237030
0.032312639 -0.17869702 1.1858137 3302825
0.04121612 -0.1778563 1.1854981 3171754
0.051089786 -0.17798516 1.1838262 3171752
0.061405763 -0.17712145 1.1832318 3171753
0.069698393 -0.17364642 1.1827382 3237546
0.077806085 -0.17090586 1.1816761 3303592
-0.057070777 -0.16934399 1.181396 2908579
-0.048792653 -0.17109354 1.1834598 2908579
-0.038904175 -0.17210172 1.1844145 3105444
-0.030185422 -0.17345479 1.1855586 3105443
0.064409122 -0.16972354 1.1856214 3303339
0.072336718 -0.16713506 1.1842297 3303082
0.080635928 -0.16471633 1.1820812 3237545
0.08642713 -0.16149059 1.1814305 3303850
-0.066588916 -0.15847263 1.181078 3302822
-0.059796669 -0.16241781 1.1834501 3040165
-0.052512191 -0.16583124 1.1853081 3040167
0.075321816 -0.16017637 1.1853759 3303598
0.081203856 -0.15594478 1.1843275 3238061
0.089672595 -0.15356055 1.1823279 3303596
0.09725327 -0.15084851 1.1811545 3369131
-0.076825462 -0.14838588 1.1807805 3171751
-0.07024812 -0.15169103 1.1822959 3368615
-0.063193738 -0.15497322 1.1849885 3171751
0.098773248 -0.14416048 1.1824725 3369134
-0.079110026 -0.14142919 1.1805837 3369130
-0.072915755 -0.14303309 1.1836402 3434922
0.099468507 -0.13441546 1.1837518 3435183
-0.081215732 -0.13288158 1.181677 3434923
0.1019045 -0.12720424 1.1837087 3501232
0.10852123 -0.12379419 1.1830138 3435694
0.11517427 -0.12182476 1.1803818 3501232
-0.089921929 -0.12212554 1.1810303 3369646
-0.084046081 -0.12557566 1.1828034 3435182
0.11183488 -0.11437218 1.1841708 3567282
0.11591655 -0.11371728 1.1819773 3567027
-0.098864265 -0.10983738 1.1796737 3501231
-0.094114982 -0.11348395 1.1825341 3435439
0.11148484 -0.10645629 1.1839509 3829686
0.1164633 -0.10347098 1.1820985 3829431
-0.099013783 -0.10645628 1.1795797 3501231
-0.094777428 -0.10298035 1.1811581 3567024
0.11835353 -0.093989253 1.1822836 3830201
-0.099636771 -0.092368342 1.1791883 3632818
-0.096382089 -0.092889711 1.1812091 3698612
0.12000171 -0.083317786 1.181324 3896507
-0.1000604 -0.082788534 1.1789221 3633333
-0.096215487 -0.082736596 1.1817284 3764919
0.11938746 -0.07314422 1.1805408 4093886
-0.10090013 -0.074017614 1.1786774 3633334
-0.096913017 -0.072818272 1.1818525 3830201
0.11596031 -0.063645191 1.180994 4291523
-0.09694232 -0.062553868 1.180034 3896506
0.11500921 -0.053213682 1.1800809 4619975
-0.094087176 -0.052869499 1.1798184 4028348
0.10863443 -0.041998435 1.1821598 5146320
0.11315851 -0.04404835 1.1812241 4883148
-0.092784308 -0.043430727 1.17813 3962814
-0.087873019 -0.041782193 1.1806654 3963072
0.10725606 -0.033268463 1.1804149 5146577
0.11109088 -0.034777727 1.1784627 5080527
-0.091810815 -0.034317974 1.1775934 4028607
-0.085718937 -0.032241408 1.1796807 4291526
-0.035937563 -0.027998768 1.181518 5147865
-0.028481154 -0.027442321 1.1815156 5344731
-0.012230806 -0.025817022 1.1814991 5345501
-0.0054431595 -0.025516763 1.1815027 5739743
0.0048277923 -0.027332529 1.1802372 5936862
0.013873962 -0.026931368 1.1805755 5871068
0.024019986 -0.02534648 1.1815497 5739228
0.042070374 -0.023414962 1.1815279 5213656
0.10498941 -0.024484292 1.1800674 4949970
-0.084268346 -0.024781026 1.1773423 4422856
-0.076057598 -0.019602008 1.1790321 4686797
-0.065747745 -0.018012002 1.179188 4884690
-0.055300601 -0.018947378 1.1807328 4950486
-0.044820257 -0.019266427 1.1799265 5213659
-0.036203906 -0.020109378 1.1780976 5279707
-0.026003355 -0.020785041 1.1785344 5345244
-0.015919941 -0.018708192 1.1784056 5411808
-0.0060205273 -0.01939036 1.1782398 5806052
0.0034463387 -0.022124231 1.1774228 6068964
0.015489284 -0.021967903 1.1774396 6068963
0.025409792 -0.019121274 1.1783016 6003173
0.033780929 -0.017007098 1.179135 5608417
0.043970816 -0.016548976 1.1797404 5411038
0.050820522 -0.016229577 1.1813442 5279709
0.095393211 -0.012525693 1.1803964 5212630
0.10119542 -0.015910327 1.1787561 5015248
-0.072609074 -0.013819799 1.1770591 4949712
-0.06584426 -0.013520554 1.1770626 4949713
-0.055697039 -0.013071686 1.1770681 5016279
-0.046284854 -0.013031736 1.1770835 5213659
-0.037607692 -0.013400711 1.177109 5345501
0.035089117 -0.0096202865 1.1771319 5871590
0.043520212 -0.0086827204 1.1771207 5871847
0.053665355 -0.005944401 1.1790634 5543139
0.060893461 -0.0044869408 1.1793215 5280225
0.085389972 -0.0033698604 1.1810485 5411294
0.091312855 -0.004592903 1.1785464 5279196
0.062877126 0.000642851 1.1768963 5411556
0.072385862 0.0027573481 1.1768544 5412066
0.083660543 0.00325609 1.1768605 5477344
0.090525031 0.0013012588 1.1769266 5213404
0.0023521744 -0.1846998 1.189929 3105189
-0.018374559 -0.17711824 1.1906829 3039906
-0.0085894726 -0.17880929 1.1911756 3039908
0.00098377373 -0.17949465 1.1931169 3105447
0.011552952 -0.17832163 1.1905186 3105702
0.020574044 -0.17669359 1.1897391 3171750
0.029533254 -0.17588389 1.1897324 3237289
0.04090514 -0.17352051 1.1896869 3237548
0.051120862 -0.17306861 1.1896924 3171752
0.060201511 -0.17266691 1.1896971 3171752
-0.046503626 -0.16692796 1.1893507 3039909
-0.03863091 -0.16728672 1.1902636 3105701
-0.030368296 -0.16952659 1.1919974 3105443
-0.020542638 -0.17444852 1.1936061 3040163
0.010167012 -0.17217749 1.1935972 3105960
0.021506649 -0.17056054 1.1935723 3105958
0.030530322 -0.16867127 1.1927356 3237545
0.040873565 -0.16718251 1.1916173 3237547
0.050894007 -0.16644019 1.1911088 3237544
0.060938276 -0.16576615 1.191192 3237545
0.069496445 -0.16342646 1.1901243 3303339
-0.058157377 -0.1580075 1.189083 3172009
-0.049607329 -0.1607288 1.1915743 3105961
-0.040185347 -0.16248482 1.1932402 3171752
0.043870434 -0.16019239 1.1933243 3303337
0.050703757 -0.15989012 1.1933279 3303593
0.060747884 -0.1584681 1.1933061 3303594
0.069833227 -0.15548459 1.1919889 3303596
0.076587066 -0.15375227 1.1892018 3238062
-0.065911718 -0.14982405 1.1888427 3434409
-0.060102805 -0.15125269 1.191717 3237547
-0.051669069 -0.15321931 1.1929632 3237805
0.070469558 -0.14811596 1.1930363 3238318
0.079630069 -0.14480716 1.1918403 3238572
0.089738026 -0.14419208 1.1901604 3434926
0.096207879 -0.14333467 1.1889476 3369134
-0.068651401 -0.14087355 1.189821 3435179
-0.062628806 -0.14255422 1.1922039 3369388
0.083964154 -0.13788666 1.1927766 3500977
0.089426041 -0.13413167 1.1916817 3435186
0.094885029 -0.13399512 1.1886865 3500720
-0.077632807 -0.1305283 1.1892878 3566511
-0.071811646 -0.13310528 1.1910367 3566767
-0.06449379 -0.13532841 1.1924449 3500977
0.090550691 -0.12643041 1.1919706 3501234
0.098329157 -0.12371947 1.1891581 3501490
-0.087798238 -0.11782318 1.1879175 3566770
-0.080846518 -0.1220296 1.1906472 3632306
-0.074007638 -0.12662385 1.1921871 3632563
0.099743351 -0.11493645 1.1907561 3699127
0.10712685 -0.11338073 1.1886075 3633076
-0.089254186 -0.11226793 1.1887614 3566770
-0.083220452 -0.11281683 1.1917883 3763892
0.10023244 -0.10579842 1.191916 3633335
0.10681061 -0.1033796 1.1894152 3764407
-0.089834191 -0.10215724 1.1902808 3698868
-0.085469335 -0.10254299 1.1914996 3699126
0.10027329 -0.093819529 1.1915841 3962811
0.10681268 -0.093651131 1.1904238 3830969
0.11454521 -0.093605891 1.1876018 3830714
-0.091443032 -0.092318542 1.1881278 3699126
-0.086164333 -0.092561141 1.1912218 3830712
0.10707105 -0.083677657 1.1907148 4028606
0.11523589 -0.083505973 1.1873232 3962300
-0.091283403 -0.082801439 1.1885415 3830970
-0.086405292 -0.082197085 1.1909342 3962813
0.10694142 -0.074602775 1.1910634 4291522
0.11480384 -0.073943026 1.1874212 4094399
-0.092029482 -0.072756238 1.1883762 3962044
-0.087147817 -0.07277862 1.1906719 4093630
0.10804988 -0.063810125 1.1904995 4554438
0.11293069 -0.064443663 1.1867909 4357059
-0.091849156 -0.062709138 1.187717 4093886
-0.087311476 -0.061705008 1.1903647 4291009
0.10575449 -0.053378046 1.1895839 4686026
0.11178748 -0.053288013 1.1864798 4685769
-0.090557873 -0.055417765 1.1861833 4159935
-0.085674889 -0.052652359 1.1889735 4225985
0.098058172 -0.043727804 1.1901922 5015248
0.10420059 -0.044805303 1.1875652 5014991
-0.083093986 -0.042734601 1.1879635 4292037
-0.077632368 -0.04465558 1.1899093 4619977
-0.0551567 -0.036817297 1.1897316 5279449
-0.047184497 -0.036464643 1.1897359 5016538
-0.034606405 -0.037048914 1.1897742 4950743
-0.025019309 -0.038302287 1.1898257 4950488
-0.015937474 -0.037743978 1.1898261 5147351
-0.0055396371 -0.036333457 1.1898054 5278422
0.0051228586 -0.038202409 1.1889867 5212886
0.014437875 -0.037151229 1.1881125 5278423
0.024363369 -0.035860404 1.1885943 5147094
0.035270154 -0.035750352 1.1898608 4885460
0.044682935 -0.033849213 1.1890972 4950741
0.053761095 -0.032911766 1.1898147 5016279
0.096137047 -0.033992317 1.1885185 5212370
0.10358156 -0.034892756 1.1859556 5212369
-0.081321545 -0.035687935 1.1876537 4423370
-0.079390638 -0.03241669 1.1871662 4554187
-0.05491183 -0.031788293 1.1893259 5147610
-0.045092046 -0.030672319 1.1875782 5081818
-0.035894297 -0.032541554 1.1876462 5016538
-0.02481783 -0.03061039 1.1877456 5278938
-0.015747219 -0.029602312 1.1877335 5344730
-0.0052465592 -0.030046418 1.1866972 5673948
0.0050709681 -0.031860851 1.1856985 5805277
0.01415161 -0.03145916 1.1857034 5541848
0.024317157 -0.029872596 1.1856773 5475544
0.03443253 -0.027151428 1.1856196 5213397
0.045103356 -0.027283184 1.1863482 5082070
0.054747529 -0.026027352 1.1880251 5016536
0.063578658 -0.023417242 1.1895689 5213915
0.074273586 -0.021966428 1.1895474 5279453
0.085227013 -0.02193816 1.1895659 5213659
0.09478689 -0.024481252 1.1880525 5212628
0.10140228 -0.024188966 1.1856552 5146833
-0.079326384 -0.026499331 1.1854018 4554443
-0.054207876 -0.023569211 1.1853647 5016281
-0.046903223 -0.024155572 1.1853938 5147611
-0.01576188 -0.023687497 1.1854355 5411294
0.054790765 -0.016019106 1.185347 5148123
0.063504681 -0.015632652 1.1855516 5213915
0.073538437 -0.015375979 1.1871018 5213917
0.084280565 -0.014818892 1.1876822 5213659
0.092358433 -0.016250372 1.1857527 5212887
0.08475852 -0.0078722537 1.1851737 5279708
0.089298844 -0.0076714158 1.1851763 5411037
-0.014890784 -0.1748029 1.1986278 3106213
-0.0091725662 -0.17454997 1.1986309 3105959
0.0021293769 -0.17470455 1.198655 3105706
0.012556658 -0.17358875 1.1986424 3105960
-0.026058724 -0.16842429 1.1984315 3105700
-0.018582545 -0.16932395 1.1992198 3105957
-0.0094286427 -0.16891903 1.1992247 3106216
0.00087579899 -0.16856061 1.2000833 3106217
0.011484791 -0.16758041 1.1999031 3171752
0.019353805 -0.16674726 1.1995561 3303337
0.030450523 -0.16363367 1.198398 3369130
0.037312381 -0.16333012 1.1984016 3369132
-0.03914471 -0.15777424 1.1984469 3171753
-0.029376863 -0.15969303 1.2009047 3171752
-0.019085186 -0.15946352 1.2029973 3172010
-0.0098539572 -0.16030964 1.2039874 3172012
0.00015468895 -0.15942955 1.2047763 3237802
0.010782499 -0.15827176 1.2042172 3303338
0.01997859 -0.15788761 1.2044228 3369133
0.03027634 -0.15724444 1.2027024 3369388
0.040388182 -0.15647979 1.2020081 3303853
0.049616612 -0.15495071 1.1999418 3369643
0.059681758 -0.15374053 1.1984106 3303851
-0.05737634 -0.14690086 1.19778 3303598
-0.049152948 -0.14932053 1.1995765 3303341
-0.04052563 -0.15059 1.2030567 3303340
-0.03113096 -0.15154026 1.2059578 3369132
-0.02288424 -0.15306228 1.2060145 3303600
0.010502156 -0.15158542 1.2060322 3303598
0.02316596 -0.15102522 1.206039 3435186
0.030649118 -0.15069419 1.2060429 3369391
0.040434785 -0.15026131 1.206048 3369392
0.050110675 -0.14693232 1.2053572 3369390
0.059629083 -0.14553569 1.2017493 3435184
0.068941414 -0.14360395 1.1979105 3369392
-0.058638506 -0.13992649 1.1983849 3369646
-0.05141966 -0.14180322 1.2032515 3303853
-0.044013955 -0.14477247 1.2057476 3173034
0.051689036 -0.13869406 1.2057474 3566773
0.05981037 -0.13704208 1.2050489 3566516
0.069534272 -0.13480505 1.2020695 3500977
0.079475284 -0.13509005 1.199378 3500975
-0.069323771 -0.12844779 1.1972477 3632562
-0.060323067 -0.13104767 1.2003368 3501236
-0.052815974 -0.13077413 1.2048997 3501494
0.071351588 -0.12554413 1.2054175 3698612
0.078930043 -0.12561013 1.2030681 3567283
0.087680392 -0.12285043 1.200303 3567283
0.094961904 -0.11954412 1.1972896 3501747
-0.07693848 -0.11913019 1.1969762 3895478
-0.071253665 -0.12135317 1.1995487 3698613
-0.062338181 -0.12180613 1.2037452 3633080
0.072498031 -0.11886331 1.2052344 3699128
0.078910418 -0.11538656 1.2051493 3830713
0.088367112 -0.11461198 1.203944 3699126
0.095136262 -0.11312193 1.197112 3633333
-0.078599393 -0.11118558 1.1967531 3961271
-0.071847096 -0.11121228 1.2017677 3896247
-0.065010212 -0.11341548 1.2048419 3764921
0.078497231 -0.10845098 1.2049564 3962300
0.089239903 -0.10547463 1.204422 3896506
0.096700311 -0.10339592 1.198846 3764920
-0.080374844 -0.10189884 1.1979933 3830712
-0.073550254 -0.10103351 1.2031499 4093627
0.091721967 -0.094490424 1.2045927 4028352
0.097092897 -0.093790337 1.1992474 3962812
-0.081230976 -0.091600254 1.1982065 3962556
-0.074760184 -0.092299692 1.203795 4028606
0.09073621 -0.084123515 1.2043037 4357317
0.097157247 -0.084137432 1.2003139 4225985
0.10239221 -0.080270462 1.1962143 4225985
-0.081137598 -0.082582079 1.1979568 4028606
-0.076378755 -0.082401305 1.2039624 4094655
0.090907723 -0.076077431 1.2040811 4554695
0.096650481 -0.07378912 1.1994261 4554182
0.10278391 -0.071853235 1.1959817 4619462
-0.08228723 -0.072015561 1.1961319 4159424
-0.074374683 -0.07050696 1.2024052 4160448
-0.068146192 -0.068584725 1.2035941 4554440
0.090777896 -0.062707633 1.2037104 4620747
0.096393213 -0.063539006 1.2014924 4686026
0.10282812 -0.064215019 1.1957703 4619977
-0.082093678 -0.062350567 1.1953938 4291265
-0.074046597 -0.061860316 1.2006464 4357573
-0.068451531 -0.061679844 1.2034022 4751563
0.0054937983 -0.055718321 1.2033669 4818903
0.013134904 -0.054611601 1.2033497 4819160
0.0885593 -0.054273102 1.2034727 4752590
0.095984459 -0.054349728 1.2012371 4817869
0.10133059 -0.056263182 1.1955472 4752076
-0.080531344 -0.052689966 1.1951288 4291778
-0.074581318 -0.051626213 1.1986902 4554440
-0.068807766 -0.053624157 1.2031784 4883149
-0.050540835 -0.045848731 1.1989934 5674209
-0.04480359 -0.045594938 1.1989965 5082331
-0.033328637 -0.047876529 1.2009473 4950745
-0.023937268 -0.04926651 1.1985347 4884953
-0.014758486 -0.048856881 1.1983393 4753366
-0.0044899788 -0.047271911 1.1995139 4884692
0.0061601652 -0.048447933 1.1987205 4884692
0.014878802 -0.047321294 1.1993598 4884692
0.025009595 -0.045613758 1.2017874 4950484
0.03598325 -0.046128545 1.2000425 4950488
0.04474134 -0.045453425 1.201033 4950489
0.055272453 -0.043510038 1.202049 5411037
0.06423372 -0.042838421 1.2031132 5542623
0.07824754 -0.040200647 1.2030647 5213404
0.086145736 -0.042733926 1.2031487 5081558
0.094549574 -0.044670731 1.2008163 5015248
-0.075765461 -0.042006545 1.1948411 4685772
-0.053582385 -0.040530767 1.1959305 5542365
-0.044612922 -0.040313035 1.1959922 4951002
-0.035809077 -0.040982835 1.194883 4884951
-0.026473241 -0.042444214 1.1949399 4753366
-0.012800071 -0.040693935 1.1949153 4950484
-0.0039241984 -0.040587652 1.1949281 5015763
0.026134357 -0.04011707 1.1949677 5015764
0.032996215 -0.03981353 1.1949714 4885461
0.044879451 -0.038306061 1.1949505 4884950
0.055608235 -0.03671594 1.1967722 5082072
0.064920075 -0.035082389 1.1996982 5542624
0.074537955 -0.035748795 1.2021345 5279197
0.084629804 -0.034130648 1.1993064 5213144
0.092050761 -0.036437567 1.1949816 5212627
0.058895588 -0.029504329 1.1947312 5016538
0.064537972 -0.027536571 1.1946867 5213917
0.073958792 -0.024638049 1.1946229 5345245
0.084400006 -0.026468866 1.1953589 5213917
0.17559531 -0.024363749 1.2027968 13158081
-0.010136712 -0.15521945 1.2100983 3303598
0.0025689555 -0.15465741 1.2101049 3303850
-0.039020948 -0.14585391 1.209788 3303853
-0.02919005 -0.14700618 1.2101945 3304111
-0.019538248 -0.14865085 1.2120057 3303857
-0.010455711 -0.14855611 1.2126641 3303856
-3.6383048e-005 -0.1481197 1.2129204 3369903
0.010296972 -0.14621741 1.2098846 3435441
0.019395391 -0.14672826 1.2099148 3435187
0.029835157 -0.14562856 1.2099026 3500978
0.040328555 -0.14488894 1.2099006 3369649
0.046956427 -0.14297612 1.2098593 3435441
-0.047513559 -0.13874847 1.2095761 3370159
-0.040934175 -0.13922867 1.209601 3370416
-0.030580921 -0.13897119 1.2118629 3436469
-0.020206867 -0.13875894 1.2146263 3502005
-0.010928318 -0.1383485 1.2146313 3501749
-0.00033615157 -0.14136487 1.2147335 3501493
0.0099332733 -0.13731031 1.2133887 3567542
0.019221682 -0.13698596 1.2143339 3567541
0.029620102 -0.13641781 1.2131485 3633333
0.0399535 -0.1357317 1.210584 3567541
0.048511125 -0.13464905 1.2096312 3633079
0.058442079 -0.13202313 1.2095759 3632566
-0.048273012 -0.13029829 1.2093407 3501750
-0.041415349 -0.1301965 1.2118509 3567798
-0.03300631 -0.13030009 1.2143695 3633848
-0.019303398 -0.13291079 1.2144659 3633591
-0.012344481 -0.13260296 1.2144696 3699128
0.0096407933 -0.13046877 1.214449 3830714
0.020079158 -0.13000703 1.2144547 3764921
0.029526632 -0.12863867 1.2144333 3830712
0.040032819 -0.12726867 1.2140565 3830713
0.048722215 -0.12659256 1.2137433 3830458
0.059032872 -0.12592469 1.2117773 3764409
0.067084916 -0.12408233 1.2099268 3764407
-0.057762429 -0.11984344 1.2090343 3698874
-0.051127195 -0.12017222 1.211306 3764923
-0.042551093 -0.12040947 1.2140787 3765435
-0.035950996 -0.12435408 1.2141995 3699641
0.057607666 -0.12021543 1.2142493 3896252
0.067534 -0.11537777 1.2115126 3831226
0.074858978 -0.11443957 1.2091175 3830458
-0.060818896 -0.11050604 1.20956 3896508
-0.051695123 -0.10994922 1.2137728 4028352
-0.043777607 -0.11029596 1.2137963 4094143
0.068367988 -0.10545525 1.2102863 4159936
0.077630222 -0.10382798 1.2088283 4028352
0.085597478 -0.10210656 1.2087946 3962559
-0.069236554 -0.10114688 1.2084961 4093628
-0.062338941 -0.10088525 1.2092513 4028352
-0.05209218 -0.10065673 1.2132019 4094401
-0.045450106 -0.098753542 1.2134734 4225986
0.069423378 -0.096167065 1.2122394 4357317
0.077643611 -0.09480723 1.2113919 4225732
0.086455442 -0.094028324 1.2085723 4159938
-0.070656955 -0.091458902 1.2082251 4028609
-0.062483862 -0.091132089 1.2095946 3963330
-0.053162619 -0.090676233 1.2132361 4160708
-0.046613798 -0.093461476 1.2133248 4292035
0.071431309 -0.082431436 1.2132264 4620236
0.077001117 -0.084956788 1.2119168 4488649
0.085500322 -0.085313924 1.2083292 4357318
-0.072264262 -0.081283391 1.2079403 4160449
-0.063669533 -0.08097811 1.2116441 4160708
-0.054389127 -0.080562726 1.2129537 4489161
0.077698983 -0.075635031 1.2119774 4555212
0.085923746 -0.074153587 1.2080207 4620489
-0.16472954 -0.076615267 1.2126505 14082013
-0.071214981 -0.073855005 1.2077364 4226242
-0.063224599 -0.071141228 1.2101761 4620234
-0.056229949 -0.068717979 1.2126223 5079759
-0.02222571 -0.06682656 1.2126296 6791922
-0.014158251 -0.065308049 1.2126017 5608162
-0.0037198886 -0.0648463 1.2126071 5016279
0.0064839497 -0.066466905 1.2113059 5608413
0.014862835 -0.064605094 1.2126331 4950485
0.021796111 -0.063717574 1.2126207 5016277
0.079940826 -0.064630412 1.2127482 4752847
0.085844867 -0.064470157 1.2095176 4620747
-0.064288504 -0.062315848 1.2084291 4948687
-0.053694598 -0.064733692 1.2125163 5408980
-0.032285161 -0.060705151 1.2105185 6134248
-0.023653885 -0.059863072 1.2099332 5344990
-0.01471993 -0.059642617 1.2103 4884696
-0.0035604537 -0.059190087 1.2103912 4818902
0.0069500343 -0.060062554 1.2074914 4818646
0.016020957 -0.058557115 1.2081802 4818646
0.026099365 -0.057642531 1.2092087 4884696
0.036154427 -0.056702297 1.209236 5344733
0.04539606 -0.056284353 1.2088834 5936870
0.055084012 -0.055257067 1.2116112 5608416
0.064128794 -0.053945798 1.2124243 5082072
0.076955572 -0.054236658 1.2094537 5016278
0.08336401 -0.055525441 1.2075 4884178
-0.033110835 -0.054430678 1.207265 5082331
-0.004234314 -0.053153299 1.2072804 4687574
0.018866904 -0.052131396 1.2072926 4687574
0.026758147 -0.051121246 1.2072785 4819159
0.033882696 -0.051467162 1.2073005 4950233
0.046588361 -0.050905112 1.2073073 5542369
0.055258766 -0.049236156 1.2072763 5805540
0.067996331 -0.046487484 1.2072225 5213659
0.075311713 -0.046163887 1.2072264 5147866
0.084252276 -0.047696512 1.2072846 5081557
-0.00052772462 -0.13708071 1.2186159 3633335
-0.028499177 -0.12772304 1.2183075 3699641
-0.020962479 -0.12783837 1.2183239 3765177
-0.011250062 -0.12753788 1.2199804 3830714
-0.00093062688 -0.12800413 1.2212448 3962299
0.0094368737 -0.12503676 1.2189666 4028092
0.018282726 -0.12544857 1.2186124 3962300
0.027770625 -0.12465423 1.2190489 3962299
0.037260745 -0.12288985 1.2205122 3962299
0.049609601 -0.1213436 1.2182679 3896509
0.059363469 -0.12044594 1.2182602 3830714
-0.038689561 -0.11779069 1.2180144 3962813
-0.032063439 -0.11917917 1.2198429 3962813
-0.021070698 -0.11984775 1.222104 4028350
-0.011743564 -0.12156108 1.2221677 4093886
-0.0047389865 -0.12125123 1.2221715 4093886
0.0091153542 -0.11713059 1.2220817 4291263
0.018454792 -0.11671745 1.2220865 4291265
0.027794227 -0.11630431 1.2220916 4291265
0.038301095 -0.11583953 1.2220972 4225471
0.048695654 -0.11519805 1.2195966 4159424
0.057942659 -0.11468153 1.2180979 4028351
-0.040264674 -0.10853676 1.2177552 4159681
-0.034661986 -0.10996102 1.2207147 4159937
0.0087541174 -0.10896172 1.2218547 4685507
0.018285759 -0.10760467 1.2218338 4685766
0.027158221 -0.10721219 1.2218385 4685768
0.03917589 -0.10676561 1.2218472 4685254
0.048383564 -0.10602254 1.2215927 4553924
0.057543121 -0.10539104 1.2180899 4357059
0.063246414 -0.1027924 1.2177778 4291524
-0.041595407 -0.10064913 1.2178677 4291267
-0.035859212 -0.099430814 1.2207118 4291525
0.018951355 -0.10149505 1.2216656 5080013
0.025955932 -0.1011852 1.2216693 5013964
0.040926099 -0.095845923 1.2215477 5014215
0.04793068 -0.095536068 1.2215514 4948424
0.057228468 -0.095077239 1.2207547 4686025
0.064816572 -0.094185278 1.2191427 4554696
-0.049335912 -0.0879599 1.217169 4423366
-0.04371886 -0.089819454 1.2190979 4489158
-0.037601329 -0.092304073 1.2213117 4554697
0.040461648 -0.085343093 1.2212559 6725605
0.047710039 -0.085256308 1.2212662 5541334
0.056805663 -0.084620103 1.2212646 4949456
0.066833228 -0.085378952 1.2197788 4752076
-0.050911024 -0.078705952 1.2169099 4751821
-0.045126997 -0.079721898 1.2196159 4817612
-0.019644922 -0.075140059 1.2208675 6133729
-0.017310062 -0.075036779 1.2208688 5804510
0.0072403648 -0.074730277 1.2209034 6726116
0.015377969 -0.0735908 1.2208861 6791913
0.028219696 -0.073022731 1.2208929 5673696
0.037048172 -0.075750232 1.2209841 5344728
0.048220821 -0.07564576 1.2210008 5475805
0.056392826 -0.075284258 1.2210051 5147095
0.066826336 -0.074776009 1.2198088 4949712
0.075265005 -0.071376264 1.2169284 4621777
0.18348785 -0.066154301 1.2209754 11781308
-0.053495452 -0.072993018 1.216747 4883150
-0.044660076 -0.070659764 1.2166978 6001884
-0.033868171 -0.068628438 1.2166605 6133474
-0.022129683 -0.070962444 1.2183465 6067939
-0.014319658 -0.069921002 1.2178221 6594284
-0.0033617802 -0.06816487 1.2177926 6002915
0.007742017 -0.070983395 1.2167989 6857704
0.016662568 -0.068553239 1.2174141 6397928
0.0258181 -0.067450732 1.2186002 6397674
