# .PCD v0.7 - Point Cloud Data file format
VERSION 0.7
FIELDS x y z rgba
SIZE 4 4 4 4
TYPE F F F U
COUNT 1 1 1 1
WIDTH 174
HEIGHT 1
VIEWPOINT 0 0 0 1 0 0 0
POINTS 174
DATA ascii
-0.39882994 0.071920849 1.1026894 5134174
-0.3919552 0.071592718 1.1035099 5134176
-0.40016621 0.076428771 1.1025305 4871515
-0.40440038 0.053075321 1.1090721 4936281
-0.39374563 0.05250968 1.1103438 5199967
-0.38898346 0.053411826 1.1109123 5397348
-0.41361958 0.05816213 1.1076702 4673880
-0.40574983 0.059075408 1.1066786 4870232
-0.39651996 0.060916856 1.1085029 5068382
-0.3870776 0.063098803 1.1101795 5068384
-0.37983048 0.066065937 1.1120062 4476504
-0.41558373 0.067383438 1.1060604 4607822
-0.40852511 0.068711311 1.1055602 4673623
-0.39766037 0.070006773 1.1068572 5134174
-0.38764217 0.072815225 1.1080532 4739419
-0.38014418 0.074019313 1.1102432 4081746
-0.41749966 0.075581819 1.107511 4410445
-0.40918931 0.078182399 1.105482 4213839
-0.39921641 0.080593042 1.1066726 4345429
-0.38930565 0.082050219 1.1078557 4016211
-0.38143048 0.083215497 1.1099578 3621193
-0.40958849 0.08364439 1.105435 3884109
-0.40060338 0.086345643 1.1065078 3752784
-0.3904146 0.088206902 1.1077241 3621192
-0.38309762 0.088483669 1.1085974 3686459
-0.41159862 0.039549656 1.118714 4673626
-0.40316427 0.040155627 1.1168603 4870741
-0.39403126 0.040702201 1.1181363 5265754
-0.38436171 0.043265335 1.1195599 5397604
-0.37687826 0.047534801 1.1234345 4608350
-0.41375223 0.048228763 1.1145015 4673629
-0.40504277 0.048262872 1.113359 4870744
-0.39646795 0.048283815 1.1140467 5134174
-0.38486192 0.052528828 1.1160892 5397606
-0.3774094 0.05483254 1.1211747 4476760
-0.37229571 0.059964955 1.1239829 4015442
-0.42257595 0.055073597 1.1179811 3883351
-0.41856301 0.055731051 1.1132231 4475995
-0.3850733 0.059111908 1.1154079 5068641
-0.37695155 0.0639401 1.1184452 4082513
-0.37186915 0.066165596 1.123531 3752531
-0.42142618 0.065332599 1.111674 4079443
-0.37660867 0.073261105 1.1179305 3621705
-0.37212899 0.071766332 1.1215872 3751503
-0.37937894 0.080418535 1.1160901 3490378
-0.39839536 0.023699688 1.1319417 5002588
-0.39526892 0.02427082 1.1323149 5528419
-0.41051817 0.031241802 1.1304955 4739163
-0.40257338 0.02970971 1.1284783 5002333
-0.39323202 0.031104041 1.1295376 5397092
-0.3847518 0.034744523 1.1319169 5332066
-0.37925398 0.036953069 1.1342279 4740695
-0.41199523 0.034903854 1.1250324 4082256
-0.40478998 0.035010241 1.12413 5068120
-0.38273421 0.039621748 1.1287773 5200736
-0.37555733 0.044395998 1.131786 4345175
-0.36923784 0.047562562 1.1348491 4278096
-0.37422702 0.05421067 1.1286434 4147028
-0.36992052 0.054607488 1.1332705 3819087
-0.37099752 0.061979316 1.129375 3687502
-0.39056209 0.013246765 1.1439536 5528423
-0.38644803 0.014545674 1.1444448 5397348
-0.40140232 0.019147286 1.1372892 4804702
-0.39203027 0.020638576 1.1378242 5462626
-0.38325897 0.0229476 1.1414694 5003105
-0.37609354 0.02788735 1.1432651 4804440
-0.41229981 0.027416108 1.1373322 3817824
-0.40533164 0.024798932 1.1341352 4673622
-0.38965765 0.027662219 1.1360064 5660265
-0.38271385 0.030511757 1.1368355 5069150
-0.374621 0.034892991 1.1398162 4475986
-0.37006271 0.040085226 1.1403608 4014924
-0.37274444 0.04162167 1.1380267 4606547
-0.36763108 0.045039341 1.139141 3620428
-0.39657953 0.0053587519 1.1502842 4079956
-0.38968173 0.0055679306 1.1488055 5266270
-0.38430625 0.0070500504 1.1517493 5002845
-0.40024748 0.010916313 1.1478328 4079963
-0.39211163 0.0097200442 1.1467896 5330781
-0.38241592 0.01378498 1.149606 5002331
-0.3800602 0.020263525 1.1482291 5001816
-0.37662816 0.023814293 1.1498477 4540755
-0.37334156 0.031369507 1.1490324 4213074
-0.39023453 -0.0040528215 1.1631256 5265766
-0.39195439 0.00012208335 1.1600434 5068639
-0.38368529 0.0033058599 1.1605512 4214103
-0.40044698 0.0048390813 1.1538509 1580089
-0.38014841 0.010421878 1.1569457 4145996
-0.37841886 0.016600708 1.1564815 4212054
-0.39668056 -0.0062353071 1.1653773 3618132
-0.39112172 -0.0063358452 1.1660407 5199718
-0.38487923 -0.0040794704 1.1667861 4214875
-0.37767661 -0.063287959 1.1837528 528927
-0.37255463 -0.063031204 1.1843641 1517876
-0.37308419 -0.072931617 1.196385 4419983
-0.38883463 -0.068915807 1.1924913 1651559
-0.38327599 -0.067187086 1.1899898 1782104
-0.3707515 -0.067498013 1.1893626 4154236
-0.36676937 -0.063226305 1.193687 3028033
-0.38226905 -0.059748948 1.1952902 2369321
-0.3741844 -0.058452778 1.1926298 2040105
-0.38511127 -0.040851608 1.1909246 4146252
-0.3888537 -0.073709995 1.2025595 5077683
-0.38157809 -0.075033024 1.2020849 4617364
-0.37230158 -0.073722027 1.2031922 4549258
-0.36776507 -0.067471661 1.2010489 6582660
-0.39141768 -0.062616542 1.1982263 7695014
-0.3846395 -0.057563886 1.1997073 2040625
-0.37686104 -0.054910608 1.1999646 2172202
-0.36936522 -0.05858805 1.2008588 2760198
-0.38231966 -0.084286302 1.2113949 4683677
-0.37675071 -0.083268985 1.2120597 3831442
-0.39085859 -0.078867182 1.2092254 3299734
-0.38341385 -0.079781301 1.2087014 4683420
-0.37506163 -0.078744933 1.2106506 3960460
-0.37768978 -0.15718155 1.2250316 3829135
-0.36983258 -0.15525647 1.2259697 4223637
-0.36367032 -0.15458705 1.2267053 3960467
-0.38014874 -0.14809908 1.2247392 3498881
-0.37195021 -0.14614478 1.2253151 3895695
-0.36456174 -0.14343348 1.2266002 3631246
-0.38166583 -0.13707115 1.2215381 3499128
-0.37444365 -0.136567 1.2224002 4025235
-0.36623171 -0.13405655 1.225251 3499655
-0.38249761 -0.12773308 1.2194257 3826560
-0.37596473 -0.1265749 1.2207091 4156303
-0.36838001 -0.12569419 1.2241322 3630985
-0.38430414 -0.11832795 1.2222323 3893387
-0.37772962 -0.11684103 1.2214507 4157333
-0.37087971 -0.11503292 1.2243387 3762828
-0.38438472 -0.10968314 1.2242379 3762325
-0.37883782 -0.10613929 1.2212077 4420507
-0.37301111 -0.10519498 1.2242532 3828877
-0.38796148 -0.096282266 1.2238125 4222878
-0.38017887 -0.09680856 1.2209816 4552347
-0.37440288 -0.096113153 1.2246251 3631755
-0.3904098 -0.088807464 1.2178813 3627913
-0.38141423 -0.088950843 1.2168736 4683676
-0.37499404 -0.086406134 1.2206005 3892613
-0.37507612 -0.078472614 1.2172956 3563127
-0.37816021 -0.16715227 1.2304416 3033484
-0.37012854 -0.16664138 1.2338122 2897991
-0.36037081 -0.1640535 1.2344835 3891064
-0.35332772 -0.16196461 1.2370028 2638186
-0.38353798 -0.15892509 1.2283618 666715
-0.37248927 -0.1591897 1.2296807 4813457
-0.35973895 -0.15386412 1.2312031 3499654
-0.35318741 -0.15246958 1.2356956 3561592
-0.38620332 -0.14782923 1.228045 6722
-0.36155787 -0.14450213 1.2309871 3694979
-0.35542139 -0.14308196 1.2337338 3233144
-0.36186171 -0.13398211 1.2309519 3104639
-0.3576659 -0.13313636 1.2346573 2640231
-0.36426076 -0.12454985 1.2306666 2907007
-0.36051905 -0.12389544 1.2356911 3099492
-0.38834721 -0.11649426 1.2277926 4089741
-0.36639136 -0.11518993 1.2307731 3496061
-0.36292672 -0.11331957 1.2358626 4278874
-0.38752237 -0.10811816 1.227892 2972810
-0.36899081 -0.10512429 1.2314775 3757171
-0.36550131 -0.10553059 1.2355562 3748927
-0.38741735 -0.10222368 1.2279052 3630740
-0.36954859 -0.0977844 1.2300385 3953004
-0.3702592 -0.17289902 1.2390091 984897
-0.36070549 -0.16720788 1.2401501 4350584
-0.35497695 -0.14175083 1.241508 4674411
-0.35682404 -0.13337974 1.2436385 6974583
-0.36050242 -0.12277879 1.2432007 3815753
-0.39309865 -0.11788271 1.2362891 5799072
-0.36102879 -0.11320804 1.2401175 5064001
-0.35526899 -0.14761451 1.2538934 7039097
-0.35668072 -0.14197169 1.2547326 7565430
-0.35885495 -0.13356601 1.2541384 8223350
-0.36004245 -0.12548187 1.2492979 9076613
