# .PCD v0.7 - Point Cloud Data file format
VERSION 0.7
FIELDS x y z rgba
SIZE 4 4 4 4
TYPE F F F U
COUNT 1 1 1 1
WIDTH 174
HEIGHT 1
VIEWPOINT 0 0 0 1 0 0 0
POINTS 174
DATA ascii
-0.39244702 0.076596148 1.1048174 5134174
-0.38578871 0.076694176 1.1067408 5134176
-0.39407253 0.081005871 1.1046066 4871515
-0.39755136 0.057131335 1.1095066 4936281
-0.38722771 0.057226367 1.1124856 5199967
-0.38269964 0.058419809 1.1138595 5397348
-0.40677816 0.061645143 1.1068 4673880
-0.39894161 0.063134968 1.1071455 4870232
-0.39028859 0.065505832 1.1105241 5068382
-0.38142806 0.068237484 1.1138041 5068384
-0.37481067 0.071596026 1.1169012 4476504
-0.40913951 0.070779532 1.1052287 4607822
-0.40221119 0.072603986 1.1059411 4673623
-0.39182368 0.07456667 1.1090475 5134174
-0.38236585 0.077984765 1.1119713 4739419
-0.37542859 0.079585783 1.1154029 4081746
-0.41186947 0.078750141 1.106645 4410445
-0.40355816 0.082001247 1.1061018 4213839
-0.39411438 0.085020117 1.1089981 4345429
-0.38465947 0.087084979 1.1118419 4016211
-0.37733397 0.088677041 1.1152475 3621193
-0.40435052 0.087419666 1.10619 3884109
-0.39588159 0.090667076 1.1088189 3752784
-0.38618854 0.093151808 1.1117558 3621192
-0.37914854 0.093879983 1.113826 3686459
-0.40517837 0.042700753 1.1173368 4673626
-0.39662457 0.043964066 1.1169138 4870741
-0.3878822 0.045064427 1.1196884 5265754
-0.37878579 0.04820352 1.1227703 5397604
-0.37236229 0.052777067 1.1279727 4608350
-0.40726712 0.051407568 1.1131488 4673629
-0.39851439 0.05208528 1.1134511 4870744
-0.39018756 0.052652471 1.1155351 5134174
-0.37941024 0.05756864 1.1196061 5397606
-0.37306538 0.060122728 1.1259249 4476760
-0.36886692 0.065447532 1.1297194 4015442
-0.41702089 0.057464577 1.1153835 3883351
-0.41235524 0.058620505 1.1113749 4475995
-0.37999934 0.064147577 1.1191409 5068641
-0.37285453 0.069361456 1.1236427 4082513
-0.36883652 0.071677402 1.1295707 3752531
-0.41563946 0.068070129 1.10973 4079443
-0.37312901 0.07869827 1.1235328 3621705
-0.36919701 0.077335015 1.1278168 3751503
-0.37609279 0.085732557 1.1215265 3490378
-0.39313051 0.027159696 1.1319602 5002588
-0.39015618 0.02792214 1.1328614 5528419
-0.40539083 0.033926241 1.128824 4739163
-0.3971332 0.033033684 1.1280813 5002333
-0.38821408 0.035003409 1.1307074 5397092
-0.38052216 0.03908965 1.134576 5332066
-0.37564775 0.041550629 1.137836 4740695
-0.4062387 0.037739381 1.1233305 4082256
-0.39901036 0.038375877 1.1236255 5068120
-0.37839505 0.04423783 1.1319902 5200736
-0.37217158 0.049335495 1.1363071 4345175
-0.36668086 0.052770421 1.1404783 4278096
-0.37108833 0.059357777 1.1337864 4147028
-0.36762387 0.059821047 1.139068 3819087
-0.36860669 0.067282557 1.1353213 3687502
-0.38657427 0.016692774 1.1447026 5528423
-0.38270119 0.018241534 1.1459086 5397348
-0.39661065 0.022161821 1.1365724 4804702
-0.38758424 0.024255535 1.1386902 5462626
-0.37971026 0.026973514 1.1438056 5003105
-0.37331527 0.032293834 1.1469311 4804440
-0.40795875 0.029663542 1.1351315 3817824
-0.40039167 0.027680552 1.1330261 4673622
-0.38548025 0.03150297 1.1375442 5660265
-0.37899217 0.034771942 1.1396037 5069150
-0.37183344 0.039541185 1.1440288 4475986
-0.3678219 0.044997267 1.1455028 4014924
-0.37020025 0.046459779 1.1428186 4606547
-0.36560181 0.050157465 1.1448801 3620428
-0.39292675 0.0081199352 1.1496683 4079956
-0.38591596 0.0088658873 1.1493489 5266270
-0.38120955 0.010564165 1.153186 5002845
-0.39655653 0.01352868 1.1468542 4079963
-0.38829255 0.012936698 1.1471152 5330781
-0.37950638 0.017506981 1.1516294 5002331
-0.37744933 0.024188785 1.1508955 5001816
-0.37459666 0.027881147 1.1531835 4540755
-0.37179402 0.035671726 1.1531948 4213074
-0.38804626 -0.0014498308 1.1630229 5265766
-0.38955429 0.0027431212 1.1598554 5068639
-0.38173509 0.0064502489 1.1618276 4214103
-0.39726791 0.0071686208 1.1525316 1580089
-0.37820467 0.013954656 1.1591135 4145996
-0.37688836 0.020251429 1.1591654 4212054
-0.39458969 -0.0041690338 1.1641061 3618132
-0.38921809 -0.0039255563 1.1656675 5199718
-0.38336256 -0.0012910496 1.1675079 4214875
-0.37459025 -0.06062682 1.1832465 528927
-0.36966687 -0.060054287 1.184698 1517876
-0.37138364 -0.070536219 1.196099 4419983
-0.38655767 -0.067410871 1.1898264 1651559
-0.38081354 -0.065191783 1.1883347 1782104
-0.36836335 -0.06462495 1.1897576 4154236
-0.36545819 -0.060307495 1.1948295 3028033
-0.38122943 -0.057966985 1.1939971 2369321
-0.37294149 -0.056000568 1.1927469 2040105
-0.38473287 -0.039116383 1.1899196 4146252
-0.38783848 -0.072675504 1.1995729 5077683
-0.38050321 -0.073479377 1.2002491 4617364
-0.37164941 -0.071599402 1.202909 4549258
-0.36730585 -0.064960629 1.2017683 6582660
-0.39049169 -0.061584592 1.1952872 7695014
-0.38443565 -0.05616276 1.198043 2040625
-0.37701949 -0.053005368 1.1996685 2172202
-0.36951217 -0.056206673 1.2016439 2760198
-0.38204083 -0.083199948 1.2089666 4683677
-0.37674284 -0.081841856 1.2105719 3831442
-0.39049944 -0.078271955 1.2056268 3299734
-0.38302019 -0.078654505 1.2062969 4683420
-0.375191 -0.077151291 1.2096251 3960460
-0.37424487 -0.15618843 1.2205 3829135
-0.36680648 -0.15378425 1.2227827 4223637
-0.36091003 -0.15273619 1.2245424 3960467
-0.37729478 -0.14728941 1.2201412 3498881
-0.36946434 -0.14481556 1.222124 3895695
-0.36260164 -0.14167628 1.2247009 3631246
-0.37909484 -0.13624765 1.2171406 3499128
-0.37216327 -0.13529874 1.2191924 4025235
-0.36472702 -0.1323795 1.2234404 3499655
-0.38026962 -0.12689614 1.2152636 3826560
-0.37413296 -0.12536237 1.2176418 4156303
-0.36728457 -0.12413725 1.2222917 3630985
-0.38319993 -0.11778098 1.2180787 3893387
-0.37671462 -0.11581716 1.2184401 4157333
-0.37057245 -0.11369169 1.2224758 3762828
-0.38424608 -0.10926821 1.2203591 3762325
-0.37856379 -0.10521556 1.2184107 4420507
-0.37338954 -0.10402764 1.2224023 3828877
-0.38869649 -0.096134819 1.2198441 4222878
-0.38054261 -0.09599676 1.2183095 4552347
-0.37549597 -0.095089175 1.2228734 3631755
-0.39070916 -0.088565163 1.2138696 3627913
-0.38168332 -0.088051498 1.2143452 4683676
-0.37615389 -0.085261472 1.2191645 3892613
-0.37629437 -0.077201463 1.2161834 3563127
-0.3748349 -0.16641751 1.2253909 3033484
-0.36751068 -0.16552821 1.2300487 2897991
-0.3582083 -0.16232218 1.2324042 3891064
-0.35183766 -0.15988606 1.2361186 2638186
-0.38040614 -0.15848184 1.2227607 666715
-0.36972481 -0.15806247 1.2258617 4813457
-0.35781822 -0.15196702 1.229647 3499654
-0.35219696 -0.15035129 1.2352004 3561592
-0.38380527 -0.14758916 1.2224176 6722
-0.3602713 -0.14274989 1.2294786 3694979
-0.35477966 -0.1410524 1.2332441 3233144
-0.36134875 -0.13228501 1.2297794 3104639
-0.35787839 -0.13133737 1.2341506 2640231
-0.36436689 -0.12303371 1.2294502 2907007
-0.36154133 -0.12237107 1.2350404 3099492
-0.38820994 -0.1164951 1.2229646 4089741
-0.36717841 -0.11385524 1.2295487 3496061
-0.36472666 -0.11200272 1.2352022 4278874
-0.38803843 -0.10809698 1.2235044 2972810
-0.37060019 -0.10403401 1.2301856 3757171
-0.36779168 -0.10439985 1.2347634 3748927
-0.38837647 -0.10221639 1.2237504 3630740
-0.3714647 -0.096687742 1.2289443 3953004
-0.36800876 -0.17202376 1.2349212 984897
-0.35921401 -0.16576165 1.23782 4350584
-0.35569191 -0.14007087 1.2410295 4674411
-0.35847625 -0.13195631 1.2431334 6974583
-0.36281604 -0.12161943 1.242487 3815753
-0.39414927 -0.11860976 1.230511 5799072
-0.3635515 -0.11196857 1.2397118 5064001
-0.35753438 -0.14653154 1.2529764 7039097
-0.35947928 -0.14104411 1.2537789 7565430
-0.36214995 -0.13278572 1.2531445 8223350
-0.36314258 -0.12457623 1.248474 9076613
