# .PCD v0.7 - Point Cloud Data file format
VERSION 0.7
FIELDS x y z rgba
SIZE 4 4 4 4
TYPE F F F U
COUNT 1 1 1 1
WIDTH 1129
HEIGHT 1
VIEWPOINT 0 0 0 1 0 0 0
POINTS 1129
DATA ascii
-0.12799525 -0.049146529 1.1126529 3434161
0.15158141 -0.052213006 1.1105053 3893939
0.1586616 -0.052755263 1.1096176 8428221
-0.12812664 -0.039108764 1.1162094 6194370
-0.12355005 -0.037041675 1.1170068 4421311
0.14956167 -0.040366869 1.1125624 5734064
0.15584798 -0.044089384 1.1135824 10203587
-0.12216338 -0.030385956 1.1169786 6852289
0.14809826 -0.034436997 1.1104614 8955077
0.018846223 0.096216999 1.1150321 9737616
-0.088288344 -0.20597352 1.1251904 7635861
-0.084875092 -0.20648895 1.1278161 8100012
-0.098433904 -0.19596717 1.1279652 10535920
-0.091457397 -0.19870427 1.125531 5996227
-0.084846288 -0.20289859 1.1278098 6394567
-0.10845221 -0.18486521 1.1200693 8431615
-0.10143895 -0.18736076 1.1227566 1526185
-0.095225252 -0.1897966 1.1267725 1262491
0.12853174 -0.1888165 1.1251619 11717846
-0.11693885 -0.17624049 1.1201591 7571711
-0.10995454 -0.17856307 1.1216328 1917611
-0.1029508 -0.18113387 1.1253291 2379673
-0.096184798 -0.18413633 1.1279178 2644619
0.13017677 -0.18195632 1.1251302 5010097
0.13746589 -0.17905556 1.1218926 10599906
0.14456758 -0.17790368 1.120946 14081762
-0.10991637 -0.16972771 1.1242727 2709143
0.13130464 -0.17136461 1.1250985 2909858
0.1379115 -0.17094943 1.1211981 4026283
0.1454618 -0.17120902 1.1174235 12307424
-0.11677583 -0.15592022 1.120123 2775446
-0.11239129 -0.16016422 1.1229856 2775442
0.13924433 -0.1620107 1.121985 3105445
0.1441341 -0.16122773 1.1169231 2578854
-0.11872404 -0.14870101 1.1222889 2775449
-0.11447149 -0.15113313 1.1267539 2906778
0.14167021 -0.15222675 1.1233388 3564451
0.14498203 -0.15128256 1.1192962 3433893
-0.12249321 -0.13999018 1.123461 2840984
0.14325215 -0.14405257 1.1249058 3565217
0.1469852 -0.14197516 1.1195226 3499430
-0.12724683 -0.1280275 1.120205 2841497
-0.12420421 -0.12981948 1.1261712 2907290
0.14937522 -0.13136724 1.121809 3237547
-0.12733109 -0.11856714 1.1217904 2973083
-0.12454801 -0.11906402 1.1261574 3038877
0.15255988 -0.12170427 1.1229355 3827369
0.15515424 -0.12067322 1.1167196 3564710
-0.12829354 -0.10858771 1.1230427 3039391
-0.12562196 -0.11051678 1.1268229 3170977
0.15290737 -0.1116185 1.1227325 3565735
0.15522289 -0.11211732 1.1167043 3500198
-0.12832768 -0.10039123 1.1251724 3170977
0.15323912 -0.10260335 1.1220466 3631790
0.15434214 -0.10428627 1.1247027 3434923
-0.12841029 -0.089838445 1.1241556 3302823
0.15299688 -0.091148056 1.122197 3566513
-0.12831546 -0.079839468 1.1228043 3368614
0.15216674 -0.081884459 1.1222302 3632560
-0.12773351 -0.072135247 1.1241177 3565995
0.15103436 -0.071708716 1.1209551 3895728
-0.12465792 -0.057107639 1.1256548 3697842
0.14875779 -0.061734982 1.1194997 4158132
-0.12294459 -0.048819121 1.1243833 3502262
0.14772722 -0.051055659 1.1206945 4027837
-0.12023001 -0.039326999 1.1237482 3698611
0.14301331 -0.039564572 1.1247336 4619197
0.14872579 -0.04272024 1.1191297 4946612
-0.1264832 -0.032843105 1.1200361 7180220
-0.11878342 -0.02989389 1.1271371 4815032
0.14297205 -0.033083316 1.1240565 5209534
0.14762034 -0.031381018 1.1166625 8425655
0.019968791 0.092186503 1.1180253 9474444
-0.061335996 -0.21653122 1.134544 8300241
-0.079529263 -0.20819601 1.1311171 7642055
-0.072015844 -0.20891008 1.1331625 4815810
-0.065266423 -0.21241197 1.1345854 5210825
-0.088576578 -0.19620973 1.1308447 932767
-0.081614219 -0.19970688 1.1324493 2382238
-0.072992504 -0.202812 1.1346643 2251168
0.11053888 -0.20103686 1.1324041 6518691
0.11636657 -0.20006011 1.1309022 11319227
-0.090227097 -0.18945135 1.1327205 2447513
-0.084834859 -0.19296214 1.1347935 2513045
0.11828123 -0.19185209 1.1312408 4617903
0.12528852 -0.19192995 1.1282072 10929103
-0.099600047 -0.17834926 1.1324049 2971544
-0.093711831 -0.18216102 1.1328844 2774929
0.12042049 -0.18260223 1.130585 2909086
0.12530516 -0.18169704 1.1281898 3105187
-0.10704619 -0.1651002 1.1310197 2709911
-0.1024367 -0.17019299 1.1333246 2644371
0.12690996 -0.17189291 1.1287692 3368356
-0.1093016 -0.15846357 1.1328546 2775444
-0.10435495 -0.16262561 1.1336492 2709910
0.13142067 -0.16206084 1.1296818 3368613
0.13563119 -0.15913212 1.1280251 3499683
-0.11245007 -0.14986835 1.1325607 2841497
0.13330907 -0.15461478 1.1320462 3237027
0.13802701 -0.15194786 1.1293169 3302821
-0.11829903 -0.13823178 1.1316845 2645144
-0.11479681 -0.13998181 1.1341842 2775964
0.14123665 -0.14203757 1.1301094 3237542
0.14534292 -0.13849232 1.1292044 3106215
-0.12005135 -0.12981685 1.1325752 2907291
0.1426926 -0.13249575 1.1305604 3499683
0.14579147 -0.13054264 1.1289951 3303338
-0.12094551 -0.11988178 1.133515 3039134
0.14747752 -0.1220641 1.1292291 3499947
-0.12600756 -0.10554584 1.131153 3236770
-0.12384186 -0.10984763 1.1344671 3236770
0.14929827 -0.11157018 1.1295955 3500458
-0.12595558 -0.099066056 1.1311415 3237027
-0.12418374 -0.099435113 1.1351206 3302821
0.15175514 -0.10103992 1.1300151 3632048
-0.1258776 -0.089346379 1.1311243 3302824
-0.12410984 -0.090223044 1.1351043 3302569
0.15009756 -0.092137441 1.1299168 3632047
-0.1262368 -0.080271214 1.1311135 3434408
-0.12339186 -0.077919461 1.1350749 3434665
0.14678919 -0.081064209 1.1295753 4026292
-0.12572165 -0.069907039 1.1310898 3631531
-0.1239403 -0.069089472 1.1350667 3631531
0.1469432 -0.073089309 1.1281861 4157366
-0.12566966 -0.063427255 1.1310782 4025255
-0.12245033 -0.058326215 1.133316 3632304
0.14649567 -0.061296504 1.1277274 4289211
-0.11892492 -0.049363196 1.1326861 3568048
0.14343441 -0.050502099 1.1284137 4094399
0.14574677 -0.054905776 1.1297261 4224702
-0.11758878 -0.043331634 1.1309452 3764911
-0.11408331 -0.039040498 1.1333951 3895729
0.14095518 -0.042059146 1.1292179 4487616
-0.11862079 -0.025211744 1.1339277 6458567
-0.11372317 -0.029025078 1.1332738 3895996
0.14096047 -0.031023294 1.1281447 5735616
0.14784414 -0.027826317 1.1276547 9477559
-0.11814798 -0.022530831 1.1349175 6852289
-0.1148969 -0.022556983 1.1348776 5933254
0.052574892 0.07770329 1.1286495 9474701
-0.024511874 -0.22725764 1.1461101 7248329
0.0083099809 -0.22911474 1.1449095 5801654
0.016334729 -0.22805083 1.1442755 5210039
0.029140228 -0.2287845 1.1454527 6328255
0.036806069 -0.22884616 1.1453586 7379645
0.048366647 -0.22881746 1.1452163 8430007
0.056282353 -0.22711462 1.1411158 8625323
-0.062447652 -0.21884069 1.1385618 9678537
-0.051542901 -0.21891862 1.1449547 4422071
-0.042193074 -0.21966752 1.1463149 2778029
-0.03244542 -0.22156096 1.1461982 2513574
-0.024853479 -0.22433415 1.1461093 2315684
0.0050739432 -0.22530505 1.1457429 2120102
0.017120264 -0.22540197 1.145595 2185635
0.030270491 -0.22441247 1.1454315 2186146
0.035737302 -0.22555172 1.1453662 2316696
0.05108656 -0.22348464 1.145174 4486314
0.058624949 -0.22315392 1.1430805 5997746
0.069807604 -0.22028264 1.1437954 6063288
0.078503229 -0.21888602 1.144829 6589614
0.086605348 -0.21917024 1.1447299 8757678
-0.06778919 -0.20683354 1.1386075 1855898
-0.061048493 -0.20939086 1.1417671 2249885
-0.053334594 -0.21175593 1.1457112 2381985
-0.045213718 -0.21394783 1.1463424 3039902
0.072524875 -0.21325207 1.1448932 2841504
0.078552425 -0.21275291 1.1448182 3302564
0.088119745 -0.21057662 1.1433635 4420011
0.09787491 -0.20982967 1.1388608 6984117
0.10730734 -0.20715442 1.1364546 6254993
-0.078840785 -0.1962229 1.1395257 2710418
-0.07109724 -0.19954297 1.1430172 2775447
-0.064357437 -0.20182155 1.1457574 2906776
0.090642467 -0.20270199 1.1442527 3171492
0.099129394 -0.20140146 1.1413457 3237285
0.10742353 -0.20026135 1.137013 3629215
-0.081623167 -0.18924426 1.1435485 2775191
-0.073484018 -0.19279714 1.1459879 2906012
0.1011796 -0.19220962 1.1428386 3040421
0.10809496 -0.19058819 1.1393646 3105703
0.11396322 -0.19089317 1.1363454 2777257
-0.096898712 -0.17505747 1.1389122 2710677
-0.090120353 -0.17899063 1.1423651 2709909
-0.083901666 -0.18264493 1.1447655 2709910
0.10935796 -0.18221238 1.1429143 3368100
0.11690082 -0.18044578 1.1384252 3302561
-0.098036177 -0.16849825 1.1420265 2710421
-0.093223974 -0.17138194 1.1460614 2644886
0.11149628 -0.17446434 1.1443489 3040936
0.11953798 -0.17143367 1.1421577 3237031
0.12592995 -0.16858913 1.139161 3368615
-0.10761667 -0.1553935 1.139011 2776209
-0.10216266 -0.1599105 1.1437019 2841240
0.12166432 -0.16296059 1.1442045 3237287
0.12807511 -0.16079471 1.1389787 3302822
-0.10850809 -0.14872563 1.1435446 2710683
-0.10380469 -0.15205103 1.1462924 2841499
0.13043672 -0.1523916 1.1414905 3237541
0.1353835 -0.14972308 1.1376131 3237798
-0.11056062 -0.14015204 1.1441649 2907293
0.1322237 -0.14363489 1.1440423 3237797
0.13691612 -0.14113809 1.1389799 3303334
-0.11682359 -0.128411 1.140222 2907805
-0.11456347 -0.13005471 1.1462545 2907805
0.13886313 -0.13178571 1.1414961 3434407
-0.11722923 -0.1190974 1.1417353 3039392
-0.11455456 -0.12029192 1.1470382 3039391
0.14088194 -0.12222911 1.1413282 3500202
0.14498915 -0.11935769 1.1358439 3631274
-0.1202822 -0.10990158 1.1436242 3170979
0.14294238 -0.11197414 1.1434128 3631791
0.14626807 -0.11144225 1.1375928 3566510
-0.12058876 -0.099546663 1.1447917 3105957
0.14219423 -0.10085577 1.142181 3632305
0.14735016 -0.10200476 1.1361191 3501227
-0.12091789 -0.089521915 1.142493 3237546
0.14179872 -0.091782607 1.1412919 3698099
0.1463505 -0.092207856 1.1361816 3698094
-0.12021365 -0.079778552 1.1427062 3434923
0.14311612 -0.082517974 1.1418056 3895479
0.14526835 -0.084555052 1.1357821 3895477
-0.11974319 -0.069323502 1.143302 3566256
0.14348204 -0.071215503 1.1431156 4027579
0.14593938 -0.070665292 1.1397508 4157882
-0.1186863 -0.060423095 1.1425177 3567024
0.14151272 -0.061662387 1.142614 4159422
0.14578627 -0.061851397 1.1381378 4289724
-0.11631989 -0.050608672 1.1402758 3567791
-0.1131356 -0.048690788 1.1455672 3764403
0.13986532 -0.05161386 1.1411271 4356797
-0.11139757 -0.039779719 1.1394352 3830196
0.13726825 -0.04201147 1.1402094 4619718
-0.10980847 -0.028886437 1.1417352 3896507
0.13327917 -0.030085295 1.1407275 4817095
0.13776211 -0.030704342 1.1374509 4948420
-0.11732911 -0.019649982 1.1429032 6916535
-0.10984866 -0.020241 1.1425045 5210049
0.13250992 -0.023683831 1.1428375 5013440
0.13694502 -0.023306496 1.1404488 5998788
0.032738589 0.051189624 1.1397959 5859448
0.04091331 0.051197954 1.137838 6122362
0.046510629 0.051286839 1.1407692 6319482
0.057681173 0.052470796 1.1446302 5330522
0.033337414 0.055629484 1.1382571 5792108
0.041162565 0.056410827 1.1376262 5527648
0.046545655 0.055652402 1.1407615 5067354
-0.018731162 -0.22727132 1.1490391 4354997
-0.011356006 -0.2283546 1.1509504 4684224
-0.0014750389 -0.22814232 1.1493617 4289976
0.009515116 -0.2259298 1.1486895 2054307
0.01994149 -0.22656271 1.1485623 2777510
0.025422566 -0.22770494 1.1484969 4026798
0.041892216 -0.22783741 1.1482944 5604271
0.045748346 -0.22622126 1.1482444 4881326
-0.037627418 -0.21676552 1.149254 3039902
-0.029679727 -0.21774644 1.1496578 2710943
-0.021192465 -0.21971884 1.1523614 2645152
-0.011296728 -0.22265077 1.1556072 2514339
-0.0013620025 -0.222628 1.1549516 2514851
0.0085564572 -0.22020477 1.1532921 2842787
0.018417563 -0.21986429 1.1509701 2908579
0.028097417 -0.21954632 1.1513394 3039651
0.038298909 -0.22032952 1.1523265 2908578
0.047652286 -0.21953326 1.15196 2778020
0.057668291 -0.21795639 1.1495126 2646433
0.067204408 -0.2207202 1.1479713 5012145
0.078722887 -0.222094 1.1478319 8955830
-0.050586663 -0.20824119 1.1496848 2841242
-0.040735871 -0.21038967 1.151615 2775960
-0.031714384 -0.21173412 1.1534398 2841500
-0.022278845 -0.21397564 1.1570611 2907551
0.0094207935 -0.21349347 1.1566705 3105184
0.018637042 -0.21319905 1.1565566 3170722
0.028587397 -0.21327907 1.1564343 3302053
0.038726453 -0.21280777 1.1563089 3170723
0.049237002 -0.21197087 1.1561782 3105188
0.058553655 -0.21125531 1.154348 3170467
0.068113662 -0.21112947 1.1503441 3236258
0.078262001 -0.20777223 1.1482581 3171236
-0.067114219 -0.196762 1.1495831 2906776
-0.060587943 -0.19904885 1.1506495 2907033
-0.052101135 -0.2000957 1.1542377 2841497
-0.042839747 -0.20422709 1.1572976 2775704
0.05960615 -0.20578836 1.1560403 3105443
0.068450913 -0.20585951 1.1559316 3105443
0.079259165 -0.20223072 1.1545293 3105956
0.087604642 -0.19943309 1.150885 3105956
-0.078005895 -0.18569306 1.1496985 2644884
-0.070928887 -0.18931319 1.1526177 2775705
-0.0625486 -0.19224852 1.1551864 2841497
0.082912348 -0.19491836 1.1557355 3172006
0.090576433 -0.19259949 1.1546372 3040421
0.096427232 -0.190301 1.1520612 2974628
-0.086719237 -0.17683795 1.1497908 2645144
-0.080053516 -0.17865449 1.1527709 2710425
-0.07475394 -0.18141603 1.1542231 2776216
0.099966988 -0.18168887 1.1522533 3171493
0.10492483 -0.17950365 1.1490384 3237026
-0.08966165 -0.16879186 1.1524019 2710424
-0.083261773 -0.17104581 1.1562845 2710937
0.10297272 -0.17517626 1.1554556 3302823
0.10929751 -0.1711473 1.152213 3172005
0.11510782 -0.16805473 1.1512941 3172006
-0.098275363 -0.1573447 1.1499002 2841498
-0.09384045 -0.15989229 1.1547735 2907290
0.11190619 -0.16419065 1.1553273 3303592
0.11816473 -0.16086102 1.1539114 3237544
0.12426849 -0.15657261 1.1471618 3303337
-0.099951461 -0.14887032 1.1516211 2973342
-0.095308617 -0.15201913 1.1578554 3038879
0.12186666 -0.15312557 1.1545196 3237544
0.12619576 -0.15013894 1.1499276 3303336
-0.10789277 -0.13725416 1.1509849 2973342
-0.10179787 -0.14045994 1.1554157 2973600
0.12969284 -0.14103904 1.1510695 3368872
-0.10939125 -0.12937644 1.1523432 3039392
-0.10390019 -0.13022996 1.1579245 3236259
0.13109092 -0.13160664 1.1527866 3500460
0.1354685 -0.12920949 1.1469783 3434923
-0.11040735 -0.11972401 1.1528754 3170978
0.13221559 -0.12268462 1.1536746 3500719
0.13688891 -0.12022758 1.1502794 3500718
-0.11691643 -0.10851104 1.1500475 3237029
-0.11304126 -0.10990208 1.1560028 3237286
0.13733186 -0.11136893 1.1530312 3697329
-0.11684596 -0.099726565 1.150032 3237543
-0.11419147 -0.099299356 1.1574992 3172263
0.1386169 -0.10226843 1.1524948 3697843
-0.11703458 -0.090082288 1.1530185 3303340
-0.11488947 -0.089018248 1.1579906 3303852
0.1384799 -0.091820486 1.152879 3764149
-0.11705633 -0.08032459 1.150002 3500716
-0.11422967 -0.078966513 1.1579657 3501229
0.14148721 -0.081410088 1.1513959 3764661
-0.11662573 -0.07227511 1.1499833 3566512
-0.11337369 -0.068871342 1.1543015 3632306
0.13858651 -0.071178064 1.1513135 3896764
-0.11269484 -0.059255727 1.1542771 3698357
0.13270976 -0.061086059 1.1535652 4291265
0.13646586 -0.062294919 1.1479968 4225217
-0.11101616 -0.050261743 1.1538777 3764408
0.13356104 -0.051490627 1.152872 4554434
0.13609394 -0.051247362 1.1468399 4488640
-0.10796496 -0.039572202 1.1546223 3895997
-0.10377923 -0.036400285 1.1577657 4027323
0.13324375 -0.040691655 1.1518576 4817354
-0.10638812 -0.03005676 1.1511201 3962044
-0.10233027 -0.028873697 1.1569352 4093118
0.12405318 -0.028281309 1.15495 5014224
0.12937538 -0.031063557 1.150889 4751563
-0.10522311 -0.019656651 1.1497548 4290235
-0.1002851 -0.019560128 1.1542276 4158908
-0.094043657 -0.017312303 1.157614 4028609
0.12242405 -0.021232717 1.1531804 4817874
0.12904556 -0.021010324 1.1478759 5145287
-0.09787412 -0.012935102 1.1520534 4487616
-0.092420436 -0.010308146 1.1562489 4356800
0.11366849 -0.0086473897 1.1530447 5276623
0.11993957 -0.011716478 1.1492581 5604813
0.12931572 -0.013011768 1.1477481 6720449
-0.090245984 -0.0033367053 1.1575439 5671109
0.11187159 -0.003064774 1.1544862 5802961
0.11818194 -0.0038917735 1.1503143 6787017
0.035933781 0.013340235 1.155964 12972031
-0.019258659 0.023694307 1.1546254 5869264
0.013135083 0.019789547 1.1562337 7515376
0.020625604 0.019360699 1.1561422 8764660
0.030228451 0.01884117 1.1560251 10146554
0.036853738 0.017755821 1.1559453 10870005
-0.076987796 0.032460369 1.1493201 8028800
-0.071860969 0.032785155 1.1492566 7305855
-0.014834887 0.02480612 1.1565692 5671370
-0.011518103 0.024779432 1.1565285 5869265
0.011699394 0.024592675 1.1562432 6988787
0.016121775 0.024557091 1.156189 7185904
0.10242915 0.032708801 1.1551138 6314850
-0.070600867 0.03777761 1.1492327 8028802
0.099361874 0.036271878 1.1551455 6117979
0.075391248 0.046974428 1.1474217 5593178
0.07758721 0.046956755 1.1473948 5658970
-0.016778797 -0.21697859 1.1609988 2973083
-0.011240677 -0.2181327 1.1609327 2973595
-0.0018009944 -0.21777713 1.1614827 2973598
-0.036659069 -0.20572311 1.1612245 2842012
-0.030291118 -0.20716128 1.1611485 2776219
-0.02095196 -0.20971426 1.1625619 2907806
-0.011348859 -0.21116796 1.1640805 2907807
-0.00079376251 -0.21179315 1.1641271 2973599
0.0080718882 -0.20952979 1.1613475 3039136
0.018830681 -0.20862497 1.1618804 3170723
0.028801095 -0.20858699 1.161091 3236770
0.038594682 -0.20820618 1.1603031 3170979
0.047642302 -0.2080656 1.1601917 3170980
0.05431208 -0.2064549 1.1601069 3171236
-0.047681902 -0.19675794 1.161345 2842012
-0.040973738 -0.19907501 1.162721 2842011
-0.031366173 -0.20140953 1.1636139 2842012
-0.023071621 -0.20292306 1.165053 2907805
0.023393869 -0.20468855 1.1644845 3302309
0.029400691 -0.20358214 1.1632658 3302308
0.038037747 -0.2035329 1.1618023 3171236
0.048782863 -0.2041913 1.1601712 3171236
0.059439421 -0.20290053 1.1617047 3105443
0.069268331 -0.20105791 1.1609139 3171492
0.075819902 -0.19923085 1.1598302 3040420
-0.068671569 -0.18549353 1.1615843 2841497
-0.059911706 -0.18831235 1.1620147 2907291
-0.051478744 -0.19102865 1.1632646 2907549
-0.044787943 -0.19226415 1.1653022 2907551
0.072464563 -0.19394961 1.1638629 3040420
0.079472132 -0.19216779 1.1618789 3106213
0.087287515 -0.18963297 1.1596731 3106214
-0.070098355 -0.17899151 1.1635911 2907290
-0.063516565 -0.18192129 1.1650151 2973340
0.08366815 -0.1851328 1.1637104 3302823
0.089702837 -0.18280058 1.1612321 3237030
0.095871791 -0.17944299 1.1613283 3237031
-0.087371223 -0.16537106 1.1617806 2841497
-0.078996167 -0.16891736 1.1622169 2842012
-0.072864376 -0.17119855 1.1646121 2907547
0.10110784 -0.17180181 1.1603965 3368361
0.10620647 -0.1685926 1.1594052 3237285
-0.088802963 -0.15944192 1.1617882 2973085
-0.081990927 -0.15971667 1.1644419 3039135
0.1034641 -0.1646871 1.1594324 3368615
0.11002373 -0.16140807 1.1600735 3237799
0.11461155 -0.15811941 1.1592842 3303337
-0.096095152 -0.14643839 1.1618561 2973857
-0.090675831 -0.15000938 1.1633511 3039137
-0.084720187 -0.15093388 1.165724 3104930
0.11208847 -0.1539221 1.1613084 3172264
0.11831761 -0.1510839 1.1598936 3238059
-0.097208358 -0.13822503 1.1628561 3039650
-0.093219593 -0.14184722 1.1658133 3105700
0.12165257 -0.14136408 1.1613235 3369132
0.12583911 -0.14156635 1.1591184 3434410
-0.099886902 -0.12963875 1.163589 3171236
0.12362214 -0.13325553 1.1623319 3500719
0.12699784 -0.13098061 1.1610866 3435183
-0.10695777 -0.1175025 1.1619412 3302823
-0.10229007 -0.11951499 1.164554 3171495
0.12783851 -0.12088983 1.1608775 3566514
-0.10861725 -0.1088509 1.1634017 3368873
-0.10492621 -0.11005408 1.1651039 3368875
0.13061516 -0.11172047 1.1598097 3697588
-0.10943362 -0.099775553 1.1646087 3303850
0.13229203 -0.10212918 1.1624017 3763892
0.1354803 -0.10147791 1.1589327 3698099
-0.11070845 -0.089561135 1.1635406 3435181
-0.10482787 -0.09009359 1.1658694 3435438
0.13339978 -0.092009969 1.1629426 3829942
0.13621554 -0.091488831 1.1600498 3764149
-0.10958993 -0.07989566 1.1639106 3501229
0.13350695 -0.078650415 1.1629189 3896505
0.13785255 -0.081571937 1.1606884 3830455
-0.10891829 -0.070040412 1.1634243 3632563
-0.10464031 -0.066714384 1.1658278 3567542
0.1311737 -0.071477354 1.1603639 4027837
0.1363578 -0.075077489 1.1588776 3896505
-0.10808118 -0.059988473 1.163192 3829940
-0.10458672 -0.060034603 1.1658159 3699127
0.12976459 -0.06184978 1.1616033 4291009
-0.10758784 -0.049851831 1.1626356 3895737
-0.10386255 -0.04906581 1.1657887 4027576
0.13013308 -0.051814571 1.1609153 4422849
-0.10636142 -0.043166913 1.1618092 4158911
-0.10181982 -0.039500546 1.1637473 4093372
0.1301489 -0.042070765 1.1603987 4817355
-0.098001972 -0.030132562 1.1632231 4093630
-0.093186639 -0.026725285 1.1656199 4094397
0.12279192 -0.03126201 1.1611934 5080014
0.12725274 -0.034505375 1.1589215 4883149
-0.095840827 -0.022539794 1.1616453 4028348
-0.091296464 -0.020016141 1.1630852 4028864
0.11837201 -0.021583132 1.160787 4949202
-0.087653168 -0.010451697 1.1633426 4029123
-0.083389938 -0.0082479641 1.1654685 3963586
0.11237745 -0.011668049 1.161733 5146069
0.11575086 -0.016105153 1.1590321 5080276
-0.086805381 -0.0026404262 1.1615008 5342665
-0.079617172 -0.00054183602 1.1654091 4882633
-0.016133778 0.0027158111 1.1646229 6070261
-0.009454499 0.0026620775 1.1645408 6528744
-0.0027752193 0.002608344 1.1644588 8827627
0.012809767 0.0024829805 1.1642673 10340848
0.021551341 0.0017764419 1.164161 8895736
0.029051963 0.0010162815 1.16407 6266608
0.10343037 0.0011955276 1.1621549 5475287
0.10786324 -0.0023611337 1.1604395 5475028
-0.076120742 0.0054177344 1.1633559 5999306
-0.0694516 0.0064736456 1.1632721 5540557
-0.060865395 0.0097384155 1.1624944 5803727
-0.048102096 0.011385076 1.1650015 4950220
-0.039149199 0.010188475 1.1648934 5016280
-0.029434178 0.0094984695 1.1643751 5411294
-0.019409731 0.0094010159 1.1624118 5806569
-0.0094014714 0.0093362182 1.163929 7120874
0.00019988231 0.010006867 1.1644098 12379901
0.010758521 0.0093931407 1.1617545 13891069
0.02056331 0.0090744048 1.1609607 12969723
0.030530497 0.0092328563 1.1617221 9946095
0.040604789 0.0089209452 1.1620015 10013177
0.050352771 0.010722756 1.1616378 7449069
0.057050589 0.012518518 1.1637064 5411552
0.10053249 0.0051053464 1.1606839 6526426
-0.046083361 0.016317144 1.1649684 6264275
-0.038513482 0.017055407 1.1623739 5803990
-0.028950203 0.017605908 1.1607553 5345755
-0.018933695 0.018787183 1.1606301 5412839
-0.009333034 0.019303963 1.1610112 5676266
-0.00027438439 0.0183139 1.1632588 7253489
0.0095331874 0.018050201 1.1612813 8436213
0.019481914 0.015736893 1.1601628 12051453
0.033939768 0.020058826 1.1599777 10082302
0.041773628 0.019256115 1.1598827 10607102
0.050251145 0.018342532 1.15978 7515119
0.057300776 0.017674461 1.1610278 6068200
-0.0070725819 0.024826966 1.1604741 6001365
-0.002634964 0.02479127 1.1604196 6396124
0.10990491 0.029655688 1.1590273 6447199
-0.0077733723 -0.20737368 1.1688726 3039391
-0.00020757783 -0.20685972 1.1702788 3039135
0.01121601 -0.20752643 1.1686394 3104930
-0.036726341 -0.19596902 1.1692096 2776478
-0.030332707 -0.19691263 1.1711327 2842271
-0.02041674 -0.19862808 1.1731956 2907807
-0.011198764 -0.20056076 1.1735994 2908063
-0.0011738623 -0.20148924 1.174582 2973600
0.0091486927 -0.2005906 1.1739869 3105187
0.019067965 -0.20032084 1.1729448 3236773
0.028774936 -0.19906066 1.1721427 3237029
0.039721988 -0.19923425 1.1720752 3171237
0.049337238 -0.20026544 1.1696584 3171236
0.058862686 -0.19878343 1.1689619 3105444
0.06771078 -0.19736773 1.1679275 3171493
-0.048809178 -0.18699537 1.1725434 2841758
-0.040718514 -0.18936655 1.1732479 2907551
-0.031782817 -0.19054012 1.1759638 2842271
-0.021092534 -0.19181281 1.177011 2908064
-0.014353712 -0.19299182 1.1769301 2973857
0.0070144632 -0.19316371 1.1766676 3105444
0.019893372 -0.19226749 1.1765077 3237030
0.029929884 -0.19276544 1.175585 3302823
0.039595831 -0.19206196 1.1753418 3171495
0.048962872 -0.19072872 1.1747562 3105703
0.05866769 -0.1910658 1.1744287 3105703
0.068454847 -0.19064963 1.1724074 3105702
0.076774321 -0.18821695 1.1695151 3105958
-0.060045145 -0.17920925 1.1711155 2973598
-0.052010462 -0.18098719 1.175373 2907551
-0.04210962 -0.18292657 1.1772546 2908065
0.070345499 -0.18225215 1.1758704 3237288
0.079141065 -0.18161349 1.1733165 3302823
0.087784305 -0.17964537 1.1702225 3237287
-0.069343947 -0.16786326 1.172421 3105183
-0.06186825 -0.17129207 1.1755955 2974112
-0.053562745 -0.17355487 1.1773797 2842786
0.080717549 -0.17486003 1.1757305 3171750
0.089359447 -0.1713216 1.1742848 3172008
0.097386196 -0.16963825 1.1698495 3303081
-0.077417798 -0.15811899 1.1703134 3104930
-0.071136333 -0.16048023 1.1762406 3170978
0.091931336 -0.16299525 1.1755726 3303337
0.099693544 -0.16154176 1.1732246 3368873
0.10660606 -0.16029644 1.1699326 3237543
-0.087123848 -0.14524874 1.1724112 3040164
-0.080417529 -0.14905781 1.1734581 3105701
-0.074021757 -0.15351889 1.1775978 3302822
0.10136648 -0.15253019 1.175439 3303597
0.10873516 -0.1501696 1.1709805 3238059
0.11581266 -0.14717099 1.1692519 3303852
-0.089500897 -0.13889262 1.1735411 3106213
-0.081700511 -0.14099061 1.1776712 3172007
0.10975917 -0.14110038 1.1751167 3369387
0.11765235 -0.14093119 1.171219 3435181
-0.096601814 -0.12860164 1.1711665 3237030
-0.089981154 -0.12932104 1.1754199 3237800
-0.083603211 -0.13282053 1.177681 3303594
0.111629 -0.13506593 1.1752836 3500972
0.12003223 -0.1308606 1.1719229 3500976
0.12468053 -0.12800241 1.1671106 3500977
-0.097645022 -0.11933224 1.1729417 3237545
-0.092946008 -0.12102839 1.176887 3303852
0.12193644 -0.12135133 1.1751338 3566772
0.12520677 -0.12171553 1.1710938 3566515
-0.10007755 -0.10960228 1.1730942 3369389
0.12286979 -0.11182486 1.1751063 3763639
0.12618057 -0.11092441 1.1701748 3763639
-0.10677435 -0.09571372 1.1712365 3435181
-0.10139208 -0.099439003 1.1744149 3435438
0.12360138 -0.10074346 1.1750787 3895737
0.12852304 -0.10067217 1.1698412 3764149
-0.106209 -0.089239478 1.1722854 3435438
-0.100793 -0.089907326 1.1762818 3501231
0.1236465 -0.095119834 1.1750687 3961530
0.12899333 -0.091191292 1.1698196 3961528
0.13617341 -0.087876484 1.1669019 3895735
-0.10584601 -0.079989329 1.1728655 3501489
-0.10154121 -0.079796739 1.1756948 3501490
0.12379087 -0.077124253 1.1750368 4159679
0.12940584 -0.081854403 1.170248 3962041
0.13619134 -0.085642278 1.166898 3895735
-0.10626841 -0.072646052 1.1718583 3501747
-0.10140182 -0.069490209 1.1744601 3567541
0.12309223 -0.070744783 1.1750348 4225473
0.12673226 -0.0712834 1.1709905 4159424
-0.099559546 -0.05935467 1.1733537 3764919
0.12291349 -0.061869945 1.175022 4422597
0.12681319 -0.061195165 1.1709726 4357059
-0.098990671 -0.04958665 1.1731588 3896505
-0.09418191 -0.049500488 1.1776713 3962298
0.12287375 -0.05124655 1.1750047 4685767
0.12689413 -0.051106937 1.1709547 4422851
-0.097478859 -0.040475719 1.1712962 4027836
-0.092385799 -0.038742773 1.1765401 4028094
0.12105789 -0.040641595 1.1728915 4948684
0.12688106 -0.042593323 1.1679404 4751818
-0.0957371 -0.032386407 1.1696612 4093632
-0.090066426 -0.028971717 1.1754323 4094399
0.11441994 -0.030182332 1.1750734 5080784
0.11866475 -0.031292208 1.1702226 5211343
-0.086768739 -0.02055797 1.173895 4094402
-0.080183968 -0.01754228 1.1764455 4226244
-0.073667683 -0.015921608 1.1773627 4620744
-0.019675907 -0.01523114 1.1766975 5412064
0.0028169081 -0.01541207 1.1764212 6463211
0.010857075 -0.019314311 1.1763289 6397929
0.02054875 -0.018751495 1.1762087 6397929
0.029797975 -0.016914599 1.1760919 6003432
0.11145987 -0.02088359 1.172594 5081042
0.11657783 -0.024039738 1.1670359 5081041
-0.078824595 -0.0097500682 1.1712819 4160963
-0.070676193 -0.0088699684 1.1764569 4752075
-0.055592231 -0.0059438422 1.1771237 4949201
-0.048848897 -0.0065604895 1.1770418 5016022
-0.039285671 -0.0077583194 1.1762595 5213659
-0.029470194 -0.0087424591 1.1755762 5411552
-0.019626103 -0.0096028671 1.1758875 5740773
-0.0095090279 -0.0096889362 1.1765633 6003172
0.00060670543 -0.0097679794 1.1760389 6331366
0.010672132 -0.0098280311 1.1733149 6989552
0.020778025 -0.0099128112 1.1735909 6792432
0.030855477 -0.0099875033 1.172817 5937640
0.039377674 -0.0091371313 1.174961 5806054
0.050114982 -0.0079189911 1.1758269 5674725
0.05687185 -0.0068485364 1.175742 5674983
0.10268065 -0.009747833 1.1751835 5146841
0.10861138 -0.011867814 1.1693994 5080789
-0.075379759 -0.001269199 1.1693586 4554184
-0.071889706 -0.00046549737 1.1723145 4751049
-0.056599207 -0.00031530857 1.1751264 4818129
-0.049166977 -0.00037422776 1.1742351 5015507
-0.039669141 -0.00044295192 1.1707181 5147609
-0.029578175 -0.00052197278 1.1692941 5346018
-0.019909326 -0.00097740442 1.1717871 5937898
-0.0094643934 -0.0018075034 1.1718824 6462952
0.00098605268 -0.0011453927 1.1708637 8303605
0.010345873 -0.001325503 1.169733 8501495
0.020184539 -0.0023841262 1.1688006 7252467
0.031507134 -0.0019309521 1.1694998 6069484
0.040673975 -0.00091550499 1.1702466 6135528
0.050820246 -0.0013753772 1.1732188 5741031
0.060230017 -0.001252383 1.1746912 5543655
0.069730975 -3.0145049e-005 1.1755725 5477092
0.079805717 0.0012154952 1.1754465 5739747
0.091175064 0.00087406486 1.1753072 5280481
0.10032816 -0.0018314719 1.1715065 5015513
0.10577244 -0.0038515031 1.1691351 4949463
-0.068623848 0.0053795204 1.1692643 4818122
-0.059183247 0.0062966123 1.1691467 5147606
-0.050489321 0.0069714561 1.1690387 4818639
-0.041815326 0.0051638633 1.1689351 5344472
0.0028700633 0.005362995 1.1683851 12971007
0.0073336731 0.0047684908 1.1683311 12905215
0.031908162 0.0045708045 1.1680293 5807584
0.045312434 0.0044629723 1.1678646 6004710
0.05138395 0.0053717196 1.1677884 5807083
0.060221121 0.00778047 1.1698091 5477863
0.068751998 0.0072809011 1.1722386 5542628
0.080579527 0.0042087138 1.175432 5673698
0.091144711 0.0060799271 1.1737987 5804766
0.096695475 0.0040496364 1.1672333 5147865
0.063274413 0.015490264 1.1676252 5412324
-0.0076029552 -0.19595909 1.1808523 3039650
-0.0011598459 -0.19665584 1.1807742 3039650
-0.027851678 -0.18789598 1.1810879 2842271
-0.021080982 -0.18795046 1.1810046 2973857
-0.010749997 -0.18912281 1.1821427 2973857
-0.00099739805 -0.19095194 1.1832892 3039395
0.0096677355 -0.18910439 1.1824063 3171237
0.018975841 -0.18776226 1.1815784 3237030
0.029330749 -0.18729424 1.1819221 3302569
0.037665337 -0.18750285 1.1816148 3237546
-0.047434881 -0.17725854 1.1813109 2908065
-0.039865907 -0.17828679 1.1812195 2973857
-0.031186566 -0.18011875 1.1821159 2973857
-0.0214426 -0.18209636 1.183117 2973858
-0.013134281 -0.182989 1.1848989 3105444
0.018568967 -0.18324405 1.1845094 3237030
0.030281086 -0.18182835 1.1843629 3302825
0.039211761 -0.1814456 1.1839447 3171754
0.049043164 -0.18204603 1.1821325 3171752
0.059381966 -0.18170676 1.1814164 3171753
0.06783884 -0.17865762 1.1808956 3237546
0.076065294 -0.17631724 1.1797904 3303592
-0.058536023 -0.16771042 1.1814314 2908579
-0.050335906 -0.16994292 1.1833344 2908579
-0.04050282 -0.17149043 1.1841252 3105444
-0.031853471 -0.17332613 1.1851128 3105443
0.062799737 -0.17454052 1.1839508 3303339
0.070834205 -0.17233396 1.1825149 3303082
0.079221301 -0.17029655 1.1803129 3237545
0.085165329 -0.16736162 1.1796634 3303850
-0.067473091 -0.15635248 1.1815223 3302822
-0.060868159 -0.16070734 1.1836984 3040165
-0.053750247 -0.16454363 1.1853675 3040167
0.074194998 -0.16557285 1.1837956 3303598
0.080277562 -0.16162816 1.182773 3238061
0.088834003 -0.1596379 1.1807165 3303596
0.096531309 -0.15729558 1.1795068 3369131
-0.077168472 -0.14574084 1.1816237 3171751
-0.070755295 -0.14942318 1.1829629 3368615
-0.063849732 -0.15313822 1.1854725 3171751
0.098417051 -0.15073264 1.1809727 3369134
-0.079086684 -0.13867161 1.1816354 3369130
-0.072947204 -0.14067581 1.1845635 3434922
0.099639423 -0.14107388 1.1824892 3435183
-0.080726445 -0.13005716 1.1829746 3434923
0.10245018 -0.13400099 1.1825951 3501232
0.10922766 -0.130924 1.1818948 3435694
0.11594129 -0.12923655 1.179221 3501232
-0.088862956 -0.11884812 1.1827224 3369646
-0.083154611 -0.12264532 1.1843255 3435182
0.11304608 -0.12172118 1.1832442 3567282
0.11712857 -0.12122324 1.1810113 3567027
-0.0971637 -0.10607876 1.1818031 3501231
-0.092576899 -0.11004161 1.1845036 3435439
0.11310968 -0.11379477 1.1832302 3829686
0.11821439 -0.11102611 1.1813849 3829431
-0.097136535 -0.10269316 1.1817971 3501231
-0.092703849 -0.099485442 1.183404 3567024
0.12060235 -0.10166402 1.1817843 3830201
-0.097023368 -0.088586494 1.1817721 3632818
-0.093775377 -0.089329571 1.1837335 3698612
0.12279671 -0.09107174 1.1810728 3896507
-0.096946411 -0.078993961 1.1817551 3633333
-0.093069024 -0.079215989 1.1845078 3764919
0.12270799 -0.080863029 1.1805568 4093886
-0.09732718 -0.07018777 1.1817449 3633334
-0.093242869 -0.069281384 1.1848934 3830201
0.11979065 -0.071213111 1.1812987 4291523
-0.092755742 -0.05898552 1.1833367 3896506
0.11937749 -0.060725912 1.1806639 4619975
-0.089398682 -0.049461056 1.1833271 4028348
0.11362747 -0.049251236 1.1831156 5146320
0.11802545 -0.05150941 1.1820652 4883148
-0.087623082 -0.040062346 1.1818608 3962814
-0.082600407 -0.038739096 1.1843684 3963072
0.11268781 -0.040418688 1.1816123 5146577
0.11641312 -0.042074643 1.1795691 5080527
-0.086178981 -0.03100194 1.1815422 4028607
-0.079960607 -0.02930133 1.1835963 4291526
-0.030005883 -0.027712315 1.184846 5147865
-0.022531159 -0.027545966 1.1847538 5344731
-0.0062193656 -0.02677124 1.184552 5345501
0.00057418924 -0.02682589 1.1844684 5739743
0.010718791 -0.029141679 1.1830142 5936862
0.019777086 -0.029222213 1.1832362 5871068
0.030003835 -0.028195046 1.1841087 5739228
0.048129063 -0.02720844 1.1838843 5213656
0.1108816 -0.031522103 1.1815195 4949970
-0.078149624 -0.0218684 1.1814281 4422856
-0.069657482 -0.017170839 1.1831341 4686797
-0.059277184 -0.016125761 1.1831865 4884690
-0.048874959 -0.017645165 1.1845611 4950486
-0.038436867 -0.018489696 1.1836008 5213659
-0.029900424 -0.019733265 1.1816311 5279707
-0.019744772 -0.020951621 1.1819084 5345244
-0.0095685953 -0.019401282 1.1816916 5411808
0.00027843006 -0.020594701 1.1813705 5806052
0.0095775351 -0.023796752 1.1803523 6068964
0.021611314 -0.02426976 1.1802051 6068963
0.031677753 -0.02196829 1.1810006 6003173
0.040158242 -0.0203164 1.1817706 5608417
0.050364941 -0.02040673 1.1822453 5411038
0.057241637 -0.020487249 1.1837609 5279709
0.10193187 -0.019091561 1.1822858 5212630
0.10752711 -0.022730529 1.1804793 5015248
-0.065935045 -0.011527047 1.1812605 4949712
-0.059164345 -0.01158151 1.1811774 4949713
-0.049008295 -0.011663213 1.1810526 5016279
-0.039607577 -0.012115031 1.1809378 5213659
-0.030962158 -0.01293698 1.1808327 5345501
0.041827381 -0.012958221 1.1799376 5871590
0.050295282 -0.012462042 1.1798326 5871847
0.060593948 -0.010308608 1.1817025 5543139
0.06789133 -0.0092376545 1.1818967 5280225
0.092432506 -0.0094461814 1.1833096 5411294
0.098250948 -0.010911055 1.1806948 5279196
0.070111051 -0.004156895 1.179575 5411556
0.079716466 -0.0025412515 1.1794541 5412066
0.091000967 -0.0026320294 1.1793154 5477344
0.097753555 -0.0049435645 1.1792363 5213404
0.00010085758 -0.18636435 1.1887422 3105189
-0.020187769 -0.17773348 1.1899772 3039906
-0.010499612 -0.17994525 1.1902903 3039908
-0.00095189642 -0.18117976 1.1920799 3105447
0.0096307341 -0.1804927 1.1893651 3105702
0.018714363 -0.17931798 1.1885014 3171750
0.027702944 -0.17897713 1.1883903 3237289
0.039181814 -0.17721018 1.1882461 3237548
0.049406424 -0.17729244 1.1881205 3171752
0.05849497 -0.17736554 1.1880088 3171752
-0.047757138 -0.16605756 1.1892966 3039909
-0.039903268 -0.16685043 1.1900903 3105701
-0.031748556 -0.16956301 1.1916512 3105443
-0.02217558 -0.17503136 1.1929973 3040163
0.0086084213 -0.17436697 1.1926177 3105960
0.020016136 -0.17334402 1.1924756 3105958
0.029115345 -0.17190716 1.1915612 3237545
0.039507609 -0.17093168 1.1903369 3237547
0.049546007 -0.1707004 1.1897079 3237544
0.059612066 -0.17055398 1.1896681 3237545
0.068267211 -0.16863713 1.1885407 3303339
-0.058928564 -0.15653701 1.1894181 3172009
-0.050502583 -0.15976492 1.19172 3105961
-0.041165639 -0.1620532 1.1932092 3171752
0.042888869 -0.16415441 1.1921788 3303337
0.049728133 -0.16420943 1.1920949 3303593
0.059832025 -0.16331354 1.1919692 3303594
0.069044255 -0.16077502 1.1906015 3303596
0.075844124 -0.1593255 1.1877652 3238062
-0.066244647 -0.14795646 1.1894937 3434409
-0.060483053 -0.14976084 1.1922495 3237547
-0.052149266 -0.15219682 1.1933277 3237805
0.070080005 -0.15347947 1.1918266 3238318
0.079385906 -0.15062328 1.1905873 3238572
0.08949025 -0.15049306 1.1887827 3434926
0.095980406 -0.1499432 1.1875018 3369134
-0.06849774 -0.13890372 1.190737 3435179
-0.062542215 -0.14095804 1.1929922 3369388
0.084089063 -0.14396521 1.1916384 3500977
0.089726456 -0.14047316 1.1905631 3435186
0.095146894 -0.14054368 1.1874963 3500720
-0.076929204 -0.12809336 1.1905918 3566511
-0.071229905 -0.13101542 1.1921934 3566767
-0.064021789 -0.13365346 1.1934426 3500977
0.091257721 -0.13285127 1.1910315 3501234
0.09913183 -0.13047762 1.1881804 3501490
-0.086429536 -0.11484356 1.1896864 3566770
-0.079674572 -0.11947685 1.1922113 3632306
-0.07306765 -0.12446041 1.1935384 3632563
0.10102555 -0.12182505 1.1899811 3699127
0.10845293 -0.12060136 1.1877699 3633076
-0.087580852 -0.10924378 1.1906912 3566770
-0.08154662 -0.11018562 1.1936188 3763892
0.10200865 -0.11275838 1.1913656 3633335
0.10867279 -0.11062182 1.1888355 3764407
-0.087609641 -0.099159658 1.1924748 3698868
-0.083256081 -0.099804372 1.1936225 3699126
0.10267463 -0.10079337 1.1913373 3962811
0.1091987 -0.10093635 1.1900907 3830969
0.11688674 -0.10122122 1.187163 3830714
-0.088726342 -0.089197598 1.1905948 3699126
-0.083429106 -0.089796007 1.1936078 3830712
0.10998436 -0.091000937 1.190631 4028606
0.11810355 -0.091167286 1.1871312 3962300
-0.088061713 -0.079715833 1.1912477 3830970
-0.08312881 -0.079429537 1.1935867 3962813
0.11033611 -0.08194384 1.1912116 4291522
0.11817582 -0.081600644 1.1874779 4094399
-0.088281013 -0.069644496 1.1913478 3962044
-0.08337871 -0.069981515 1.193574 4093630
0.11200287 -0.071212739 1.1909064 4554438
0.11679654 -0.072003253 1.1871152 4357059
-0.087581381 -0.059606727 1.1909415 4093886
-0.082964197 -0.058910221 1.1935502 4291009
0.1102474 -0.060654737 1.1902879 4686026
0.11623719 -0.06079882 1.1871033 4685769
-0.085928224 -0.052355189 1.1895754 4159935
-0.080871925 -0.049922135 1.1923666 4225985
0.10307702 -0.050635066 1.1912483 5015248
0.10912075 -0.051962845 1.1885093 5014991
-0.077786423 -0.040129654 1.1915727 4292037
-0.07240919 -0.04238319 1.1933928 4619977
-0.049556769 -0.035726815 1.1931006 5279449
-0.041577637 -0.035791002 1.1930025 5016538
-0.029048134 -0.037031829 1.1928505 4950743
-0.019540243 -0.038784839 1.1927365 4950488
-0.010442332 -0.038701549 1.1926244 5147351
1.4163554e-005 -0.037835632 1.1924944 5278422
0.010552572 -0.040236607 1.1914799 5212886
0.019898195 -0.039650645 1.1905028 5278423
0.029883083 -0.038892675 1.1908787 5147094
0.040795676 -0.039385155 1.1919955 4885460
0.050284971 -0.03795867 1.191149 4950741
0.059408162 -0.037515394 1.1917634 5016279
0.10164912 -0.040772244 1.1898493 5212370
0.10900315 -0.041992906 1.1871607 5212369
-0.075650252 -0.033179436 1.1914171 4423370
-0.073556431 -0.030001841 1.1909859 4554187
-0.049053155 -0.030708581 1.1928192 5147610
-0.039211106 -0.030061506 1.1909636 5081818
-0.030124139 -0.032409437 1.1908559 5016538
-0.018961135 -0.031062312 1.1908497 5278938
-0.009850963 -0.030529112 1.1907368 5344730
0.0005979687 -0.031493545 1.1895431 5673948
0.010792511 -0.033817403 1.1883548 5805277
0.019881055 -0.033890516 1.1882432 5541848
0.030114783 -0.032836594 1.1881156 5475544
0.04035762 -0.030646548 1.1879859 5213397
0.05101512 -0.031354085 1.1885619 5082070
0.060732316 -0.030647524 1.1901355 5016536
0.069707133 -0.028543085 1.1916217 5213915
0.080462389 -0.027652442 1.1914879 5279453
0.09140154 -0.028196447 1.1913543 5213659
0.10079477 -0.031194746 1.1896437 5212628
0.10738564 -0.031185754 1.1871625 5146833
-0.073203608 -0.024051905 1.1893716 4554443
-0.047968321 -0.022436947 1.1890584 5016281
-0.040704768 -0.023404352 1.1889708 5147611
-0.0095837964 -0.024563685 1.1885899 5411294
0.061267566 -0.020588748 1.187712 5148123
0.069991641 -0.020663142 1.1878047 5213915
0.080043763 -0.02097106 1.1892209 5213917
0.090806775 -0.020990781 1.1896652 5213659
0.098773323 -0.02279117 1.1875876 5212887
0.091617405 -0.014015518 1.1873276 5279708
0.096161678 -0.014052078 1.1872718 5411037
-0.016487323 -0.17581111 1.197929 3106213
-0.010764129 -0.17585716 1.1978588 3105959
0.0005134875 -0.17660207 1.1977214 3105706
0.010984004 -0.17603211 1.1975915 3105960
-0.027306292 -0.16885531 1.1980505 3105700
-0.019878369 -0.17016424 1.1987114 3105957
-0.010716501 -0.17023794 1.1985989 3106216
-0.00039746054 -0.17044041 1.1993223 3106217
0.010245266 -0.17001094 1.1990193 3171752
0.018142186 -0.16958091 1.1985837 3303337
0.02937169 -0.16702163 1.1973503 3369130
0.036239516 -0.16707689 1.197266 3369132
-0.039813414 -0.15754075 1.1985186 3171753
-0.030129679 -0.16003022 1.2007906 3171752
-0.019814607 -0.16039288 1.2027446 3172010
-0.010628845 -0.16174524 1.203584 3172012
-0.00057863537 -0.16140965 1.2042552 3237802
0.010087434 -0.16079399 1.2035775 3303338
0.019292867 -0.16089587 1.2036645 3369133
0.029587686 -0.16074647 1.2018175 3369388
0.039716188 -0.16049284 1.2010019 3303853
0.048985437 -0.15939417 1.1988465 3369643
0.059080172 -0.1586715 1.1972063 3303851
-0.057455525 -0.14571685 1.1983825 3303598
-0.049348645 -0.14860849 1.2000021 3303341
-0.040756777 -0.15041688 1.2033283 3303340
-0.031389195 -0.15193155 1.2060729 3369132
-0.023233771 -0.15388292 1.2059759 3303600
0.010181671 -0.15415174 1.2055653 3303598
0.022856496 -0.15425369 1.2054096 3435186
0.030346163 -0.15431395 1.2053176 3369391
0.040140346 -0.15439273 1.2051973 3369392
0.049968302 -0.15155646 1.2044563 3369390
0.059500717 -0.15056497 1.2007525 3435184
0.068852566 -0.14902249 1.1968346 3369392
-0.058341801 -0.13870426 1.1991817 3369646
-0.051170781 -0.14108151 1.2038978 3303853
-0.043900438 -0.14449735 1.2062143 3173034
0.051982112 -0.14342478 1.2050333 3566773
0.060169574 -0.14218132 1.2042638 3566516
0.069959261 -0.14037798 1.2012068 3500977
0.07983686 -0.14111122 1.1983706 3500975
-0.068422705 -0.12665769 1.1984854 3632562
-0.059532821 -0.12980351 1.2013816 3501236
-0.051964819 -0.13004129 1.2058449 3501494
0.072302677 -0.13131501 1.2047631 3698612
0.07983698 -0.13171521 1.2023073 3567283
0.0886847 -0.12934485 1.1994913 3567283
0.09609133 -0.12634568 1.1964616 3501747
-0.075540163 -0.11695143 1.1985567 3895478
-0.069948032 -0.11953443 1.2009925 3698613
-0.061016485 -0.12056143 1.2050513 3633080
0.073796153 -0.12470064 1.2047336 3699128
0.080380753 -0.1215623 1.2046474 3830713
0.089849159 -0.12125123 1.2033303 3699126
0.096600622 -0.1199389 1.1964445 3633333
-0.076784037 -0.10892784 1.1985586 3961271
-0.069979832 -0.10943771 1.2034761 3896247
-0.063229963 -0.1120742 1.2063978 3764921
0.080330133 -0.11461194 1.2046363 3962300
0.091206767 -0.11218747 1.2040279 3896506
0.098695233 -0.11035631 1.1984029 3764920
-0.078053355 -0.099596582 1.2000586 3830712
-0.071128286 -0.099223427 1.2051399 4093627
0.094264455 -0.10135599 1.2044427 4028352
0.099596962 -0.10079806 1.1990426 3962812
-0.078364462 -0.089276418 1.2005452 3962556
-0.071869448 -0.090458155 1.2060232 4028606
0.093821183 -0.090947755 1.2044308 4357317
0.10018184 -0.091192767 1.2003527 4225985
0.10556068 -0.087498732 1.19628 4225985
-0.077800557 -0.080271967 1.2005231 4028606
-0.072963499 -0.080496512 1.2064645 4094655
0.094412372 -0.082918525 1.2044101 4554695
0.10020832 -0.080812484 1.1997349 4554182
0.10639111 -0.079110235 1.1962557 4619462
-0.078416333 -0.069615856 1.1989833 4159424
-0.070357047 -0.068686426 1.2051818 4160448
-0.064021677 -0.067123584 1.2063321 4554440
0.094980508 -0.069555059 1.2043806 4620747
0.10051601 -0.070620283 1.2020642 4686026
0.1068339 -0.071481816 1.1962374 4619977
-0.077724569 -0.059958179 1.198488 4291265
-0.069597319 -0.060025778 1.2036386 4357573
-0.063966207 -0.060209531 1.2063198 4751563
0.010183888 -0.058117043 1.2054044 4818903
0.017871762 -0.057410609 1.2053087 4819160
0.09320531 -0.061012898 1.2043881 4752590
0.10058744 -0.061418671 1.2020478 4817869
0.10575353 -0.063459545 1.1962373 4752076
-0.075660288 -0.050388683 1.1984465 4291778
-0.069618195 -0.049730182 1.2019504 4554440
-0.063901491 -0.052143138 1.2063055 4883149
-0.045305461 -0.045225326 1.202065 5674209
-0.03956322 -0.04527152 1.2019944 5082331
-0.028200328 -0.048199061 1.2037263 4950745
-0.018926099 -0.050013971 1.2011485 4884953
-0.0097416649 -0.050079063 1.2008356 4753366
0.0006099185 -0.049063414 1.2019067 4884692
0.011172719 -0.050772659 1.2009351 4884692
0.019945869 -0.050119702 1.2014811 4884692
0.030182164 -0.049007192 1.2038097 4950484
0.041090757 -0.0500484 1.2018994 4950488
0.049884003 -0.049857415 1.2027844 4950489
0.060514636 -0.048493538 1.2037024 5411037
0.069511518 -0.048318576 1.2046583 5542623
0.083642833 -0.04641553 1.2044812 5213404
0.091397457 -0.049358953 1.2043909 5081558
0.099657886 -0.051670294 1.201893 5015248
-0.070343696 -0.039964732 1.1983637 4685772
-0.048101753 -0.03967778 1.1991807 5542365
-0.039133176 -0.039930221 1.1991228 4951002
-0.030391365 -0.041029494 1.1978741 4884951
-0.021145225 -0.04297718 1.1977637 4753366
-0.0074003758 -0.041942958 1.1975929 4950484
0.0014682738 -0.042300489 1.1974844 5015763
0.031508148 -0.043400742 1.1971169 5015764
0.038375977 -0.043455988 1.1970325 4885461
0.050320793 -0.042570822 1.196884 4884950
0.061140407 -0.041590933 1.1985956 5082072
0.070561349 -0.040522531 1.2014321 5542624
0.080160856 -0.041753367 1.2037163 5279197
0.090287335 -0.040590998 1.2007896 5213144
0.097521767 -0.043168575 1.1963046 5212627
0.064776137 -0.034509979 1.1966927 5016538
0.070513099 -0.032838926 1.1966194 5213917
0.08007165 -0.030435428 1.1964978 5345245
0.090410687 -0.032827325 1.1970414 5213917
0.18167712 -0.035679981 1.2032576 13158081
-0.010566748 -0.1568083 1.2098254 3303598
0.0021499768 -0.1569106 1.2096691 3303850
-0.038920637 -0.14594293 1.210156 3303853
-0.02915952 -0.147617 1.2103958 3304111
-0.019585408 -0.1498099 1.2120301 3303857
-0.010502855 -0.1502066 1.2125638 3303856
-7.2589144e-005 -0.15032147 1.2126857 3369903
0.010307365 -0.14888263 1.2095554 3435441
0.019366033 -0.14986831 1.2094456 3435187
0.029848175 -0.1493151 1.2093158 3500978
0.040365078 -0.14912441 1.2091861 3369649
0.047083244 -0.14755975 1.2091008 3435441
-0.047030196 -0.13840076 1.210243 3370159
-0.040485337 -0.13922423 1.2101638 3370416
-0.030105177 -0.1395666 1.2122869 3436469
-0.019700304 -0.13996828 1.2149099 3502005
-0.010413681 -0.14004299 1.2147958 3501749
5.8235601e-006 -0.14360976 1.2146736 3501493
0.010456327 -0.14006309 1.213289 3567542
0.019760121 -0.14024878 1.2141125 3567541
0.030158266 -0.14019345 1.2127969 3633333
0.040480305 -0.13998102 1.210107 3567541
0.049070302 -0.13932207 1.2090626 3633079
0.059124019 -0.13721755 1.2089355 3632566
-0.047347531 -0.12991922 1.2102327 3501750
-0.040462907 -0.13024101 1.2126487 3567798
-0.032039858 -0.13084903 1.2150464 3633848
-0.018492915 -0.13417307 1.2148854 3633591
-0.011527942 -0.13422909 1.2147998 3699128
0.010537091 -0.1332456 1.2145268 3830714
0.020984536 -0.13332964 1.2143984 3764921
0.030489836 -0.1324562 1.21428 3830712
0.041047905 -0.13162711 1.2137916 3830713
0.049756192 -0.13139758 1.2133746 3830458
0.060062099 -0.13121776 1.2112825 3764409
0.068175867 -0.12975058 1.2093672 3764407
-0.056277655 -0.11897885 1.2103242 3698874
-0.04964076 -0.11971265 1.2124939 3764923
-0.041054711 -0.12046947 1.2151399 3765435
-0.03466998 -0.12475502 1.2150685 3699641
0.058970094 -0.12550828 1.2139181 3896252
0.069101617 -0.12112564 1.2111669 3831226
0.076435007 -0.12050892 1.2086946 3830458
-0.058832452 -0.10951152 1.2111293 3896508
-0.049639665 -0.10954175 1.2152271 4028352
-0.041751631 -0.1103018 1.2151314 4094143
0.070440255 -0.11123158 1.2101814 4159936
0.079756089 -0.11005253 1.2086362 4028352
0.087801725 -0.10874905 1.208535 3962559
-0.066759482 -0.099701181 1.2104207 4093628
-0.059848674 -0.099819727 1.211086 4028352
-0.049555108 -0.10022949 1.2148979 4094401
-0.042819321 -0.098683327 1.215125 4225986
0.07200671 -0.10206524 1.2123547 4357317
0.080275699 -0.10111471 1.2114275 4225732
0.089080058 -0.10072356 1.2085059 4159938
-0.067672223 -0.089948505 1.2104156 4028609
-0.059476644 -0.090084583 1.2116789 3963330
-0.050099172 -0.090211011 1.2152003 4160708
-0.043705136 -0.093335658 1.2151269 4292035
0.074745819 -0.088483565 1.213662 4620236
0.080158301 -0.091261193 1.2122111 4488649
0.088581122 -0.091967799 1.2084973 4357318
-0.068746142 -0.079699002 1.2104117 4160449
-0.060101263 -0.079939455 1.2140017 4160708
-0.050796092 -0.080043346 1.2151918 4489161
0.08134567 -0.081993327 1.2124984 4555212
0.089586399 -0.080840543 1.2084663 4620489
-0.16077173 -0.070335157 1.2165282 14082013
-0.067310691 -0.072332725 1.2103816 4226242
-0.059158646 -0.070104271 1.2127779 4620234
