# .PCD v0.7 - Point Cloud Data file format
VERSION 0.7
FIELDS x y z rgba
SIZE 4 4 4 4
TYPE F F F U
COUNT 1 1 1 1
WIDTH 174
HEIGHT 1
VIEWPOINT 0 0 0 1 0 0 0
POINTS 174
DATA ascii
-0.39370829 0.078458555 1.1023432 5134174
-0.38687488 0.077978857 1.1034002 5134176
-0.39494899 0.082994498 1.1022089 4871515
-0.39987233 0.059634879 1.1082251 4936281
-0.38928273 0.058834352 1.1098624 5199967
-0.38452694 0.059631146 1.1106128 5397348
-0.40893385 0.064928018 1.10658 4673880
-0.40101734 0.065696731 1.1058811 4870232
-0.39182371 0.067322992 1.1080588 5068382
-0.38240582 0.069287576 1.1101017 5068384
-0.37517118 0.072079256 1.1122297 4476504
-0.4106575 0.074210607 1.1050489 4607822
-0.40356076 0.075402729 1.1048191 4673623
-0.39272559 0.076458082 1.1065186 5134174
-0.38270292 0.07904461 1.1081116 4739419
-0.3752653 0.080063224 1.1105834 4081746
-0.41246194 0.082423113 1.1065613 4410445
-0.40403506 0.084885411 1.1048681 4213839
-0.39406526 0.087075263 1.1064477 4345429
-0.38417608 0.088313334 1.1080024 4016211
-0.37635922 0.089286834 1.1103991 3621193
-0.40432465 0.09035445 1.1048938 3884109
-0.39533192 0.092856616 1.1063255 3752784
-0.38515815 0.094492495 1.1079297 3621192
-0.37787282 0.094607748 1.1090647 3686459
-0.40767395 0.046112798 1.117391 4673626
-0.39916867 0.046575949 1.1158456 4870741
-0.39007783 0.046918042 1.1174512 5265754
-0.38041642 0.049262941 1.1192554 5397604
-0.37299287 0.053320631 1.123459 4608350
-0.40950498 0.054896735 1.1132436 4673629
-0.40076143 0.054771841 1.1124095 4870744
-0.39221776 0.054608703 1.1133994 5134174
-0.38061032 0.058586314 1.1159171 5397606
-0.37329945 0.06066113 1.1212981 4476760
-0.36818877 0.065645687 1.124366 4015442
-0.41831031 0.061865173 1.1165184 3883351
-0.41411856 0.062513456 1.1119159 4475995
-0.38066763 0.065181926 1.1153336 5068641
-0.37256551 0.06979797 1.1187315 4082513
-0.36762434 0.071842581 1.1240281 3752531
-0.41673511 0.072193444 1.1104196 4079443
-0.37202102 0.079116866 1.1183776 3621705
-0.36770451 0.077476308 1.1221656 3751503
-0.37458256 0.086356059 1.1165546 3490378
-0.39526421 0.029799594 1.1308221 5002588
-0.39214239 0.030301569 1.1313144 5528419
-0.407177 0.037606731 1.1290697 4739163
-0.39919722 0.035944901 1.1273097 5002333
-0.3898738 0.037133552 1.1287196 5397092
-0.38141346 0.040565006 1.131454 5332066
-0.37595889 0.042626418 1.1339921 4740695
-0.40838644 0.041380517 1.1236167 4082256
-0.40115294 0.041354686 1.1229707 5068120
-0.37918985 0.045447521 1.1284654 5200736
-0.37203187 0.050029218 1.1318008 4345175
-0.36576417 0.053020261 1.1351347 4278096
-0.37039754 0.059861541 1.1288635 4147028
-0.36625138 0.060100742 1.1336452 3819087
-0.36704373 0.067551196 1.1298319 3687502
-0.38807046 0.019008903 1.1429349 5528423
-0.38395172 0.020216627 1.1435915 5397348
-0.39854851 0.025228286 1.1359873 4804702
-0.38917387 0.026521208 1.1368759 5462626
-0.38049397 0.0285965 1.1408644 5003105
-0.37330106 0.033362299 1.1429899 4804440
-0.40927565 0.033714458 1.1357776 3817824
-0.40225112 0.0310056 1.132787 4673622
-0.38660023 0.033522174 1.1352547 5660265
-0.37963551 0.0362176 1.1363734 5069150
-0.37156907 0.040388279 1.1397067 4475986
-0.36693162 0.045478277 1.1404943 4014924
-0.36949787 0.047104001 1.1380918 4606547
-0.36436105 0.050400116 1.1394398 3620428
-0.39446345 0.011149079 1.1489232 4079956
-0.38751468 0.011240987 1.1476922 5266270
-0.38221914 0.012569064 1.1508468 5002845
-0.39793172 0.016816376 1.1464328 4079963
-0.38978904 0.015471602 1.1456581 5330781
-0.38012147 0.019296123 1.1488789 5002331
-0.3775911 0.025745815 1.1476891 5001816
-0.37414956 0.029201357 1.1494839 4540755
-0.37068784 0.036699995 1.1489052 4213074
-0.38876578 0.0014169384 1.1618292 5265766
-0.39029238 0.0056721624 1.1587549 5068639
-0.38198543 0.0086797662 1.1596045 4214103
-0.3984648 0.01065369 1.1523428 1580089
-0.37818313 0.01577667 1.1562396 4145996
-0.37631679 0.021925556 1.1559349 4212054
-0.39532954 -0.00066853873 1.1638172 3618132
-0.38980085 -0.00089168176 1.1646745 5199718
-0.38354561 0.0012262482 1.1656752 4214875
-0.37811857 -0.058366895 1.1819416 528927
-0.37301752 -0.058223218 1.1827372 1517876
-0.37416917 -0.068292379 1.194573 4419983
-0.38968903 -0.06389977 1.1901908 1651559
-0.38401192 -0.062246159 1.1879146 1782104
-0.37148163 -0.062801056 1.1877245 4154236
-0.36757246 -0.058677047 1.1922538 3028033
-0.38304785 -0.054911323 1.1933649 2369321
-0.37484971 -0.053738855 1.191012 2040105
-0.38536024 -0.03589616 1.1892028 4146252
-0.39016053 -0.068845019 1.2001745 5077683
-0.38290015 -0.070307732 1.1999358 4617364
-0.37364486 -0.069201812 1.2013901 4549258
-0.36891276 -0.063012727 1.1995077 6582660
-0.39234981 -0.057637364 1.1959306 7695014
-0.38553038 -0.05274608 1.1977298 2040625
-0.37771523 -0.05025506 1.1983033 2172202
-0.37032986 -0.054096684 1.1994027 2760198
-0.38415447 -0.079684488 1.2090656 4683677
-0.37859371 -0.078790344 1.2099423 3831442
-0.39250243 -0.074061237 1.2066828 3299734
-0.3850632 -0.075117841 1.2064071 4683420
-0.3767668 -0.074280545 1.2086657 3960460
-0.38144922 -0.15285732 1.2216961 3829135
-0.37359396 -0.15110619 1.2229412 4223637
-0.36744976 -0.15057294 1.223904 3960467
-0.38371685 -0.14372353 1.2214617 3498881
-0.37550709 -0.1419446 1.2223573 3895695
-0.368117 -0.1394033 1.2239449 3631246
-0.38490164 -0.13261977 1.2183849 3499128
-0.37770614 -0.1322751 1.2195089 4025235
-0.36955291 -0.12997505 1.2226869 3499655
-0.38547364 -0.12323576 1.2163931 3826560
-0.37896901 -0.12222973 1.2179244 4156303
-0.37149492 -0.12155488 1.2216263 3630985
-0.38719326 -0.1138397 1.2192836 3893387
-0.38056707 -0.11247449 1.218758 4157333
-0.37378991 -0.11084955 1.2219139 3762828
-0.38717481 -0.1052265 1.2214223 3762325
-0.38145494 -0.10175007 1.2186463 4420507
-0.37572274 -0.10097031 1.2219099 3828877
-0.39046949 -0.091751032 1.2210841 4222878
-0.38260302 -0.092391729 1.2185214 4552347
-0.3769477 -0.091868855 1.2223769 3631755
-0.39255765 -0.084138945 1.2151901 3627913
-0.38353652 -0.084449098 1.2144979 4683676
-0.37720403 -0.082091831 1.2184888 3892613
-0.37701222 -0.074108981 1.2153096 3563127
-0.38230807 -0.1628975 1.2269269 3033484
-0.37439284 -0.16260064 1.2305863 2897991
-0.36461607 -0.16022135 1.2316422 3891064
-0.35762727 -0.15831402 1.2344413 2638186
-0.38744536 -0.15453248 1.2247901 666715
-0.3764579 -0.15504077 1.2264931 4813457
-0.36366737 -0.14999817 1.2285485 3499654
-0.35725355 -0.14880504 1.2332908 3561592
-0.38987866 -0.14338142 1.2245559 6722
-0.36529267 -0.14059909 1.2284174 3694979
-0.359231 -0.13934535 1.2314011 3233144
-0.36538783 -0.13007574 1.2285389 3104639
-0.3613106 -0.12937151 1.2324028 2640231
-0.36758894 -0.12059359 1.2283193 2907007
-0.36401612 -0.1200915 1.2334822 3099492
-0.39139459 -0.11200921 1.2247263 4089741
-0.3695372 -0.11119515 1.2284993 3496061
-0.36621958 -0.10947287 1.233737 4278874
-0.39040899 -0.103654 1.224988 2972810
-0.3719613 -0.1010908 1.2292717 3757171
-0.36862773 -0.1016296 1.2334639 3748927
-0.3901884 -0.09776374 1.2250986 3630740
-0.37232283 -0.093720101 1.2279308 3953004
-0.37483147 -0.16893257 1.2356752 984897
-0.36521411 -0.16345404 1.2372426 4350584
-0.35903719 -0.13814175 1.2392063 4674411
-0.36079359 -0.12976833 1.2414031 6974583
-0.36424455 -0.11908963 1.2410045 3815753
-0.39647162 -0.11343011 1.233027 5799072
-0.36447236 -0.10946445 1.2380574 5064001
-0.35988492 -0.14418583 1.2514789 7039097
-0.36121419 -0.13852899 1.2523575 7565430
-0.36319992 -0.13007294 1.2518206 8223350
-0.36405507 -0.12189381 1.2470703 9076613
