# .PCD v0.7 - Point Cloud Data file format
VERSION 0.7
FIELDS x y z rgba
SIZE 4 4 4 4
TYPE F F F U
COUNT 1 1 1 1
WIDTH 1130
HEIGHT 1
VIEWPOINT 0 0 0 1 0 0 0
POINTS 1130
DATA ascii
0.16175801 -0.15002392 1.1074952 14080986
-0.12008967 -0.15574107 1.1152499 2381461
-0.11660857 -0.16068827 1.1171741 2776212
0.15584698 -0.14210822 1.1098446 3697834
-0.12090223 -0.14985183 1.1160325 2841752
-0.11843262 -0.15399012 1.1191974 2906774
0.15706448 -0.13208748 1.1101856 2646183
-0.12345015 -0.13942301 1.1169888 2907034
-0.1191233 -0.14334638 1.1190896 2775704
0.15709688 -0.12332171 1.1111851 3696546
0.15884152 -0.11866897 1.1105298 3761571
-0.12510718 -0.1300734 1.1155022 2973083
0.16010794 -0.11248107 1.1097667 3368880
-0.1268709 -0.11996376 1.1148777 3039134
0.15964402 -0.10088297 1.1092494 3500454
-0.12773032 -0.10955118 1.1144758 3171232
0.15804899 -0.092519939 1.1101992 3631529
-0.12886831 -0.10084485 1.1136991 3302564
0.15578686 -0.082294978 1.1058412 3697839
0.15627986 -0.082484663 1.1088341 3763633
-0.12962835 -0.09030953 1.1143942 3368355
0.15610999 -0.071220085 1.108423 3436468
0.17016211 -0.066676453 1.1083733 10992842
-0.12796906 -0.07976345 1.1142402 3697068
0.15322021 -0.058394637 1.1126215 3765679
0.15647855 -0.060737681 1.1077632 3830452
0.16953336 -0.062457021 1.1083378 11387079
-0.12742116 -0.071958631 1.1119393 3631022
-0.1254679 -0.068621293 1.1113616 3500456
0.15207933 -0.051566966 1.109677 3830449
0.15876245 -0.051654171 1.1070628 5207985
0.16541576 -0.052196249 1.1109709 10334913
-0.12839505 -0.059952322 1.1138937 3434161
0.15063776 -0.042713288 1.1093508 3893939
0.15773128 -0.042747457 1.1084062 8428221
-0.12922762 -0.049919512 1.1173682 6194370
-0.12480728 -0.047518332 1.1181089 4421311
0.1477783 -0.031027474 1.1113274 5734064
0.15432669 -0.03427415 1.1123235 10203587
-0.12390868 -0.040779952 1.1180137 6852289
0.1458706 -0.025238484 1.1091901 8955077
0.0074981293 0.095712937 1.113801 9737616
-0.077286288 -0.21336195 1.1273813 7635861
-0.073823601 -0.21360469 1.1299815 8100012
-0.088110201 -0.20409513 1.1301612 10535920
-0.080972873 -0.20633948 1.1276892 5996227
-0.074056089 -0.21002194 1.1299453 6394567
-0.098972656 -0.19382095 1.1222608 8431615
-0.091775082 -0.19577634 1.1249079 1526185
-0.085368581 -0.1977185 1.1288898 1262491
0.13770419 -0.18049532 1.1253337 11717846
-0.10806315 -0.18583529 1.122353 7571711
-0.1009168 -0.18763104 1.1237853 1917611
-0.093715154 -0.18965322 1.1274419 2379673
-0.086728089 -0.19213301 1.1299965 2644619
0.13884555 -0.17353427 1.125231 5010097
0.14587811 -0.17014031 1.1219066 10599906
0.15286934 -0.16848385 1.1208892 14081762
-0.10150021 -0.17879321 1.1263517 2709143
0.1391997 -0.1628893 1.1251022 2909858
0.14572731 -0.1620297 1.1211414 4026283
0.1532459 -0.16177341 1.1173038 12307424
-0.10937896 -0.16555801 1.1221478 2775446
-0.10467447 -0.16944665 1.1250072 2775442
0.14641266 -0.15301113 1.1218429 3105445
0.15119171 -0.15191981 1.1167326 2578854
-0.11182968 -0.15848055 1.1242708 2775449
-0.10737573 -0.16055754 1.1287186 2906778
0.14813125 -0.14306515 1.1230948 3564451
0.15133302 -0.14191866 1.1190161 3433893
-0.11621294 -0.1500566 1.1254035 2840984
0.14912695 -0.13478406 1.1245805 3565217
0.15265563 -0.13248867 1.1191483 3499430
-0.12185014 -0.13850032 1.1220901 2841497
-0.11863738 -0.14001352 1.1280442 2907290
0.15428598 -0.12171526 1.1213262 3237547
-0.12260959 -0.12905741 1.123598 2973083
-0.11976271 -0.12931199 1.1279446 3038877
0.15676829 -0.11183681 1.1223452 3827369
0.15923074 -0.1106751 1.1160988 3564710
-0.12428529 -0.1191636 1.1247761 3039391
-0.12145019 -0.12085985 1.1285489 3170977
0.15637958 -0.10175466 1.122056 3565735
0.15867671 -0.1021373 1.1160123 3500198
-0.12489844 -0.11097271 1.1268383 3170977
0.15604916 -0.092745662 1.1212928 3631790
0.15729298 -0.094320372 1.1239531 3434923
-0.12575662 -0.10046326 1.1257352 3302823
0.15497553 -0.08133737 1.1213508 3566513
-0.12640023 -0.09049619 1.1243006 3368614
0.15347406 -0.072158664 1.1213146 3632560
-0.1263697 -0.082758717 1.1255451 3565995
0.15159425 -0.062103812 1.1199654 3895728
-0.12438307 -0.067534305 1.1269315 3697842
0.14858662 -0.05233518 1.1184474 4158132
-0.12328746 -0.059154794 1.1255769 3502262
0.14679159 -0.041748807 1.119563 4027837
-0.12127572 -0.049496505 1.1248399 3698611
0.14128695 -0.030595303 1.1235477 4619197
0.14716861 -0.033377059 1.1179208 4946612
-0.12801363 -0.043517314 1.1211287 7180220
-0.12049194 -0.039953545 1.1281381 4815032
0.14076889 -0.024140432 1.1228174 5209534
0.14522149 -0.022170469 1.1153697 8425655
0.0089349151 0.091801383 1.1168176 9474444
-0.04956308 -0.22184983 1.136588 8300241
-0.068341412 -0.21488944 1.1332501 7642055
-0.060779758 -0.21503748 1.1352361 4815810
-0.053782262 -0.21802688 1.1366295 5210825
-0.078238524 -0.20359519 1.1329571 932767
-0.071027562 -0.20656279 1.1345301 2382238
-0.062185287 -0.20901343 1.136696 2251168
0.12070669 -0.19392619 1.1328321 6518691
0.12643562 -0.1925419 1.1312717 11319227
-0.08036115 -0.19695826 1.1347911 2447513
-0.074711338 -0.2000494 1.1368463 2513045
0.12775083 -0.18421376 1.131526 4617903
0.13472062 -0.1838091 1.1284325 10929103
-0.090519063 -0.18656987 1.1344652 2971544
-0.084365524 -0.18993926 1.1349251 2774929
0.12920624 -0.17483906 1.1307752 2909086
0.13399273 -0.17360258 1.1283306 3105187
-0.098920099 -0.17390974 1.1330351 2709911
-0.093934007 -0.17863345 1.135342 2644371
0.13488472 -0.16370302 1.1288149 3368356
-0.10163747 -0.16743854 1.1348346 2775444
-0.096394956 -0.1712229 1.1356208 2709910
0.13867551 -0.15356144 1.1296073 3368613
0.14264838 -0.1503493 1.12789 3499683
-0.10540508 -0.15909779 1.134497 2841497
0.14003621 -0.14597717 1.1318938 3237027
0.14452557 -0.14299875 1.1291018 3302821
-0.11209185 -0.14792523 1.1335754 2645144
-0.10845161 -0.14939392 1.1360592 2775964
0.14701211 -0.1328748 1.1297846 3237542
0.1508422 -0.12904869 1.1288148 3106215
-0.1144444 -0.13965233 1.1344117 2907291
0.14777368 -0.12324879 1.1301441 3499683
0.15070961 -0.1210896 1.128536 3303338
-0.11605128 -0.12980056 1.1352773 3039134
0.15177631 -0.11250922 1.1286854 3499947
-0.12216154 -0.11589187 1.132841 3236770
-0.11966211 -0.11999536 1.1361716 3236770
0.15283178 -0.10190789 1.1289493 3500458
-0.12258113 -0.1094258 1.1327755 3237027
-0.12075522 -0.10962984 1.136742 3302821
0.15451945 -0.091223627 1.1292608 3632048
-0.12321051 -0.099726692 1.1326773 3302824
-0.12135173 -0.10043726 1.1366489 3302569
0.15221798 -0.082466364 1.1291032 3632047
-0.12422895 -0.090702072 1.1325947 3434408
-0.12153085 -0.088114783 1.1365117 3434665
0.14811026 -0.071666285 1.1286989 4026292
-0.12446926 -0.080328479 1.132481 3631531
-0.12272019 -0.079348415 1.1364355 3631531
0.14767262 -0.063713901 1.1272427 4157366
-0.12488884 -0.073862411 1.1324155 4025255
-0.1220312 -0.068521276 1.1345831 3632304
0.14636479 -0.051989324 1.1266905 4289211
-0.11917227 -0.059331708 1.1338488 3568048
0.14253207 -0.04144026 1.1273141 4094399
0.14516909 -0.045652457 1.1286428 4224702
-0.11829246 -0.053234667 1.1320466 3764911
-0.11508881 -0.048678596 1.1344304 3895729
0.13945183 -0.033192988 1.1280701 4487616
-0.12061576 -0.035211947 1.1348882 6458567
-0.11545912 -0.038664944 1.1342235 3895996
0.13864572 -0.022195876 1.1269058 5735616
0.14527443 -0.018511601 1.1263298 9477559
-0.12033125 -0.032495096 1.1358516 6852289
-0.11708731 -0.032285281 1.1357838 5933254
0.042592466 0.07982064 1.1272782 9474701
-0.011964519 -0.22976902 1.147923 7248329
0.020894768 -0.22924671 1.1464535 5801654
0.028815515 -0.22760808 1.1457415 5210039
0.041649502 -0.22739881 1.1468138 6328255
0.049298517 -0.22690409 1.1466537 7379645
0.060824871 -0.22603664 1.1464112 8430007
0.068562537 -0.2237995 1.1422282 8625323
-0.050471477 -0.22419828 1.1406343 9678537
-0.03953892 -0.22342691 1.146933 4422071
-0.030148765 -0.22348231 1.1482182 2778029
-0.020290459 -0.22466335 1.1480327 2513574
-0.012517869 -0.2268782 1.1479011 2315684
0.017396988 -0.22567499 1.1472836 2120102
0.029416867 -0.22489756 1.147032 2185635
0.042458545 -0.22295657 1.1467466 2186146
0.047993042 -0.22369608 1.1466434 2316696
0.063149244 -0.22052085 1.1463012 4486314
0.070626535 -0.21966176 1.1441399 5997746
0.081576094 -0.21597922 1.1447341 6063288
0.090155117 -0.2139453 1.1456809 6589614
0.098255388 -0.21364087 1.1455139 8757678
-0.056671716 -0.21261111 1.140627 1855898
-0.049737692 -0.21464372 1.1437492 2249885
-0.041840747 -0.21640694 1.1476457 2381985
-0.033577137 -0.21799722 1.1482246 3039902
0.083783492 -0.20876032 1.1457503 2841504
0.089757979 -0.20782515 1.1456189 3302564
0.099129654 -0.20497236 1.1440635 4420011
0.10876814 -0.20355846 1.1394706 6984117
0.11796135 -0.20022628 1.1369606 6254993
-0.068458125 -0.20282389 1.1415532 2710418
-0.060465783 -0.2055414 1.1450049 2775447
-0.053556278 -0.2072998 1.1477053 2906776
0.10107996 -0.19692767 1.1448658 3171492
0.10942617 -0.19503966 1.1418749 3237285
0.11758032 -0.1933383 1.1374612 3629215
-0.071708336 -0.1960305 1.1455423 2775191
-0.06331297 -0.19896078 1.1479403 2906012
0.11081426 -0.18571027 1.1432739 3040421
0.11756522 -0.18362147 1.139727 3105703
0.12341567 -0.18352595 1.1366596 2777257
-0.088012122 -0.18303293 1.1409215 2710677
-0.080938093 -0.18643238 1.1443478 2709909
-0.074450985 -0.18960367 1.1467245 2709910
0.11824411 -0.17514488 1.1431962 3368100
0.12560216 -0.17287467 1.1386276 3302561
-0.089598618 -0.17654637 1.1439912 2710421
-0.084557138 -0.17903684 1.148008 2644886
0.11982463 -0.16724953 1.1445482 3040936
0.1276067 -0.16366203 1.1422626 3237031
0.13375053 -0.16038719 1.1391873 3368615
-0.10013091 -0.16419969 1.1409507 2776209
-0.094325259 -0.16826665 1.1456313 2841240
0.12912747 -0.15503903 1.1442208 3237287
0.13532151 -0.15245941 1.1389221 3302822
-0.10146853 -0.15757431 1.1454365 2710683
-0.096513756 -0.16052465 1.1481709 2841499
0.13708574 -0.14388497 1.1413437 3237541
0.14179398 -0.14089853 1.1374018 3237798
-0.1041342 -0.14916739 1.1460038 2907293
0.13825147 -0.13499928 1.1438076 3237797
0.14270902 -0.13221307 1.1386844 3303334
-0.11126611 -0.1379479 1.1420186 2907805
-0.108844 -0.1393695 1.1480447 2907805
0.14399073 -0.12272198 1.1411062 3434407
-0.11233596 -0.12867537 1.1434582 3039392
-0.10953896 -0.12962532 1.1487476 3039391
0.14530765 -0.11304583 1.1408421 3500202
0.14915089 -0.10993225 1.1352988 3631274
-0.11603447 -0.11970934 1.1452976 3170979
0.14663336 -0.10265017 1.1428241 3631791
0.14986467 -0.10192961 1.1369712 3566510
-0.11708403 -0.10939413 1.1463822 3105957
0.14506857 -0.091626905 1.141507 3632305
0.15024553 -0.092451878 1.1354104 3501227
-0.11815996 -0.099440567 1.1440037 3237546
0.14400698 -0.08261472 1.1405464 3698099
0.14853643 -0.082753345 1.1354007 3698094
-0.11816461 -0.089670286 1.1441303 3434923
0.14465107 -0.07327465 1.1409723 3895479
0.14689732 -0.075203255 1.1349473 3895477
-0.11845113 -0.079203814 1.1446357 3566256
0.14420442 -0.061964303 1.1421857 4027579
0.1465881 -0.061266825 1.1387953 4157882
-0.11805078 -0.07025744 1.1437688 3567024
0.14154145 -0.052584372 1.1416222 4159422
0.14578131 -0.052502006 1.1371109 4289724
-0.11642263 -0.060317259 1.1414256 3567791
-0.11334389 -0.058126222 1.1466732 3764403
0.13915558 -0.042695697 1.1400667 4356797
-0.11230799 -0.049167119 1.140453 3830196
0.13585962 -0.033315938 1.1390924 4619718
-0.11149704 -0.038167205 1.1426492 3896507
0.13101791 -0.021707036 1.1395465 4817095
0.13550754 -0.022027701 1.1362364 4948420
-0.11965997 -0.029491685 1.1438059 6916535
-0.1121598 -0.029541068 1.1433474 5210049
0.12980205 -0.015359953 1.1416101 5013440
0.13417862 -0.014682516 1.1391801 5998788
0.024827523 0.052035429 1.1388144 5859448
0.032963984 0.052620448 1.1367859 6122362
0.038563386 0.05314181 1.1396677 6319482
0.049648881 0.055168562 1.1434219 5330522
0.02508942 0.056493275 1.137234 5792108
0.032831687 0.057835557 1.1365288 5527648
0.038280703 0.05749815 1.1396236 5067354
-0.0061747711 -0.22933662 1.1508019 4354997
0.0012747627 -0.22986412 1.1526581 4684224
0.01110103 -0.22894847 1.1509823 4289976
0.021895371 -0.22594917 1.1501966 2054307
0.032338805 -0.22582388 1.1499844 2777510
0.037887745 -0.2265653 1.1498809 4026798
0.054321244 -0.2255024 1.149537 5604271
0.058049075 -0.22361079 1.1494402 4881326
-0.025782822 -0.22023025 1.1510935 3039902
-0.017781848 -0.22062743 1.1514367 2710943
-0.0091521423 -0.22195384 1.1540828 2645152
0.00095640868 -0.22413 1.1572669 2514339
0.010857571 -0.22339118 1.1565251 2514851
0.020559836 -0.2202684 1.1547599 2842787
0.030351073 -0.21923283 1.1523498 2908579
0.039984815 -0.21820901 1.1526327 3039651
0.05022385 -0.21824002 1.1535378 2908578
0.059491277 -0.21676949 1.1530839 2778020
0.06934607 -0.2144907 1.1505368 2646433
0.079045266 -0.21656775 1.1489358 5012145
0.090631671 -0.21710208 1.1487081 8955830
-0.039323911 -0.21266672 1.1515661 2841242
-0.029327748 -0.21407647 1.1534287 2775960
-0.020217991 -0.21474557 1.1551863 2841500
-0.010615604 -0.21626331 1.1587442 2907551
0.020960825 -0.21348235 1.1580751 3105184
0.030130029 -0.21251999 1.157879 3170722
0.040058546 -0.21187782 1.1576713 3302053
0.050135121 -0.21067211 1.1574541 3170723
0.060555562 -0.20907481 1.1572255 3105188
0.069780476 -0.20770039 1.1553088 3170467
0.079273522 -0.20691568 1.1512215 3236258
0.089133687 -0.20284846 1.14902 3171236
-0.056642972 -0.20242023 1.1515127 2906776
-0.049959272 -0.20421726 1.1525416 2907033
-0.04139024 -0.20461276 1.1560646 2841497
-0.031828582 -0.20803294 1.1590782 2775704
0.070446081 -0.2021566 1.1569468 3105443
0.079271428 -0.2015858 1.1567621 3105443
0.089775488 -0.19719377 1.1552365 3105956
0.09786579 -0.19382951 1.1514969 3105956
-0.068309665 -0.19217145 1.1516311 2644884
-0.06096483 -0.19524172 1.1545187 2775705
-0.052372865 -0.19753742 1.157039 2841497
0.092896663 -0.18962486 1.1563504 3172006
0.1003627 -0.18676502 1.1551667 3040421
0.10600992 -0.18407038 1.1525213 2974628
-0.077643022 -0.18397248 1.1517258 2645144
-0.070839085 -0.18527335 1.154663 2710425
-0.065341175 -0.18762949 1.1560919 2776216
0.10891528 -0.17522243 1.1526116 3171493
0.11367503 -0.17271128 1.149336 3237026
-0.081141829 -0.17613865 1.1542958 2710424
-0.074563958 -0.17788708 1.1581413 2710937
0.11146497 -0.16848046 1.1557339 3302823
0.11745367 -0.16403145 1.1524035 3172005
0.12301606 -0.1605331 1.1514088 3172006
-0.090585209 -0.16537033 1.1517743 2841498
-0.085937716 -0.1675456 1.1566298 2907290
0.11957435 -0.1568763 1.1554376 3303592
0.12556252 -0.15311335 1.15394 3237544
0.13128376 -0.14845273 1.1471027 3303337
-0.092859402 -0.15702523 1.1534395 2973342
-0.087949872 -0.15977293 1.1596593 3038879
0.12869675 -0.14512426 1.1544522 3237544
0.13276011 -0.14187177 1.1497985 3303336
-0.10162949 -0.14602295 1.1527764 2973342
-0.095282145 -0.14873795 1.1571804 2973600
0.13559504 -0.13253202 1.1508348 3368872
-0.10368606 -0.13826323 1.1540824 3039392
-0.098102778 -0.13866596 1.1596229 3236259
0.13631707 -0.12300812 1.1524619 3500460
0.14046186 -0.12035078 1.1465962 3434923
-0.10539728 -0.12870581 1.1545438 3170978
0.13679686 -0.11402044 1.1532663 3500719
0.14125164 -0.11126049 1.1498107 3500718
-0.11272725 -0.118021 1.1516799 3237029
-0.10871344 -0.11907391 1.1576126 3237286
0.14107116 -0.10236903 1.1524853 3697329
-0.11329607 -0.10925511 1.1515912 3237543
-0.11061976 -0.10856996 1.1590314 3172263
0.14168648 -0.093204305 1.1518627 3697843
-0.11416172 -0.099623948 1.1544994 3303340
-0.11205979 -0.098362811 1.1594439 3303852
0.14079295 -0.082790948 1.1521618 3764149
-0.11491742 -0.089920752 1.1514028 3500716
-0.11213314 -0.088290319 1.1593302 3501229
0.14302303 -0.072203092 1.1505668 3764661
-0.11507363 -0.081861742 1.1513139 3566512
-0.11204321 -0.07819251 1.1555756 3632306
0.13938516 -0.062210049 1.1504251 3896764
-0.11206581 -0.068553582 1.1554658 3698357
0.13280816 -0.052552212 1.1526442 4291265
0.13659741 -0.05353424 1.1470536 4225217
-0.11104905 -0.059465282 1.1549777 3764408
0.13295364 -0.042926807 1.1518643 4554434
0.13541359 -0.042553604 1.1458087 4488640
-0.1087776 -0.048576102 1.1556076 3895997
-0.10480858 -0.045080662 1.1586884 4027323
0.13184354 -0.032188863 1.1507638 4817354
-0.1079253 -0.039002642 1.1520133 3962044
-0.10391765 -0.037476335 1.1577833 4093118
0.12179974 -0.020452261 1.153833 5014224
0.12727742 -0.022876285 1.1497492 4751563
-0.1075309 -0.028557874 1.1505523 4290235
-0.10257719 -0.028063126 1.1549813 4158908
-0.096488774 -0.025337763 1.1582948 4028609
0.11964805 -0.013556659 1.1520194 4817874
0.12619299 -0.01290071 1.1466562 5145287
-0.10067206 -0.021299951 1.1527315 4487616
-0.095390365 -0.018246554 1.1568578 4356800
0.10999943 -0.0016425475 1.1518557 5276623
0.1164465 -0.0042812601 1.1480404 5604813
0.12587959 -0.0049051121 1.1464599 6720449
-0.093718432 -0.01112432 1.1580764 5671109
0.10781285 0.0038072839 1.1532664 5802961
0.1141329 0.0034040883 1.1490471 6787017
0.030897226 0.01466313 1.1552663 12972031
-0.024911134 0.020966806 1.1543202 5869264
0.0076927068 0.019440785 1.1556801 7515376
0.015193602 0.019556589 1.1555274 8764660
0.02480755 0.019735239 1.1553313 10146554
0.031493381 0.019133545 1.1552032 10870005
-0.083165742 0.025467247 1.1494429 8028800
-0.078076802 0.026163168 1.1493322 7305855
-0.020564476 0.022414334 1.1562164 5671370
-0.017254973 0.022628389 1.1561471 5869265
0.0059115663 0.024126776 1.1556624 6988787
0.01032424 0.02441217 1.1555701 7185904
0.095798604 0.03880427 1.1536804 6314850
-0.077183418 0.031233586 1.1492562 8028802
0.09248063 0.042135186 1.1537093 6117979
0.067733712 0.05099865 1.1461053 5593178
0.069924846 0.051140375 1.1460594 5658970
-0.004880229 -0.21882361 1.1626588 2973083
0.00072646141 -0.21957278 1.1625543 2973595
0.010119388 -0.21852732 1.1630195 2973598
-0.0255241 -0.209041 1.1629637 2842012
-0.019069219 -0.21001324 1.1628445 2776219
-0.0095580425 -0.2118682 1.1641979 2907806
0.00013725087 -0.21260667 1.1656452 2907807
0.010709899 -0.21246277 1.1656057 2973599
0.019364802 -0.20958588 1.1627307 3039136
0.030033212 -0.20789692 1.1631629 3170723
0.039967787 -0.20714152 1.162287 3236770
0.04970108 -0.20605704 1.1614113 3170979
0.058713324 -0.20526034 1.1612202 3170980
0.065247372 -0.20317003 1.1610645 3171236
-0.037168533 -0.20089984 1.1631056 2842012
-0.030298749 -0.20271103 1.1644427 2842011
-0.020539964 -0.20433319 1.1652714 2842012
-0.012145991 -0.20522717 1.1666511 2907805
0.03431876 -0.20361638 1.1656948 3302309
0.040219203 -0.20208725 1.1644151 3302308
0.048817754 -0.20142347 1.1628765 3171236
0.059568845 -0.20131373 1.1611578 3171236
0.070115261 -0.19923845 1.1625884 3105443
0.079777427 -0.19669351 1.1616974 3171492
0.086169831 -0.1944049 1.160542 3040420
-0.058919363 -0.19118881 1.1634337 2841497
-0.049974494 -0.19335969 1.1638114 2907291
-0.041356519 -0.19544482 1.1650107 2907549
-0.034577407 -0.19617271 1.1670003 2907551
0.082471743 -0.18934588 1.1645598 3040420
0.08931496 -0.18707722 1.1625005 3106213
0.096907288 -0.18400082 1.1602063 3106214
-0.060799152 -0.1847901 1.165399 2907290
-0.054010458 -0.18722112 1.1667901 2973340
0.093002729 -0.17973994 1.1642374 3302823
0.098831668 -0.17699742 1.1616879 3237030
0.10474063 -0.1731997 1.161703 3237031
-0.079031006 -0.17247745 1.1636257 2841497
-0.070416935 -0.17540176 1.1640188 2842012
-0.064116411 -0.17721002 1.1663795 2907547
0.10939933 -0.16520679 1.1606627 3368361
0.11424288 -0.16164446 1.1596009 3237285
-0.080890119 -0.16666818 1.1635967 2973085
-0.074055046 -0.16642368 1.1661936 3039135
0.111224 -0.15794848 1.1596195 3368615
0.11753269 -0.1541959 1.1601768 3237799
0.12186264 -0.15058967 1.1593207 3303337
-0.089108087 -0.15422888 1.1636205 2973857
-0.083431534 -0.15738322 1.1650978 3039137
-0.077405542 -0.15785141 1.1674267 3104930
0.11905728 -0.14656903 1.1613318 3172264
0.1250519 -0.14329833 1.1598397 3238059
-0.090807699 -0.14610958 1.1645622 3039650
-0.08654239 -0.14940599 1.1675146 3105700
0.12768239 -0.13334958 1.1611605 3369132
0.13185468 -0.13326663 1.1589209 3434410
-0.094097748 -0.13773449 1.1652473 3171236
0.12906496 -0.1251107 1.1620848 3500719
0.13225612 -0.12260762 1.1607915 3435183
-0.10204569 -0.12615924 1.1635606 3302823
-0.09722311 -0.12780397 1.1661495 3171495
0.13235886 -0.11248469 1.1604918 3566514
-0.1043183 -0.11763848 1.1649641 3368873
-0.10053597 -0.11855513 1.1666441 3368875
0.13445252 -0.10314762 1.1593244 3697588
-0.10578291 -0.10863612 1.1661031 3303850
0.13544804 -0.09343724 1.1618226 3763892
0.13855252 -0.092586778 1.1583207 3698099
-0.10780589 -0.098551214 1.1649617 3435181
-0.10188364 -0.098634265 1.1672437 3435438
0.1358211 -0.083259881 1.1622702 3829942
0.13856816 -0.082561173 1.159349 3764149
-0.10739047 -0.088827118 1.1652423 3501229
0.13495603 -0.069928601 1.1621352 3896505
0.13948455 -0.072546266 1.1598914 3830455
-0.10744142 -0.07895381 1.1646688 3632563
-0.10339751 -0.075304531 1.1670076 3567542
0.13208672 -0.062966987 1.1595415 4027837
0.13750686 -0.066193916 1.15804 3896505
-0.10733958 -0.068870075 1.1643462 3829940
-0.10383005 -0.068638884 1.1669401 3699127
0.12999105 -0.053456653 1.1607136 4291009
-0.10758937 -0.058729712 1.1637019 3895737
-0.10390592 -0.057647135 1.166816 4027576
0.12962306 -0.043427695 1.1599394 4422849
-0.10685914 -0.051980931 1.1628098 4158911
-0.10258084 -0.047977194 1.1646782 4093372
0.12892595 -0.03371346 1.1593423 4817355
-0.099458858 -0.038361557 1.1640435 4093630
-0.094885029 -0.034592252 1.1663704 4094397
0.12080884 -0.023461275 1.1601113 5080014
0.12547536 -0.026391923 1.1578279 4883149
-0.097868495 -0.030646093 1.1623844 4028348
-0.093508311 -0.027786225 1.1637641 4028864
0.11569348 -0.014133155 1.1596634 4949202
-0.090568423 -0.017980412 1.163911 4029123
-0.086459845 -0.015453942 1.1659815 3963586
0.10900139 -0.0046719089 1.1605794 5146069
0.11266679 -0.0088759065 1.1578861 5080276
-0.090305902 -0.010144807 1.1619974 5342665
-0.083258212 -0.0074948519 1.1658258 4882633
-0.020188322 0.00036030263 1.1644632 6070261
-0.0135237 0.00079136342 1.1643237 6528744
-0.0068590809 0.0012224168 1.1641842 8827627
0.0086916955 0.0022282153 1.1638589 10340848
0.017460367 0.0021578744 1.1636827 8895736
0.024995442 0.001943998 1.1635331 6266608
0.099145986 0.0075107291 1.1609725 5475287
0.1038119 0.0042705312 1.1592482 5475028
-0.080221154 -0.0013153926 1.1636934 5999306
-0.07364738 0.00022157282 1.1635432 5540557
-0.065327927 0.0040946379 1.1626642 5803727
-0.052698471 0.0066865981 1.1650469 4950220
-0.043683417 0.0061428249 1.1648712 5016280
-0.033948414 0.0061560497 1.1642745 5411294
-0.023959538 0.0067699179 1.1622254 5806569
-0.013961209 0.0074460208 1.1636562 7120874
-0.0044305194 0.0088168457 1.1640484 12379901
0.0061231134 0.0089484975 1.1613069 13891069
0.015918417 0.0093360841 1.1604309 12969723
0.025853472 0.010225154 1.1611047 9946095
0.035925686 0.010648638 1.1612993 10013177
0.045513548 0.013150759 1.1608363 7449069
0.052079402 0.01544676 1.162832 5411552
0.095959663 0.011186436 1.1594944 6526426
-0.051044174 0.011751823 1.1649556 6264275
-0.043569148 0.013015196 1.1622897 5803990
-0.034084566 0.014244817 1.1605839 5345755
-0.024181841 0.016149692 1.1603622 5412839
-0.014641454 0.017366126 1.1606559 5676266
-0.0055170134 0.01705692 1.162833 7253489
0.0042675501 0.017489105 1.1607729 8436213
0.014348881 0.015895039 1.1595874 12051453
0.028452106 0.021254368 1.1592414 10082302
0.036322586 0.02102223 1.1590853 10607102
0.044843003 0.020726241 1.1589167 7515119
0.05193235 0.020583302 1.1601089 6068200
-0.01279312 0.02303382 1.1600536 6001365
-0.0083652437 0.023320206 1.159961 6396124
0.10350785 0.036337294 1.1575541 6447199
0.0034656664 -0.20852028 1.1703748 3039391
0.010985089 -0.20744544 1.1717111 3039135
0.022413369 -0.20729476 1.1699784 3104930
-0.026236529 -0.19924718 1.1708683 2776478
-0.019775948 -0.19970661 1.1727437 2842271
-0.0097452141 -0.20067859 1.1747347 2907807
-0.0004081279 -0.20193265 1.1750746 2908063
0.0096653299 -0.20212145 1.1759781 2973600
0.019890055 -0.20048037 1.1752862 3105187
0.029754736 -0.19949976 1.174156 3236773
0.039337568 -0.19754469 1.1732596 3237029
0.050267346 -0.1969229 1.1730986 3171237
0.059912406 -0.19727403 1.1706073 3171236
0.069298916 -0.19510996 1.169816 3105444
0.078011997 -0.19306424 1.1686934 3171493
-0.038912922 -0.19114612 1.1742324 2841758
-0.030665813 -0.19291675 1.1748863 2907551
-0.021646885 -0.19341375 1.1775343 2842271
-0.010884272 -0.1938969 1.1784995 2908064
-0.0040784106 -0.19458377 1.1783699 2973857
0.017242862 -0.19320473 1.1779238 3105444
0.030020762 -0.19137645 1.177645 3237030
0.040059172 -0.19115193 1.1766396 3302823
0.049646072 -0.18975009 1.176307 3171495
0.058886312 -0.18774492 1.1756291 3105703
0.068586998 -0.18737876 1.1752204 3105703
0.0783014 -0.18627042 1.1731111 3105702
0.086398371 -0.18326534 1.1701269 3105958
-0.050696582 -0.18421003 1.1728375 2973598
-0.042519912 -0.18536159 1.1770399 2907551
-0.032489434 -0.18655962 1.1788516 2908065
0.07960397 -0.17772737 1.1764882 3237288
0.08830899 -0.17647392 1.173853 3302823
0.096761018 -0.17391041 1.1706681 3237287
-0.060785271 -0.17355865 1.1741298 3105183
-0.053054705 -0.17640685 1.1772678 2974112
-0.044592537 -0.17804423 1.1789986 2842786
0.089409396 -0.1696026 1.1761974 3171750
0.09775912 -0.1654585 1.1746478 3172008
0.10560625 -0.16323569 1.1701294 3303081
-0.06956321 -0.16444592 1.1720117 3104930
-0.063079201 -0.16629183 1.1779037 3170978
0.0997288 -0.15695618 1.1758446 3303337
0.1073456 -0.15496334 1.1734173 3368873
0.11412255 -0.15324821 1.1700555 3237543
-0.080162548 -0.15229692 1.1740873 3040164
-0.07318873 -0.15559915 1.1751075 3105701
-0.066452354 -0.15954679 1.1792283 3302822
0.10837635 -0.14583474 1.1755428 3303597
0.11551773 -0.14298454 1.1710012 3238059
0.12234424 -0.13949499 1.1691868 3303852
-0.082986496 -0.14612058 1.1751851 3106213
-0.075021222 -0.1476095 1.1792648 3172007
0.11591254 -0.13382858 1.1750534 3369387
0.12374093 -0.13312081 1.1710863 3435181
-0.090836011 -0.13639426 1.1727873 3237030
-0.084146596 -0.13659292 1.1769891 3237800
-0.077513032 -0.13959952 1.1792235 3303594
0.11733976 -0.12767297 1.1751543 3500972
0.12538755 -0.12289807 1.1716864 3500976
0.12977681 -0.11975241 1.1668105 3500977
-0.092536412 -0.12720981 1.1744949 3237545
-0.087694913 -0.12852497 1.1784133 3303852
0.12662075 -0.11324748 1.1748021 3566772
0.12987633 -0.11340886 1.170737 3566515
-0.095668949 -0.11768137 1.1745881 3369389
0.12685843 -0.10367897 1.1746879 3763639
0.13005522 -0.10258407 1.1697206 3763639
-0.10337296 -0.10433319 1.1726738 3435181
-0.097708613 -0.10762918 1.1758361 3435438
0.12678178 -0.092574388 1.1745625 3895737
0.13164295 -0.092192076 1.1692821 3764149
-0.10327164 -0.097825937 1.1736643 3435438
-0.097789459 -0.098063 1.177619 3501231
0.12641762 -0.08696267 1.1745057 3961530
0.13142219 -0.082702652 1.169178 3961528
0.13831843 -0.078900844 1.1661711 3895735
-0.10357781 -0.08856909 1.1741648 3501489
-0.099275827 -0.088039108 1.1769551 3501490
0.12525237 -0.069005162 1.1743239 4159679
0.13115788 -0.073357046 1.1695259 3962041
0.13817377 -0.076671362 1.1661485 3895735
-0.10454132 -0.081285141 1.1731007 3501747
-0.099896424 -0.077761054 1.175634 3567541
0.12409155 -0.062693596 1.1742752 4225473
0.12772849 -0.06300211 1.1702042 4159424
-0.098805234 -0.067528643 1.1744281 3764919
0.12326764 -0.053855676 1.1741908 4422597
0.12707524 -0.05293522 1.1701022 4357059
-0.098949984 -0.057747222 1.1741477 3896505
-0.094124123 -0.057271842 1.1786176 3962298
0.12245512 -0.043263823 1.1740861 4685767
0.126422 -0.042868335 1.1700003 4422851
-0.098119915 -0.048567384 1.172197 4027836
-0.093124427 -0.046422504 1.1773821 4028094
0.11985574 -0.032838009 1.1719011 4948684
0.12576547 -0.034405235 1.166916 4751818
-0.096984386 -0.040387709 1.1704801 4093632
-0.091530919 -0.036518943 1.1761736 4094399
0.11249232 -0.022869848 1.174054 5080784
0.11676751 -0.023711279 1.169176 5211343
-0.088866435 -0.027901761 1.1745384 4094402
-0.082498185 -0.024393059 1.1770067 4226244
-0.076109901 -0.022295065 1.1778542 4620744
-0.022318462 -0.017688863 1.1767157 5412064
0.00012498163 -0.016237244 1.1762462 6463211
0.0084266942 -0.01954557 1.1761165 6397929
0.018050477 -0.018281065 1.1759077 6397929
0.027140347 -0.015777998 1.1756957 6003432
0.10884386 -0.013833135 1.1715237 5081042
0.11413302 -0.016658165 1.1659477 5081041
-0.081750765 -0.016568735 1.1717675 4160963
-0.073646635 -0.015052997 1.1768643 4752075
-0.058810614 -0.011032678 1.1773763 4949201
-0.052041158 -0.011158377 1.177241 5016022
-0.042422742 -0.011664987 1.1763859 5213659
-0.032567486 -0.011939272 1.1756258 5411552
-0.022684703 -0.012079269 1.1758589 5740773
-0.012583062 -0.011423916 1.1764476 6003172
-0.0024929177 -0.01077231 1.1758364 6331366
0.0075279986 -0.010124907 1.173026 6989552
0.017615177 -0.0094726309 1.173215 6792432
0.027664822 -0.0088216662 1.1723546 5937640
0.036119543 -0.0073352978 1.1744176 5806054
0.04674641 -0.0053324774 1.1751806 5674725
0.053406611 -0.0037746355 1.1750283 5674983
0.099298999 -0.0033422634 1.1740971 5146841
0.10532155 -0.005076848 1.1682795 5080789
-0.078947514 -0.007877335 1.1697444 4554184
-0.075501524 -0.0067959726 1.1726632 4751049
-0.060240351 -0.0055101365 1.1753414 4818129
-0.052830927 -0.0050367191 1.1743861 5015507
-0.043381825 -0.0044462308 1.1707878 5147609
-0.033323616 -0.0038043708 1.1692771 5346018
-0.023627529 -0.0035338625 1.1716901 5937898
-0.013149457 -0.0036018789 1.1717017 6462952
-0.0027833804 -0.0021911636 1.1705872 8303605
0.0065553579 -0.0017006472 1.169377 8501495
0.016437154 -0.0020497367 1.1683681 7252467
0.027702048 -0.00076879561 1.1689655 6069484
0.036776446 0.00091668963 1.1696246 6135528
0.046952851 0.001221709 1.1725124 5741031
0.056340277 0.0020412132 1.1739023 5543655
0.065733925 0.0039584041 1.1746911 5477092
0.075690039 0.0059316978 1.1744676 5739747
0.087052621 0.006416142 1.1742327 5280481
0.096347429 0.0043493137 1.1703753 5015513
0.10190499 0.0027092993 1.1679736 4949463
-0.072694108 -0.00075635314 1.1695368 4818122
-0.063346475 0.00084326416 1.1693299 5147606
-0.054725811 0.0021471158 1.1691409 4818639
-0.045944415 0.00097377598 1.1689771 5344472
-0.001397755 0.0044147 1.1680386 12971007
0.0030966951 0.0041456744 1.167951 12905215
0.027617246 0.0057316273 1.1674379 5807584
0.040992096 0.0065966919 1.1671581 6004710
0.046980619 0.0079435334 1.1670219 5807083
0.055635124 0.011005901 1.168946 5477863
0.064198986 0.011149131 1.1713055 5542628
0.07624393 0.008972995 1.1744215 5673698
0.086631551 0.011592455 1.1726816 5804766
0.09226235 0.009912774 1.1660854 5147865
0.05810187 0.018897533 1.1666721 5412324
0.0029016025 -0.19701776 1.1822579 3039650
0.0093774907 -0.19724512 1.1821297 3039650
-0.017877443 -0.19044563 1.1826022 2842271
-0.011121605 -0.19000867 1.1824608 2973857
-0.00072389841 -0.19041707 1.183519 2973857
0.009144811 -0.19152242 1.1845959 3039395
0.019639861 -0.18891263 1.1836056 3171237
0.02881873 -0.18690504 1.1826861 3237030
0.039114591 -0.18568276 1.1829362 3302569
0.047439538 -0.18528786 1.1825585 3237546
-0.038180105 -0.18125781 1.1829069 2908065
-0.030557366 -0.18173411 1.1827585 2973857
-0.021760838 -0.18292248 1.1835947 2973857
-0.011891104 -0.18417785 1.1845279 2973858
-0.0035258159 -0.18444854 1.186245 3105444
0.028107846 -0.18240254 1.185583 3237030
0.039684407 -0.18014085 1.1853235 3302825
0.048559934 -0.17911385 1.1848249 3171754
0.058394082 -0.1790143 1.1829325 3171752
0.068674728 -0.17793098 1.1821243 3171753
0.076882951 -0.17428012 1.181505 3237546
0.084908232 -0.17135802 1.1803093 3303592
-0.049945049 -0.17254096 1.1830447 2908579
-0.041589238 -0.1741547 1.184895 2908579
-0.031663582 -0.1749765 1.1856134 3105444
-0.022895971 -0.17616999 1.1865412 3105443
0.071582429 -0.17051315 1.1845696 3303339
0.079423316 -0.16774139 1.183046 3303082
0.087622032 -0.16511948 1.1807548 3237545
0.093331411 -0.16176623 1.1800296 3303850
-0.059683591 -0.16186213 1.1831192 3302822
-0.052762106 -0.16570604 1.185274 3040165
-0.045370817 -0.169 1.1869129 3040167
0.082293592 -0.16074285 1.1842418 3303598
0.088064693 -0.1563758 1.183134 3238061
0.096436888 -0.15378731 1.1809871 3303596
0.10393345 -0.15090266 1.1796914 3369131
-0.07012406 -0.15198259 1.1832169 3171751
-0.063449457 -0.15517716 1.1845309 3368615
-0.056272008 -0.15835817 1.1870112 3171751
0.10534855 -0.1442073 1.1810868 3369134
-0.072551228 -0.14507161 1.1831869 3369130
-0.0662589 -0.14659834 1.1860782 3434922
0.10587724 -0.13447219 1.1825128 3435183
-0.074802443 -0.13658758 1.1844691 3434923
0.10816685 -0.12721308 1.182536 3501232
0.1146967 -0.12365805 1.1817516 3435694
0.1212481 -0.12151097 1.179006 3501232
-0.083734512 -0.12600212 1.1841949 3369646
-0.077752382 -0.12936009 1.1857797 3435182
0.11784631 -0.11419047 1.182992 3567282
0.12186369 -0.11341701 1.1807197 3567027
-0.092949226 -0.11387837 1.1832421 3501231
-0.088064767 -0.11747333 1.1859353 3435439
0.11733306 -0.10628085 1.1829119 3829686
0.12220787 -0.10316502 1.1809996 3829431
-0.09316846 -0.11049993 1.1832079 3501231
-0.088968068 -0.10696445 1.1847497 3567024
0.12391163 -0.093650982 1.1813011 3830201
-0.094081908 -0.096423112 1.1830653 3632818
-0.0907728 -0.096910782 1.1850046 3698612
0.12532391 -0.08293397 1.1804832 3896507
-0.094703048 -0.086850874 1.1829685 3633333
-0.090797782 -0.086766146 1.1856893 3764919
0.12448872 -0.072763667 1.1798837 4093886
-0.095723428 -0.078096069 1.182889 3633334
-0.091690689 -0.076867409 1.1859944 3830201
0.12088323 -0.063345067 1.1805712 4291523
-0.091966316 -0.066577569 1.1843486 3896506
0.11970324 -0.052921657 1.1798534 4619975
-0.08931113 -0.056834798 1.1842312 4028348
0.11315367 -0.04187388 1.1822599 5146320
0.11769568 -0.043815713 1.1811903 4883148
-0.088235736 -0.047345277 1.182672 3962814
-0.083302632 -0.04563836 1.1851251 3963072
0.11156197 -0.033146638 1.180692 5146577
0.11538133 -0.034545552 1.1786304 5080527
-0.087457135 -0.038207065 1.1822661 4028607
-0.08136262 -0.036040928 1.1842523 4291526
-0.031647392 -0.030814983 1.1850562 5147865
-0.024205545 -0.030106723 1.1848979 5344731
-0.007995462 -0.028150529 1.1845484 5345501
-0.0012168195 -0.027712092 1.1844065 5739743
0.009057343 -0.029297367 1.1828836 5936862
0.018098991 -0.028717473 1.1830279 5871068
0.028230615 -0.026942156 1.1838033 5739228
0.046233673 -0.024643064 1.1834136 5213656
0.10911272 -0.024406001 1.1805414 4949970
-0.080114588 -0.028515562 1.1820071 4422856
-0.071973197 -0.023198389 1.1836007 4686797
-0.061696328 -0.021401331 1.1835545 4884690
-0.051200442 -0.02214855 1.1848516 4950486
-0.040736616 -0.02224081 1.183808 5213659
-0.032148436 -0.022878177 1.1817747 5279707
-0.021929169 -0.023352817 1.1819739 5345244
-0.011894783 -0.021069072 1.1816565 5411808
-0.0019899365 -0.021546572 1.1812599 5806052
0.0075089689 -0.024073318 1.1801877 6068964
0.019543706 -0.023671873 1.1799402 6068963
0.029422138 -0.020638019 1.1806295 6003173
0.037765916 -0.018367484 1.1813123 5608417
0.047955632 -0.017711654 1.1816993 5411038
0.054831922 -0.017278805 1.1831559 5279709
0.099288955 -0.012652382 1.1812824 5212630
0.10511938 -0.015890993 1.1794578 5015248
-0.068686336 -0.017315835 1.1816484 4949712
-0.061930493 -0.016878873 1.181507 4949713
-0.051796734 -0.016223438 1.181295 5016279
-0.042389281 -0.015991941 1.1811025 5213659
-0.033708103 -0.01618436 1.1809294 5345501
0.038880616 -0.010924004 1.1794043 5871590
0.04728888 -0.0098147318 1.1792219 5871847
0.057418317 -0.0069021285 1.1809846 5543139
0.064619787 -0.0053020194 1.1811067 5280225
0.089121692 -0.003714107 1.1823088 5411294
0.095010072 -0.0047754049 1.1796559 5279196
0.066445328 -9.419024e-005 1.1787241 5411556
0.075906493 0.0022140592 1.1785067 5412066
0.087166227 0.0029423237 1.1782712 5477344
0.094068207 0.0011269823 1.1781526 5213404
0.0099502411 -0.18681902 1.1900011 3105189
-0.010901865 -0.17967467 1.1913407 3039906
-0.0010762867 -0.18117371 1.1915882 3039908
0.0085500078 -0.18169524 1.193305 3105447
0.019032467 -0.18026504 1.1904931 3105702
0.027999351 -0.17844108 1.1895411 3171750
0.036938146 -0.17744893 1.1893493 3237289
0.04825655 -0.17485386 1.1890912 3237548
0.058458723 -0.17419399 1.1888777 3171752
0.067527317 -0.17360744 1.188688 3171752
-0.03925208 -0.1700395 1.1908025 3039909
-0.031355225 -0.1702525 1.1915346 3105701
-0.023012517 -0.17235138 1.1930472 3105443
-0.013056627 -0.17709748 1.1943554 3040163
0.017593451 -0.17420122 1.1937037 3105960
0.028895026 -0.1723533 1.1934545 3105958
0.037857972 -0.17026718 1.1924495 3237545
0.048141576 -0.16854997 1.1911273 3237547
0.058131181 -0.16759542 1.1904093 3237544
0.068159282 -0.16671827 1.1902812 3237545
0.076642722 -0.16418761 1.1890632 3303339
-0.051085092 -0.16135526 1.1909419 3172009
-0.042428419 -0.16394179 1.1931975 3105961
-0.032938093 -0.16553226 1.1946245 3171752
0.051035598 -0.16152886 1.1928838 3303337
0.057859845 -0.16108748 1.192741 3303593
0.067870468 -0.15946087 1.1925204 3303594
0.076862358 -0.15627185 1.1910521 3303596
0.083515771 -0.15435722 1.1881453 3238062
-0.059005097 -0.15332872 1.1910101 3434409
-0.053105563 -0.15468512 1.1937307 3237547
-0.044608273 -0.15649942 1.1947567 3237805
0.077374503 -0.14890976 1.1922079 3238318
0.086437732 -0.14539596 1.1908646 3238572
0.096491002 -0.14454782 1.1889715 3434926
0.10291348 -0.14353916 1.1876301 3369134
-0.06190066 -0.14445296 1.1921982 3435179
-0.055793546 -0.14604899 1.1944185 3369388
0.090652421 -0.13840467 1.1918198 3500977
0.096012048 -0.13452187 1.190667 3435186
0.10139845 -0.13422549 1.1875541 3500720
-0.071097024 -0.1342856 1.1920367 3566511
-0.065187573 -0.13677146 1.1936129 3566767
-0.057796866 -0.13886754 1.1948214 3500977
0.096988551 -0.12680499 1.1910592 3501234
0.10464598 -0.1238908 1.1881206 3501490
-0.081542946 -0.12176973 1.1911042 3566770
-0.074448779 -0.12587734 1.1936086 3632306
-0.067486405 -0.13035566 1.1949197 3632563
0.1059197 -0.11510788 1.1898333 3699127
0.11322039 -0.11336733 1.1875478 3633076
-0.083090417 -0.11625973 1.1920727 3566770
-0.076980338 -0.11673461 1.1949556 3763892
0.10625179 -0.10598181 1.1911343 3633335
0.11272231 -0.10338915 1.188529 3764407
-0.083838314 -0.10618895 1.1937732 3698868
-0.079440311 -0.1065054 1.1948882 3699126
0.10604542 -0.094000764 1.1910015 3962811
0.11255237 -0.093680307 1.1896995 3830969
0.12021702 -0.093431689 1.186708 3830714
-0.085691772 -0.096351437 1.1918206 3699126
-0.080341004 -0.096536592 1.1947925 3830712
0.11261758 -0.08370968 1.1901511 4028606
0.12069899 -0.083316602 1.1865826 3962300
-0.085713372 -0.086841032 1.1923895 3830970
-0.080795735 -0.086176299 1.1946832 3962813
0.11231425 -0.074646175 1.1906537 4291522
0.12007795 -0.073767297 1.1868497 4094399
-0.086663872 -0.076811761 1.1924083 3962044
-0.08173231 -0.076771908 1.1945946 4093630
0.1131935 -0.063825451 1.1902455 4554438
0.11800136 -0.064299107 1.1864196 4357059
-0.086699523 -0.066753693 1.191913 4093886
-0.08212442 -0.065700404 1.194476 4291009
0.11066979 -0.053428825 1.1895553 4686026
0.11662841 -0.053165488 1.1863201 4685769
-0.085589252 -0.059413586 1.190473 4159935
-0.080701053 -0.056594886 1.1932 4225985
0.10279752 -0.043948591 1.1904949 5015248
0.10889963 -0.044857897 1.1877148 5014991
-0.078342527 -0.046611499 1.1922985 4292037
-0.07280115 -0.048452102 1.1940906 4619977
-0.050496541 -0.040155534 1.1935456 5279449
-0.042534918 -0.039640587 1.1933789 5016538
-0.029949976 -0.039968934 1.1931287 4950743
-0.020340988 -0.041027337 1.1929469 4950488
-0.011274429 -0.040284131 1.1927553 5147351
-0.00091000274 -0.038661841 1.1925277 5278422
0.009766642 -0.040299561 1.1914418 5212886
0.019036733 -0.039044704 1.190379 5278423
0.028942732 -0.037559852 1.1906621 5147094
0.039870866 -0.037248112 1.1916884 4885460
0.049224153 -0.035143387 1.1907481 4950741
0.05829557 -0.034032889 1.1912798 5016279
0.10064478 -0.034228396 1.1890268 5212370
0.10804629 -0.03493521 1.1862849 5212369
-0.076718882 -0.039526079 1.1920671 4423370
-0.074865274 -0.036208682 1.1915916 4554187
-0.050361559 -0.035116665 1.1932185 5147610
-0.040607877 -0.033772569 1.1912725 5081818
-0.031375363 -0.035454821 1.1911054 5016538
-0.020340329 -0.033300176 1.1909914 5278938
-0.011294276 -0.032107383 1.1907952 5344730
-0.00081280246 -0.032320514 1.189519 5673948
0.0095138941 -0.033907842 1.1882619 5805277
0.018582489 -0.033321299 1.1880721 5541848
0.028711088 -0.031527676 1.1878471 5475544
0.038766116 -0.028600335 1.1876107 5213397
0.049451135 -0.028526396 1.1881003 5082070
0.059103534 -0.027101658 1.1895838 5016536
0.067913145 -0.024337508 1.1909748 5213915
0.078573696 -0.022668876 1.1907406 5279453
0.089522019 -0.022417672 1.1905167 5213659
0.099094413 -0.024740502 1.1887497 5212628
0.10564702 -0.024274588 1.1862115 5146833
-0.074959159 -0.030263379 1.1899252 4554443
-0.049911521 -0.026821733 1.1893803 5016281
-0.042597793 -0.027259491 1.1892377 5147611
-0.011479 -0.02615758 1.188597 5411294
0.058886193 -0.017052449 1.1870726 5148123
0.067593031 -0.01649186 1.1870906 5213915
0.077651985 -0.016055942 1.1884221 5213917
0.088391133 -0.01528953 1.1887734 5213659
0.09645059 -0.016524591 1.1866418 5212887
0.088673435 -0.0082948059 1.1863713 5279708
0.093207739 -0.0080015361 1.1862764 5411037
-0.0072872732 -0.17741808 1.199244 3106213
-0.0015766416 -0.17704871 1.1991245 3105959
0.0097238161 -0.17697331 1.1988956 3105706
0.020123756 -0.17564517 1.1986705 3105960
-0.018582216 -0.17126605 1.1994016 3105700
-0.01107369 -0.17202584 1.200009 3105957
-0.0019319355 -0.17143457 1.1998177 3106216
0.0083799772 -0.1708802 1.2004535 3106217
0.018960493 -0.16968119 1.2000548 3171752
0.026801458 -0.16868231 1.1995473 3303337
0.037804779 -0.16532481 1.1981956 3369130
0.044657536 -0.16488159 1.1980522 3369132
-0.031875066 -0.16088657 1.1998847 3171753
-0.02201795 -0.16264552 1.2020931 3171752
-0.01168846 -0.16224033 1.2039607 3172010
-0.0024222098 -0.16291408 1.2047316 3172012
0.0075820331 -0.16184309 1.2053131 3237802
0.018169276 -0.16046003 1.204538 3303338
0.027358137 -0.15989192 1.2045461 3369133
0.037599642 -0.15901119 1.2026088 3369388
0.047675982 -0.15802944 1.2017034 3303853
0.056823134 -0.15627925 1.1994588 3369643
0.066825055 -0.15483949 1.1977254 3303851
-0.050331041 -0.15037762 1.1998036 3303598
-0.042022534 -0.15265803 1.2013768 3303341
-0.03329543 -0.15380773 1.2046432 3303340
-0.023820737 -0.15461329 1.2073191 3369132
-0.015546022 -0.15596764 1.2071676 3303600
0.017796079 -0.15381113 1.20647 3303598
0.030443082 -0.15299314 1.2062054 3435186
0.03791631 -0.15250978 1.206049 3369391
0.047688995 -0.1518777 1.2058445 3369392
0.057278335 -0.14834142 1.204995 3369390
0.066683307 -0.14669272 1.2012008 3435184
0.075866401 -0.14450954 1.1971895 3369392
-0.051718593 -0.14344116 1.2005526 3369646
-0.044355989 -0.14524911 1.2052259 3303853
-0.036838062 -0.14810693 1.2075075 3173034
0.058699891 -0.14008012 1.2054875 3566773
0.066768765 -0.13825184 1.2046368 3566516
0.07637646 -0.13576904 1.2014804 3500977
0.086258121 -0.13580766 1.1985649 3500975
-0.062654324 -0.13216564 1.1998441 3632562
-0.053536184 -0.13463134 1.2026892 3501236
-0.04593531 -0.13427897 1.2070885 3501494
0.078082934 -0.12652858 1.2049413 3698612
0.085606419 -0.12640196 1.2024237 3567283
0.094235361 -0.12341997 1.1995118 3567283
0.10137962 -0.11991748 1.1963934 3501747
-0.070458166 -0.12300201 1.1998969 3895478
-0.064673558 -0.12515013 1.2023054 3698613
-0.055658653 -0.12548935 1.2062951 3633080
0.079091035 -0.11982369 1.2048442 3699128
0.085429013 -0.11621604 1.2046751 3830713
0.094838813 -0.11522942 1.2032737 3699126
0.10142139 -0.11349104 1.196319 3633333
-0.072282329 -0.11509033 1.1998433 3961271
-0.065419763 -0.11506079 1.2047058 3896247
-0.058472723 -0.1171738 1.2075906 3764921
0.084872879 -0.1092881 1.2046071 3962300
0.0955391 -0.10608515 1.2038845 3896506
0.10282908 -0.10376459 1.19818 3764920
-0.074214935 -0.10586305 1.2012773 3830712
-0.067294747 -0.10494262 1.2062951 4093627
0.097804047 -0.095056862 1.2041835 4028352
0.10303827 -0.09416078 1.1987329 3962812
-0.075271979 -0.095588863 1.2016813 3962556
-0.068664402 -0.096246891 1.2071124 4028606
0.096604772 -0.084708862 1.2040894 4357317
0.10293342 -0.08452715 1.1999584 4225985
0.1079964 -0.080488265 1.195809 4225985
-0.075364746 -0.086567789 1.20158 4028606
-0.070476577 -0.086387567 1.2074809 4094655
0.096610166 -0.076658398 1.2039973 4554695
0.1021998 -0.074178271 1.1992549 4554182
0.10821423 -0.072062135 1.1957083 4619462
-0.076766372 -0.075998671 1.1999576 4159424
-0.068746485 -0.074431136 1.2060782 4160448
-0.062532537 -0.072401911 1.2071606 4554440
0.096204489 -0.063289769 1.2038525 4620747
0.10178401 -0.063970417 1.2014972 4686026
0.1081008 -0.064422175 1.1956233 4619977
-0.076782942 -0.06632103 1.1993766 4291265
-0.068631165 -0.065752193 1.204457 4357573
-0.062980242 -0.065502487 1.2070909 4751563
0.010811461 -0.058035381 1.2055161 4818903
0.018426567 -0.056773026 1.2053479 4819160
0.093812764 -0.054899458 1.203805 4752590
0.1011858 -0.054788444 1.2014042 4817869
0.10643979 -0.056499939 1.1955662 4752076
-0.075420611 -0.056627568 1.1992383 4291778
-0.069414452 -0.055500712 1.2026842 4554440
-0.063502565 -0.057453159 1.2070093 4883149
-0.045493677 -0.049240164 1.2025509 5674209
-0.039764039 -0.04886958 1.2024311 5082331
-0.028204748 -0.050948195 1.2040887 4950745
-0.018844085 -0.052107144 1.2014456 4884953
-0.0096820612 -0.051507413 1.2010537 4753366
0.00057649612 -0.049732771 1.2020267 4884692
0.011227498 -0.050678462 1.2009779 4884692
0.019934015 -0.049384888 1.2014426 4884692
0.030080654 -0.047510874 1.2036731 4950484
0.041020378 -0.047773506 1.2016771 4950488
0.049783275 -0.046936203 1.2024844 4950489
0.06029357 -0.044795338 1.203299 5411037
0.069261283 -0.043958586 1.2041754 5542623
0.083214864 -0.041035317 1.2038603 5213404
0.091162063 -0.043408133 1.203727 5081558
0.099548385 -0.045135144 1.2011769 5015248
-0.070877165 -0.045845971 1.1990234 4685772
-0.048709169 -0.043936271 1.1996453 5542365
-0.039746746 -0.04353682 1.1995118 4951002
-0.030958449 -0.044008955 1.1981966 4884951
-0.021596314 -0.045280501 1.1980221 4753366
-0.007964924 -0.043251745 1.1977239 4950484
0.00090508163 -0.042964816 1.1975416 5015763
0.030941486 -0.041882433 1.1969229 5015764
0.03779424 -0.041439209 1.1967795 4885461
0.049641453 -0.039689723 1.1965204 4884950
0.060374528 -0.03791105 1.1981301 5082072
0.069715284 -0.03613577 1.200876 5542624
0.079396948 -0.036645476 1.203087 5279197
0.089388207 -0.034776296 1.2000632 5213144
0.096754678 -0.036861002 1.1955372 5212627
0.063470155 -0.030601762 1.1961374 5016538
0.069069587 -0.02851896 1.1960006 5213917
0.078426704 -0.02542837 1.1957763 5345245
0.088916376 -0.027057722 1.1962502 5213917
0.18019553 -0.02321545 1.2016991 13158081
-0.0026692357 -0.15793055 1.2109313 3303598
0.010019578 -0.15710986 1.2106658 3303850
-0.031734787 -0.14915182 1.2114176 3303853
-0.02187614 -0.15010995 1.2115868 3304111
-0.012155054 -0.15158676 1.2131561 3303857
-0.0030637141 -0.15131764 1.2136143 3303856
0.00734792 -0.15067318 1.213647 3369903
0.017570226 -0.14851165 1.2104151 3435441
0.026675422 -0.14883739 1.2102351 3435187
0.037088171 -0.1475251 1.2100099 3500978
0.047561966 -0.14657183 1.2097876 3369649
0.054147616 -0.14452392 1.2096312 3435441
-0.040370516 -0.14221844 1.2115127 3370159
-0.033783942 -0.1425648 1.2113837 3370416
-0.023389647 -0.14213312 1.2134196 3436469
-0.012962377 -0.14175436 1.2159555 3502005
-0.0036961418 -0.14115505 1.2157615 3501749
0.0069538904 -0.14395617 1.2155787 3501493
0.017107263 -0.13967186 1.2140744 3567542
0.026406232 -0.13917366 1.2148187 3567541
0.036761899 -0.13837454 1.2134128 3633333
0.047019191 -0.13743643 1.2106318 3567541
0.055529833 -0.13616429 1.2095078 3633079
0.065402493 -0.13333595 1.2092762 3632566
-0.04130403 -0.1337828 1.2114351 3501750
-0.034395047 -0.13358201 1.213794 3567798
-0.025931085 -0.13355508 1.2161235 3633848
-0.012179965 -0.13588718 1.2158726 3633591
-0.0052302834 -0.13543768 1.2157272 3699128
0.016701853 -0.13285583 1.215255 3830714
0.027126368 -0.13218158 1.2150369 3764921
0.036541693 -0.13062081 1.214829 3830712
0.047007222 -0.12903105 1.2142423 3830713
0.055672109 -0.12817299 1.2137481 3830458
0.065920494 -0.12726329 1.2115654 3764409
0.073890388 -0.12522741 1.2095679 3764407
-0.051005267 -0.12351991 1.2115135 3698874
-0.04431536 -0.12375022 1.2136317 3764923
-0.035676017 -0.12385762 1.2162093 3765435
-0.028997252 -0.12766834 1.2161181 3699641
