# .PCD v0.7 - Point Cloud Data file format
VERSION 0.7
FIELDS x y z rgba
SIZE 4 4 4 4
TYPE F F F U
COUNT 1 1 1 1
WIDTH 174
HEIGHT 1
VIEWPOINT 0 0 0 1 0 0 0
POINTS 174
DATA ascii
-0.34955859 0.096373655 1.0892756 5134174
-0.34290409 0.095534042 1.0910236 5134176
-0.35056347 0.1009673 1.0891314 4871515
-0.35718504 0.077759095 1.0939934 4936281
-0.34687528 0.076400913 1.0967 5199967
-0.34219232 0.076945275 1.0979606 5397348
-0.36576459 0.08352787 1.0915548 4673880
-0.3577911 0.083918065 1.0917019 4870232
-0.34881055 0.085040949 1.094864 5068382
-0.33957717 0.08649338 1.0979242 5068384
-0.33248258 0.08887808 1.1008638 4476504
-0.36687919 0.092914514 1.0900952 4607822
-0.35974935 0.09375827 1.0906346 4673623
-0.34911487 0.094239794 1.0934769 5134174
-0.33920422 0.096292779 1.0961688 4739419
-0.33202749 0.096889682 1.0994252 4081746
-0.36844394 0.10117277 1.0916255 4410445
-0.35977939 0.10324968 1.090881 4213839
-0.34993851 0.10490946 1.0935438 4345429
-0.34021991 0.10562333 1.0961486 4016211
-0.33266073 0.106158 1.0993686 3621193
-0.35981235 0.10872461 1.091019 3884109
-0.35091186 0.11074773 1.0934412 3752784
-0.34089705 0.11184372 1.0961353 3621192
-0.33377382 0.11157417 1.0980233 3686459
-0.3665334 0.064450651 1.1019443 4673626
-0.35790059 0.06452433 1.1013031 4870741
-0.34902254 0.064382002 1.1038523 5265754
-0.3395043 0.066207156 1.1067103 5397604
-0.33238032 0.069803111 1.1117662 4608350
-0.36750352 0.073399581 1.0978595 4673629
-0.35873637 0.072859339 1.0979348 4870744
-0.35036099 0.072252519 1.0998019 5134174
-0.33890772 0.075596683 1.1036139 5397606
-0.33211255 0.077193506 1.1097771 4476760
-0.32712328 0.081853352 1.113488 4015442
-0.37626621 0.080725312 1.1003827 3883351
-0.37158862 0.081261627 1.0962588 4475995
-0.33859298 0.082197823 1.1031995 5068641
-0.33068407 0.086334623 1.1075394 4082513
-0.3262355 0.088020422 1.113372 3752531
-0.37357518 0.091088586 1.0947515 4079443
-0.32966748 0.095620483 1.1074867 3621705
-0.32585448 0.093689039 1.1116585 3751503
-0.33167994 0.10301431 1.1055968 3490378
-0.35638371 0.047264639 1.1161621 5002588
-0.35331064 0.047600944 1.1169887 5528419
-0.36766604 0.055687234 1.113386 4739163
-0.35963267 0.053669538 1.1124215 5002333
-0.35046321 0.054365132 1.1148223 5397092
-0.3421846 0.057315234 1.1185088 5332066
-0.33693564 0.059050255 1.1216524 4740695
-0.36811739 0.05962988 1.1079372 4082256
-0.36086535 0.059259396 1.1080453 5068120
-0.33943221 0.062143259 1.1158954 5200736
-0.33245623 0.066293836 1.1200742 4345175
-0.32643935 0.068900175 1.1241176 4278096
-0.3300617 0.076092616 1.1175795 4147028
-0.32643375 0.076025784 1.1227705 3819087
-0.32646993 0.083584718 1.1190909 3687502
-0.35101709 0.035879131 1.1286713 5528423
-0.34693775 0.036867347 1.1297832 5397348
-0.36040354 0.042754229 1.1208375 4804702
-0.35112357 0.043562341 1.1227281 5462626
-0.34282231 0.045121063 1.1276489 5003105
-0.33567595 0.049479123 1.1306332 4804440
-0.37063807 0.051763795 1.1197362 3817824
-0.36347371 0.04877371 1.1174216 4673622
-0.34806734 0.050459728 1.1215658 5660265
-0.34113944 0.052782848 1.1234714 5069150
-0.33328018 0.05647805 1.1277318 4475986
-0.32851663 0.061314475 1.1291288 4014924
-0.33073714 0.063115351 1.126516 4606547
-0.3256208 0.066124 1.1284755 3620428
-0.35836613 0.028221661 1.1337566 4079956
-0.35132992 0.027995117 1.1332567 5266270
-0.34633818 0.028992815 1.1369774 5002845
-0.36128321 0.034104776 1.131068 4079963
-0.35317659 0.032374926 1.1311082 5330781
-0.34373128 0.035647534 1.1354139 5002331
-0.34078929 0.041987535 1.1346617 5001816
-0.33739635 0.045229971 1.1368935 4540755
-0.33354396 0.052558448 1.1368728 4213074
-0.35451907 0.017950624 1.1469265 5265766
-0.35551256 0.0223398 1.1438223 5068639
-0.34720838 0.024913814 1.1456078 4214103
-0.36272317 0.027853409 1.1367282 1580089
-0.34274408 0.031882733 1.1428419 4145996
-0.34056878 0.037936676 1.1428928 4212054
-0.36134607 0.016151536 1.1481673 3618132
-0.35595459 0.01563691 1.1495879 5199718
-0.34974626 0.017420977 1.1512876 4214875
-0.34886739 -0.042695988 1.1664721 528927
-0.34387696 -0.042821847 1.1677965 1517876
-0.34673727 -0.05306774 1.1791825 4419983
-0.36148736 -0.0478209 1.1733284 1651559
-0.35553122 -0.04640308 1.1716979 1782104
-0.34309024 -0.047573768 1.1727954 4154236
-0.33948839 -0.043744374 1.177812 3028033
-0.35480043 -0.039240975 1.1774079 2369321
-0.34635457 -0.038426854 1.1759503 2040105
-0.35576567 -0.020051485 1.1735249 4146252
-0.36323649 -0.052945115 1.183077 5077683
-0.35606807 -0.054760281 1.1835554 4617364
-0.34697488 -0.054144863 1.1859913 4549258
-0.34178528 -0.048159603 1.1847721 6582660
-0.36443827 -0.041556213 1.1789221 7695014
-0.35762277 -0.037047498 1.1815463 2040625
-0.34980249 -0.034959178 1.1829929 2172202
-0.34276235 -0.039184079 1.1847527 2760198
-0.35871375 -0.064252898 1.1922582 4683677
-0.35323986 -0.063653864 1.1937307 3831442
-0.36649153 -0.058174357 1.1891688 3299734
-0.35912246 -0.059592079 1.1896396 4683420
-0.35107884 -0.059214275 1.1927686 3960460
-0.36079606 -0.13771881 1.2031916 3829135
-0.3530412 -0.13638538 1.2052907 4223637
-0.3470138 -0.13617741 1.2069 3960467
-0.36259416 -0.12848102 1.202961 3498881
-0.35444915 -0.12713005 1.2047502 3895695
-0.34715521 -0.12499174 1.2071621 3631246
-0.3629255 -0.11727008 1.2000679 3499128
-0.35587955 -0.11730588 1.2019416 4025235
-0.34800583 -0.11547964 1.2060078 3499655
-0.36284301 -0.10782956 1.1982726 3826560
-0.35649493 -0.10717925 1.2004967 4156303
-0.34942731 -0.10695322 1.204971 3630985
-0.3644124 -0.098422579 1.2012126 3893387
-0.35771078 -0.097376488 1.2014135 4157333
-0.35123342 -0.096155748 1.2052975 3762828
-0.36421323 -0.089867629 1.2035652 3762325
-0.3580763 -0.08662127 1.2014896 4420507
-0.35268804 -0.086195 1.2053499 3828877
-0.36681634 -0.076241404 1.2032379 4222878
-0.35876322 -0.07721699 1.2014899 4552347
-0.35352558 -0.077055864 1.2059242 3631755
-0.36791366 -0.068413235 1.1973591 3627913
-0.35889438 -0.069155216 1.1975995 4683676
-0.35291192 -0.067198716 1.2022864 3892613
-0.35201198 -0.059170213 1.1993533 3563127
-0.36267078 -0.14781168 1.2080417 3033484
-0.3551783 -0.14798403 1.2125096 2897991
-0.34546527 -0.14611453 1.2146367 3891064
-0.33872694 -0.14461485 1.2181948 2638186
-0.36715597 -0.13915946 1.2056016 666715
-0.35644418 -0.14024694 1.2084224 4813457
-0.34371698 -0.13588823 1.2119255 3499654
-0.33778739 -0.13511397 1.2173375 3561592
-0.36902377 -0.12789913 1.2054064 6722
-0.3448754 -0.12641951 1.211871 3694979
-0.33910817 -0.12553042 1.2154996 3233144
-0.3444874 -0.11590924 1.2122561 3104639
-0.3408097 -0.11548904 1.2165394 2640231
-0.34620461 -0.1063272 1.212056 2907007
-0.34317383 -0.10611112 1.2175734 3099492
-0.36907104 -0.096500859 1.2062355 4089741
-0.34771651 -0.09684965 1.2122775 3496061
-0.34488967 -0.095404074 1.2178744 4278874
-0.36772624 -0.08821205 1.2068155 2972810
-0.34973004 -0.086656086 1.2130569 3757171
-0.34688401 -0.087447159 1.2175571 3748927
-0.3672415 -0.082343556 1.2071018 3630740
-0.34960154 -0.079250015 1.2118781 3953004
-0.35644618 -0.15439184 1.2173588 984897
-0.34679937 -0.14943044 1.2200586 4350584
-0.33967832 -0.12450194 1.2233115 4674411
-0.3412596 -0.11609974 1.2255313 6974583
-0.34414324 -0.10525722 1.2250549 3815753
-0.37505257 -0.097842418 1.2139243 5799072
-0.34360716 -0.095572866 1.2223516 5064001
-0.34209317 -0.13075279 1.2352681 7039097
-0.34323961 -0.12505673 1.236151 7565430
-0.34475783 -0.11650332 1.2356312 8223350
-0.34472373 -0.10819399 1.2310325 9076613
