# .PCD v0.7 - Point Cloud Data file format
VERSION 0.7
FIELDS x y z rgba
SIZE 4 4 4 4
TYPE F F F U
COUNT 1 1 1 1
WIDTH 174
HEIGHT 1
VIEWPOINT 0 0 0 1 0 0 0
POINTS 174
DATA ascii
-0.40666869 0.074403331 1.105791 5134174
-0.39982146 0.07345932 1.1052741 5134176
-0.40760708 0.079013139 1.1058276 4871515
-0.41254076 0.056112967 1.1134003 4936281
-0.40193367 0.054593034 1.1126001 5199967
-0.39709079 0.05506403 1.1122258 5397348
-0.42137113 0.062007912 1.1137304 4673880
-0.41379264 0.06221664 1.1112257 4870232
-0.40425834 0.063219965 1.1112078 5068382
-0.39451498 0.064543858 1.1109991 5068384
-0.3868182 0.066845663 1.1113498 4476504
-0.42278758 0.071372576 1.1123967 4607822
-0.41586998 0.072065338 1.1105248 4673623
-0.40488845 0.0723802 1.1096818 5134174
-0.39462009 0.07427799 1.1088815 4739419
-0.38676357 0.07480032 1.1095657 4081746
-0.42365503 0.079705186 1.1140712 4410445
-0.41569781 0.081558064 1.1104393 4213839
-0.40550983 0.083063699 1.109648 4345429
-0.39546824 0.083625279 1.1088752 4016211
-0.3872636 0.084075488 1.1094011 3621193
-0.41561463 0.08703398 1.1103911 3884109
-0.40638903 0.08891774 1.1096708 3752784
-0.39603367 0.089856818 1.108871 3621192
-0.38869065 0.089475587 1.1083119 3686459
-0.41890302 0.043257184 1.1244446 4673626
-0.41096678 0.043111846 1.1209896 4870741
-0.40174761 0.042835757 1.120471 5265754
-0.39179751 0.044519722 1.1199647 5397604
-0.38335854 0.048091538 1.1222605 4608350
-0.42105606 0.052106343 1.1206018 4673629
-0.41276395 0.051364765 1.1177996 4870744
-0.40425038 0.050616793 1.1168194 5134174
-0.39213982 0.053800896 1.1165223 5397606
-0.38367042 0.055414088 1.1200402 4476760
-0.37767717 0.060060419 1.1217344 4015442
-0.42840022 0.05970268 1.1256194 3883351
-0.42534167 0.060012497 1.1201675 4475995
-0.3918969 0.060378477 1.1157995 5068641
-0.38294697 0.064452119 1.1171422 4082513
-0.37680027 0.06619937 1.121119 3752531
-0.42759123 0.069836095 1.1190612 4079443
-0.38188848 0.073706582 1.1164365 3621705
-0.37693575 0.071806535 1.119181 3751503
-0.38431945 0.081088416 1.1150619 3490378
-0.40484196 0.0262515 1.1351035 5002588
-0.40166441 0.026539659 1.1348581 5528419
-0.41630125 0.034851708 1.135915 4739163
-0.40906382 0.032621138 1.132425 5002333
-0.39960814 0.033171408 1.1316414 5397092
-0.39054006 0.036031976 1.1322867 5332066
-0.3845259 0.037733264 1.1334611 4740695
-0.41847822 0.038647078 1.1307873 4082256
-0.41160303 0.038111307 1.12851 5068120
-0.38874549 0.040718347 1.1287465 5200736
-0.38072908 0.044822872 1.1302444 4345175
-0.3736819 0.04740265 1.1319844 4278096
-0.37917063 0.054488361 1.1267626 4147028
-0.37403235 0.054484978 1.1304654 3819087
-0.37518749 0.061934903 1.1267449 3687502
-0.3957867 0.015104981 1.1455278 5528423
-0.39155704 0.01602933 1.145197 5397348
-0.40714741 0.021970684 1.140996 4804702
-0.39775458 0.022616299 1.1396908 5462626
-0.38827476 0.024121033 1.141541 5003105
-0.38048962 0.028394943 1.1418488 4804440
-0.4170571 0.031180767 1.1430216 3817824
-0.41109806 0.027960243 1.1385782 4673622
-0.39516777 0.029404884 1.1373479 5660265
-0.38797081 0.031619601 1.1367801 5069150
-0.37909955 0.035250843 1.1380795 4475986
-0.37408164 0.040013015 1.1376592 4014924
-0.377018 0.041789927 1.1358644 4606547
-0.37150425 0.044733368 1.1359215 3620428
-0.40113807 0.0077682976 1.1530139 4079956
-0.39466572 0.0073640812 1.1502292 5266270
-0.38871279 0.0083509553 1.1520585 5002845
-0.40470567 0.013638733 1.1512364 4079963
-0.39706346 0.011722716 1.1486602 5330781
-0.3866857 0.014896063 1.1494937 5002331
-0.3840782 0.021141967 1.1475946 5001816
-0.38009802 0.024366846 1.148469 4540755
-0.37637722 0.031600215 1.1469256 4213074
-0.39328456 -0.0022103693 1.1645244 5265766
-0.39519283 0.0021105781 1.1617719 5068639
-0.38673353 0.0045406036 1.1606283 4214103
-0.40427276 0.0075861774 1.1572672 1580089
-0.38334686 0.011322288 1.1563057 4145996
-0.38120112 0.017323012 1.1554271 4212054
-0.39934018 -0.0038141981 1.1680089 3618132
-0.39378899 -0.0044133905 1.1675886 5199718
-0.38734591 -0.0027264953 1.1670825 4214875
-0.38225332 -0.062391058 1.1831946 528927
-0.37710756 -0.062595159 1.1828023 1517876
-0.37617326 -0.07244353 1.1948414 4419983
-0.39196214 -0.067023933 1.1940025 1651559
-0.38686204 -0.065791965 1.1904507 1782104
-0.37477294 -0.067219876 1.187423 4154236
-0.36966801 -0.063334018 1.1908354 3028033
-0.38419577 -0.058489151 1.1953491 2369321
-0.37669641 -0.057913437 1.1911601 2040105
-0.38614905 -0.039400712 1.1913413 4146252
-0.39045599 -0.071826525 1.2039534 5077683
-0.38355553 -0.073793516 1.2021029 4617364
-0.37416121 -0.073320597 1.2013803 4549258
-0.36959133 -0.067494743 1.1983117 6582660
-0.39282021 -0.060535647 1.2000365 7695014
-0.3854644 -0.056113742 1.2001084 2040625
-0.37757981 -0.054167479 1.1988215 2172202
-0.37040719 -0.058503114 1.1983056 2760198
-0.38329577 -0.082970485 1.2115139 4683677
-0.37763578 -0.082457207 1.2110767 3831442
-0.39158061 -0.076803155 1.2109548 3299734
-0.38448831 -0.07837785 1.2090172 4683420
-0.37585855 -0.078098252 1.2093028 3960460
-0.38256994 -0.15602712 1.2250532 3829135
-0.37454101 -0.15481515 1.2244295 4223637
-0.36831832 -0.15470167 1.2239523 3960467
-0.38422725 -0.14676034 1.2251095 3498881
-0.37593228 -0.14554873 1.2240641 3895695
-0.3682248 -0.1435128 1.2238599 3631246
-0.38535523 -0.13563164 1.2221022 3499128
-0.37808695 -0.13577789 1.221547 4025235
-0.36928964 -0.13402021 1.2227229 3499655
-0.38575214 -0.12625049 1.2200552 3826560
-0.37901816 -0.12568492 1.220037 4156303
-0.37086684 -0.125496 1.2219191 3630985
-0.3861438 -0.1167297 1.2230215 3893387
-0.37973967 -0.11583441 1.2209644 4157333
-0.37232801 -0.11465456 1.2224498 3762828
-0.38507116 -0.10811821 1.2248797 3762325
-0.37992457 -0.1050758 1.2207851 4420507
-0.37355849 -0.10466522 1.222635 3828877
-0.38746506 -0.094449975 1.2249588 4222878
-0.38045475 -0.095661893 1.2206872 4552347
-0.37404451 -0.095496438 1.2231373 3631755
-0.39034495 -0.086768925 1.2195042 3627913
-0.38176286 -0.087713256 1.2167817 4683676
-0.37454373 -0.08576376 1.2191625 3892613
-0.37456286 -0.077845097 1.2158211 3563127
-0.38286325 -0.16593155 1.2305958 3033484
-0.37431806 -0.16615079 1.2323455 2897991
-0.36442518 -0.16444787 1.2310836 3891064
-0.35687131 -0.16300456 1.2321661 2638186
-0.3877939 -0.15725036 1.2294742 666715
-0.3767662 -0.15850584 1.2286397 4813457
-0.36354277 -0.1543463 1.2275959 3499654
-0.35614872 -0.15355636 1.2307191 3561592
-0.38947982 -0.14595975 1.2295172 6722
-0.36453521 -0.14485858 1.2275996 3694979
-0.35788226 -0.14400087 1.2290899 3233144
-0.36390996 -0.13435347 1.2274718 3104639
-0.35901853 -0.13389714 1.2302852 2640231
-0.36547643 -0.12474368 1.2275184 2907007
-0.36079037 -0.12444114 1.2317164 3099492
-0.38885659 -0.114558 1.2292304 4089741
-0.3667112 -0.11523107 1.2278987 3496061
-0.36217591 -0.11369288 1.2321965 4278874
-0.38729179 -0.10628955 1.2290477 2972810
-0.36822608 -0.10497539 1.228946 3757171
-0.36406311 -0.105704 1.23228 3748927
-0.38666609 -0.10042814 1.228955 3630740
-0.36840141 -0.097610869 1.2275357 3953004
-0.37399274 -0.1723868 1.2375598 984897
-0.36393431 -0.16757618 1.2367532 4350584
-0.3558262 -0.14273749 1.2366121 4674411
-0.35647961 -0.134241 1.2389376 6974583
-0.35922247 -0.12335233 1.2390647 3815753
-0.39197791 -0.11554072 1.2385032 5799072
-0.35948828 -0.11376394 1.236003 5064001
-0.35423285 -0.14858763 1.2489045 7039097
-0.35495162 -0.14284363 1.2499187 7565430
-0.35644886 -0.1342755 1.2496337 8223350
-0.35783198 -0.12610349 1.2449969 9076613
