# .PCD v0.7 - Point Cloud Data file format
VERSION 0.7
FIELDS x y z rgba
SIZE 4 4 4 4
TYPE F F F U
COUNT 1 1 1 1
WIDTH 174
HEIGHT 1
VIEWPOINT 0 0 0 1 0 0 0
POINTS 174
DATA ascii
-0.40269175 0.074438199 1.1051993 5134174
-0.39581144 0.073609248 1.1050699 5134176
-0.4037064 0.079031602 1.1052561 4871515
-0.40869671 0.05593067 1.1121516 4936281
-0.3980374 0.054589 1.1119506 5199967
-0.39318934 0.055141222 1.111869 5397348
-0.41762704 0.061681774 1.112059 4673880
-0.40991962 0.062050845 1.1100072 4870232
-0.40041837 0.063201681 1.1105652 5068382
-0.39070252 0.064679489 1.1109502 5068384
-0.38307831 0.06709367 1.1117896 4476504
-0.419117 0.071045011 1.1107975 4607822
-0.41211417 0.071876869 1.1093463 4673623
-0.40110886 0.072376013 1.1091545 5134174
-0.39084387 0.074445918 1.1089892 4739419
-0.38305041 0.075077817 1.1101418 4081746
-0.42021775 0.079333097 1.112554 4410445
-0.41209349 0.081371188 1.1094258 4213839
-0.40190285 0.083047628 1.1092585 4345429
-0.39184383 0.083777681 1.1090856 4016211
-0.38369244 0.084345594 1.1100993 3621193
-0.41209775 0.086847737 1.109472 3884109
-0.40287805 0.088886112 1.1093251 3752784
-0.39251047 0.089998886 1.1091499 3621192
-0.38514209 0.089740962 1.1090165 3686459
-0.41548094 0.042789456 1.1225923 4673626
-0.40735513 0.042826485 1.1196071 4870741
-0.39811811 0.042702001 1.119626 5265754
-0.38818446 0.044548135 1.1197321 5397604
-0.37995392 0.048209909 1.1225771 4608350
-0.4175511 0.051669229 1.1187747 4673629
-0.40909836 0.051104423 1.1164522 4870744
-0.40053093 0.050505217 1.1159613 5134174
-0.38847771 0.053880896 1.1164274 5397606
-0.38025597 0.055563968 1.1204622 4476760
-0.37444916 0.060272519 1.1225806 4015442
-0.42529979 0.059063401 1.1234758 3883351
-0.42193347 0.059514467 1.1182185 4475995
-0.38830122 0.060472924 1.1158276 5068641
-0.37951323 0.064660743 1.1177595 4082513
-0.37363893 0.066433996 1.1221181 3752531
-0.42427588 0.069319725 1.1171427 4079443
-0.37856767 0.073941261 1.1172681 3621705
-0.37375319 0.072070986 1.1202672 3751503
-0.38103533 0.081307217 1.1158737 3490378
-0.40178877 0.025821969 1.1337793 5002588
-0.39860746 0.026163425 1.1337255 5528419
-0.41341582 0.034228645 1.134057 4739163
-0.40595114 0.032170799 1.1309618 5002333
-0.39647618 0.032880671 1.1307436 5397092
-0.38750958 0.035869591 1.1319665 5332066
-0.38160306 0.037643179 1.1335194 4740695
-0.41535163 0.038077772 1.128873 4082256
-0.40834728 0.037687745 1.1269946 5068120
-0.38558856 0.040643517 1.1286148 5200736
-0.37774196 0.044845086 1.1306472 4345175
-0.37085184 0.047503162 1.1328396 4278096
-0.37614197 0.054592121 1.127421 4147028
-0.37122941 0.054604355 1.1314185 3819087
-0.37228763 0.062098596 1.1277586 3687502
-0.39317584 0.0146387 1.1445339 5528423
-0.38894984 0.015633918 1.144467 5397348
-0.40436378 0.021405019 1.1394557 4804702
-0.39492264 0.022218242 1.1387147 5462626
-0.38559315 0.023837268 1.1411424 5003105
-0.37791064 0.028225128 1.1419761 4804440
-0.41452503 0.030424435 1.1410462 3817824
-0.40826443 0.027373575 1.1369082 4673622
-0.39231542 0.02908542 1.1366386 5660265
-0.38513497 0.031420637 1.1365305 5069150
-0.3764157 0.035165697 1.1384072 4475986
-0.37146083 0.040011447 1.1383599 4014924
-0.37431616 0.04177342 1.1364251 4606547
-0.36886433 0.04480036 1.1368537 3620428
-0.39883402 0.0070921071 1.1515723 4079956
-0.39220425 0.0068361294 1.149166 5266270
-0.38638538 0.0078832563 1.1513574 5002845
-0.40238777 0.012936447 1.1496844 4079963
-0.39457759 0.011183567 1.1475303 5330781
-0.38431984 0.01450219 1.1490231 5002331
-0.38170898 0.0208195 1.1473824 5001816
-0.37784022 0.024089996 1.1485413 4540755
-0.37415513 0.031405583 1.1473371 4213074
-0.39150327 -0.0029609427 1.1633595 5265766
-0.3933183 0.001376804 1.1605706 5068639
-0.38484773 0.0039567295 1.1599653 4214103
-0.40220839 0.0067882016 1.1556307 1580089
-0.38132635 0.010863528 1.1559601 4145996
-0.37923193 0.016910978 1.1553069 4212054
-0.3977249 -0.0047180913 1.166456 3618132
-0.39214954 -0.005224023 1.1663525 5199718
-0.3857165 -0.0034292042 1.1662531 4214875
-0.38059312 -0.063276872 1.1816608 528927
-0.37543058 -0.063394576 1.1815679 1517876
-0.37503934 -0.073433496 1.1934787 4419983
-0.39083925 -0.068245068 1.1918033 1651559
-0.38556132 -0.066873297 1.1885774 1782104
-0.37329412 -0.068061635 1.1862415 4154236
-0.36846188 -0.064156726 1.1900105 3028033
-0.38330626 -0.059615694 1.1937424 2369321
-0.37558547 -0.058851898 1.1900107 2040105
-0.38533577 -0.040493462 1.1899388 4146252
-0.38983819 -0.073194697 1.2017456 5077683
-0.38280997 -0.075022534 1.2002716 4617364
-0.37339857 -0.074391991 1.2001094 4549258
-0.36875364 -0.068444088 1.1974096 6582660
-0.39215493 -0.061875865 1.1978816 7695014
-0.38488963 -0.057342626 1.1984572 2040625
-0.37697643 -0.055252746 1.1976671 2172202
-0.36971557 -0.05946739 1.1975024 2760198
-0.38294956 -0.084355325 1.2095306 4683677
-0.37728289 -0.083747119 1.2094349 3831442
-0.39128789 -0.078308143 1.2085869 3299734
-0.38406959 -0.07973931 1.2070435 4683420
-0.37547699 -0.079331249 1.2078396 3960460
-0.38181427 -0.15761466 1.2218957 3829135
-0.37378365 -0.15626809 1.2217641 4223637
-0.36754641 -0.15605016 1.2216549 3960467
-0.38362426 -0.14837697 1.2220057 3498881
-0.37530345 -0.14701937 1.221469 3895695
-0.36763173 -0.14486125 1.2217506 3631246
-0.38475755 -0.13721682 1.2191194 3499128
-0.37746781 -0.13724105 1.2189894 4025235
-0.36878434 -0.13536806 1.2207081 3499655
-0.38518846 -0.12780902 1.217206 3826560
-0.3784751 -0.12713914 1.2175922 4156303
-0.37045187 -0.12685667 1.2199522 3630985
-0.38590929 -0.118348 1.220299 3893387
-0.37941149 -0.11731844 1.2186363 4157333
-0.37211969 -0.11604989 1.2205731 3762828
-0.3850888 -0.10975428 1.2223573 3762325
-0.37976256 -0.10656247 1.218622 4420507
-0.37352303 -0.10608545 1.2208487 3828877
-0.38770777 -0.096128106 1.2225187 4222878
-0.38044089 -0.097157612 1.2186465 4552347
-0.37418833 -0.096935302 1.2214711 3631755
-0.39039004 -0.088399574 1.2170304 3627913
-0.3816492 -0.089163974 1.2148013 4683676
-0.37461451 -0.087144405 1.217633 3892613
-0.37456867 -0.079170547 1.214426 3563127
-0.38226792 -0.16761655 1.2272493 3033484
-0.37383708 -0.16773377 1.2294936 2897991
-0.36391675 -0.16585653 1.2288425 3891064
-0.35646379 -0.16431545 1.2303897 2638186
-0.38726678 -0.15899462 1.225982 666715
-0.37619001 -0.16006482 1.2257758 4813457
-0.3629984 -0.15568388 1.2255778 3499654
-0.35581341 -0.15483366 1.2291421 3561592
-0.3891378 -0.14773385 1.2261102 6722
-0.36414525 -0.14621411 1.2256781 3694979
-0.35760576 -0.14527944 1.2275699 3233144
-0.3636865 -0.13569993 1.2257584 3104639
-0.35897595 -0.13521659 1.2288611 2640231
-0.36541089 -0.12611775 1.2258699 2907007
-0.3609837 -0.12581524 1.23034 3099492
-0.3890155 -0.11632593 1.2263726 4089741
-0.36682209 -0.11663336 1.2263321 3496061
-0.36257154 -0.11509955 1.2309132 4278874
-0.3875789 -0.10803233 1.2264169 2972810
-0.36856404 -0.1064219 1.2274559 3757171
-0.36459154 -0.10714345 1.2310162 3748927
-0.38704541 -0.10216123 1.2264569 3630740
-0.36877778 -0.099037766 1.2261579 3953004
-0.37371442 -0.17405298 1.2346156 984897
-0.36370653 -0.16907418 1.2344793 4350584
-0.35601369 -0.14411432 1.2352195 4674411
-0.35694152 -0.13567033 1.237641 6974583
-0.35986587 -0.1248292 1.2377844 3815753
-0.39265662 -0.11751659 1.235429 5799072
-0.36011004 -0.11519468 1.2348692 5064001
-0.35504517 -0.15015027 1.2474871 7039097
-0.35591635 -0.14443642 1.2485509 7565430
-0.35753512 -0.13588883 1.2483183 8223350
-0.35877925 -0.12766042 1.2437423 9076613
