# .PCD v0.7 - Point Cloud Data file format
VERSION 0.7
FIELDS x y z rgba
SIZE 4 4 4 4
TYPE F F F U
COUNT 1 1 1 1
WIDTH 1126
HEIGHT 1
VIEWPOINT 0 0 0 1 0 0 0
POINTS 1126
DATA ascii
0.14850922 -0.087085232 1.1318088 3632047
-0.12806293 -0.084256805 1.1301455 3434408
-0.12533711 -0.081786335 1.1341183 3434665
0.14484484 -0.076128729 1.131355 4026292
-0.12788615 -0.073881723 1.130053 3631531
-0.12617336 -0.072979271 1.1340417 3631531
0.14475274 -0.068162702 1.1299106 4157366
-0.12804559 -0.067403942 1.1299957 4025255
-0.1250176 -0.062185202 1.1322292 3632304
0.14392525 -0.056394245 1.1293632 4289211
-0.12178036 -0.053116158 1.1315708 3568048
0.14050639 -0.045701336 1.1299416 4094399
0.14294766 -0.050017979 1.1313086 4224702
-0.120624 -0.047056109 1.1298003 3764911
-0.11728581 -0.042636018 1.1322546 3895729
0.13774478 -0.037338722 1.1306607 4487616
-0.12227749 -0.028959781 1.1326429 6458567
-0.11725152 -0.032615241 1.1320654 3895996
0.13740084 -0.026316166 1.1295087 5735616
0.14418118 -0.022899136 1.129065 9477559
-0.12190261 -0.026258156 1.1336181 6852289
-0.11865217 -0.026178218 1.1336111 5933254
0.045512948 0.079461917 1.1283494 9474701
-0.021753874 -0.22773147 1.1472121 7248329
0.011121708 -0.22852208 1.1463546 5801654
0.019113541 -0.22720054 1.1457937 5210039
0.031923395 -0.22750692 1.1471046 6328255
0.039587725 -0.22731844 1.1470879 7379645
0.051142063 -0.22691256 1.1470616 8430007
0.059039667 -0.22497964 1.1430286 8625323
-0.059864655 -0.22061156 1.1392235 9678537
-0.049029391 -0.2202892 1.145726 4422071
-0.039674573 -0.22072259 1.1471851 2778029
-0.029869627 -0.22229689 1.1471798 2513574
-0.022190701 -0.22482079 1.1471871 2315684
0.0077546537 -0.2248147 1.1471282 2120102
0.019798603 -0.22451849 1.1471019 2185635
0.032910511 -0.22310051 1.1470636 2186146
0.038411979 -0.22406074 1.1470612 2316696
0.053686749 -0.22149402 1.1470084 4486314
0.061231431 -0.22093111 1.1449885 5997746
0.072306477 -0.21769078 1.1457951 6063288
0.080940805 -0.21600346 1.146906 6589614
0.089048475 -0.21602318 1.1468903 8757678
-0.065595441 -0.20878553 1.1391296 1855898
-0.058807686 -0.21109942 1.1423751 2249885
-0.0510616 -0.21318397 1.1464132 2381985
-0.042880423 -0.2151047 1.1471415 3039902
0.074781395 -0.21056777 1.1468699 2841504
0.080789894 -0.20987225 1.1468519 3302564
0.090295523 -0.20739412 1.1454778 4420011
0.10006683 -0.20635913 1.1410682 6984117
0.10943113 -0.20339321 1.1387377 6254993
-0.076996341 -0.19853607 1.139861 2710418
-0.069184817 -0.20157722 1.1434538 2775447
-0.062402733 -0.2036154 1.1462778 2906776
0.092550598 -0.19943529 1.146336 3171492
0.10101996 -0.19787768 1.1435053 3237285
0.10931653 -0.1964964 1.139248 3629215
-0.080046192 -0.19162495 1.1438057 2775191
-0.071820892 -0.194893 1.1463521 2906012
0.1027536 -0.18861371 1.144953 3040421
0.10964768 -0.18679065 1.1415372 3105703
0.11555346 -0.18692406 1.1385792 2777257
-0.095728248 -0.17797732 1.1389152 2710677
-0.088860936 -0.18166308 1.1424639 2709909
-0.082551271 -0.18509555 1.1449528 2709910
0.11060008 -0.17835405 1.1450394 3368100
0.11812697 -0.17637224 1.1406138 3302561
-0.097111121 -0.17143777 1.141971 2710421
-0.092249051 -0.17413497 1.1460744 2644886
0.11246951 -0.1705306 1.14644 3040936
0.12043009 -0.16725349 1.1443082 3237031
0.12675624 -0.16422185 1.1413556 3368615
-0.10708279 -0.15867427 1.1387659 2776209
-0.10153271 -0.16297841 1.1435435 2841240
0.12225759 -0.15870166 1.1463157 3237287
0.1286476 -0.15636285 1.1411391 3302822
-0.10823789 -0.15200841 1.1432425 2710683
-0.10345692 -0.1551594 1.1460612 2841499
0.13070776 -0.14787008 1.1436144 3237541
0.13560435 -0.14506763 1.1397679 3237798
-0.11057544 -0.14350255 1.1437811 2907293
0.13218164 -0.13904242 1.1461214 3237797
0.13684182 -0.136428 1.1410888 3303334
-0.11717749 -0.13199976 1.1396916 2907805
-0.114927 -0.13352756 1.1457582 2907805
0.13845658 -0.127 1.1435575 3434407
-0.11790244 -0.12269434 1.1411343 3039392
-0.1152448 -0.1237646 1.1464721 3039391
0.140164 -0.11738387 1.1433417 3500202
0.14423139 -0.11441703 1.1378785 3631274
-0.12127315 -0.11359067 1.1429267 3170979
0.14186707 -0.10705303 1.1453737 3631791
0.14523326 -0.10645226 1.1395836 3566510
-0.12192953 -0.1032436 1.1440171 3105957
0.14076911 -0.095973723 1.144055 3632305
0.14602178 -0.096994683 1.1380535 3501227
-0.12256207 -0.093250871 1.1416436 3237546
0.14008681 -0.08692462 1.1430972 3698099
0.14470229 -0.087235525 1.1380361 3698094
-0.12217846 -0.083488464 1.1417943 3434923
0.14109576 -0.077618562 1.1435579 3895479
0.14337508 -0.079625107 1.1375711 3895477
-0.12205566 -0.073019803 1.1423202 3566256
0.14107911 -0.066301517 1.1447909 4027579
0.1435516 -0.065694138 1.1414471 4157882
-0.12128185 -0.06409514 1.1414829 3567024
0.13880426 -0.056821566 1.1442013 4159422
0.14312744 -0.056901153 1.1397697 4289724
-0.11921414 -0.054224048 1.139195 3567791
-0.11614867 -0.052167043 1.1445042 3764403
0.1368451 -0.046842661 1.1426262 4356797
-0.11463956 -0.043245845 1.1383265 3830196
0.13394555 -0.037336838 1.141614 4619718
-0.11343057 -0.032291003 1.1405646 3896507
0.12956421 -0.025544278 1.1420068 4817095
0.1340984 -0.026038647 1.1387799 4948420
-0.12126028 -0.023297764 1.141591 6916535
-0.11376081 -0.023646474 1.1412716 5210049
0.12856479 -0.019157194 1.1440631 5013440
0.13300952 -0.018651254 1.1417165 5998788
0.026439207 0.052390084 1.1394851 5859448
0.034628976 0.052652478 1.1376095 6122362
0.040190015 0.052944362 1.140596 6319482
0.051275712 0.05451934 1.1445605 5330522
0.026908563 0.056836575 1.1379207 5792108
0.034710109 0.057869151 1.137363 5527648
0.0400826 0.057308584 1.1405574 5067354
-0.016006187 -0.22753611 1.1501992 4354997
-0.0086196205 -0.22836451 1.1521921 4684224
0.0012649493 -0.22783996 1.1507013 4289976
0.012183352 -0.22527371 1.1501236 2054307
0.022625586 -0.2255661 1.1501057 2777510
0.028141409 -0.22652884 1.1501034 4026798
0.044607814 -0.22612388 1.1500674 5604271
0.048409451 -0.22438282 1.1500446 4881326
-0.0352365 -0.21765283 1.1501491 3039902
-0.027265593 -0.21837047 1.1506399 2710943
-0.018746682 -0.22004575 1.1534425 2645152
-0.0087943831 -0.22263022 1.1568084 2514339
0.0011405144 -0.22228694 1.1562524 2514851
0.010991115 -0.21955192 1.1546754 2842787
0.020859182 -0.21890487 1.1524501 2908579
0.030519195 -0.21826792 1.1529144 3039651
0.040730141 -0.21871024 1.1540093 2908578
0.050055809 -0.21761099 1.1537313 2778020
0.060039621 -0.21572402 1.1513734 2646433
0.069676198 -0.21818481 1.1499476 5012145
0.081234194 -0.219182 1.1499338 8955830
-0.048470814 -0.20955426 1.150389 2841242
-0.0385755 -0.21136615 1.1524333 2775960
-0.029534154 -0.21240231 1.1543581 2841500
-0.020068165 -0.21430928 1.15809 2907551
0.011601185 -0.2127931 1.1580142 3105184
0.020803597 -0.21219814 1.1579908 3170722
0.030751992 -0.21195346 1.1579691 3302053
0.040871017 -0.2111516 1.1579421 3170723
0.051349435 -0.20997223 1.1579111 3105188
0.060656074 -0.20896479 1.1561694 3170467
0.070247494 -0.20855355 1.152261 3236258
0.080301739 -0.20488042 1.1502529 3171236
-0.065362357 -0.19862279 1.1500393 2906776
-0.0587762 -0.20068763 1.1511875 2907033
-0.050297044 -0.20143184 1.1548682 2841497
-0.040937655 -0.20523714 1.1580504 2775704
0.061512124 -0.20345494 1.1578331 3105443
0.070355147 -0.20323744 1.1578138 3105443
0.081053026 -0.1992667 1.1564943 3105956
0.089339733 -0.19622245 1.1529139 3105956
-0.076610133 -0.18791555 1.1499662 2644884
-0.069449075 -0.19128227 1.1529822 2775705
-0.061004266 -0.19392434 1.1556559 2841497
0.084453002 -0.19183069 1.1576847 3172006
0.092048183 -0.1892699 1.156647 3040421
0.097847 -0.18679884 1.1541135 2974628
-0.085608356 -0.17934977 1.1499078 2645144
-0.078917839 -0.18092696 1.1529677 2710425
-0.073546149 -0.18350372 1.1544926 2776216
0.1011016 -0.17807442 1.1542796 3171493
0.10601823 -0.17575014 1.1510992 3237026
-0.088838503 -0.17138666 1.1524317 2710424
-0.082408659 -0.17340356 1.1563945 2710937
0.1038601 -0.17144533 1.1574655 3302823
0.11008299 -0.16723379 1.1542578 3172005
0.11579838 -0.16395915 1.1533753 3172006
-0.097795106 -0.16024469 1.149762 2841498
-0.093329698 -0.16261259 1.1546975 2907290
0.11243109 -0.16017449 1.1573484 3303592
0.11859182 -0.15665163 1.1559716 3237544
0.12462135 -0.15221192 1.1492534 3303337
-0.099764511 -0.15181816 1.1514053 2973342
-0.095085628 -0.15477087 1.1577084 3038879
0.12203284 -0.14879526 1.1565617 3237544
0.1263091 -0.14569996 1.1519923 3303336
-0.10807379 -0.14047258 1.1506065 2973342
-0.10192333 -0.14344703 1.1551211 2973600
0.12949537 -0.13648297 1.1531042 3368872
-0.10984248 -0.13263902 1.1518935 3039392
-0.10438409 -0.13327445 1.1575357 3236259
0.13056712 -0.12699842 1.1547679 3500460
0.13492352 -0.12449895 1.1489868 3434923
-0.11117851 -0.1230216 1.1523466 3170978
0.13139078 -0.11803854 1.1556033 3500719
0.13601603 -0.11545312 1.1522378 3500718
-0.11802072 -0.11204706 1.1493734 3237029
-0.11416359 -0.11327001 1.155377 3237286
0.1361413 -0.10656619 1.1549306 3697329
-0.11823686 -0.1032653 1.1492958 3237543
-0.11567456 -0.10270065 1.1567861 3172263
0.13713408 -0.097432382 1.1543422 3697843
-0.11877083 -0.093612239 1.1522113 3303340
-0.11671282 -0.09244477 1.157197 3303852
0.13665217 -0.086992145 1.1546504 3764149
-0.1190801 -0.083881244 1.1491252 3500716
-0.11638124 -0.08237724 1.157107 3501229
0.13933314 -0.076499283 1.1531233 3764661
-0.11891229 -0.075822294 1.1490533 3566512
-0.11581764 -0.072284646 1.1533797 3632306
0.13610099 -0.066368423 1.1529387 3896764
-0.11545279 -0.062652364 1.1532933 3698357
0.12987517 -0.056458957 1.1550591 4291265
0.13372573 -0.057582185 1.1495374 4225217
-0.11406455 -0.053611211 1.1528466 3764408
0.13041988 -0.046845756 1.1543059 4554434
0.13300531 -0.046560839 1.148298 4488640
-0.1113717 -0.04282276 1.1535455 3895997
-0.10732424 -0.039494291 1.1567081 4027323
0.1297607 -0.036070101 1.1532115 4817354
-0.11007041 -0.033284891 1.1499914 3962044
-0.10611327 -0.031930156 1.1558385 4093118
0.12013866 -0.023946263 1.1561227 5014224
0.12559028 -0.026580505 1.1521353 4751563
-0.10923154 -0.022861779 1.1485636 4290235
-0.10434549 -0.022573322 1.1530851 4158908
-0.098215856 -0.020099528 1.1565179 4028609
0.11829859 -0.016966954 1.1542865 4817874
0.12496344 -0.016564198 1.1490474 5145287
-0.10212984 -0.015887924 1.1508878 4487616
-0.096808188 -0.013055488 1.1551191 4356800
0.10913877 -0.0046759844 1.153973 5276623
0.11554524 -0.0075640008 1.1502717 5604813
0.12497368 -0.0085621327 1.1488651 6720449
-0.094875865 -0.0060079843 1.156386 5671109
0.1071459 0.00085455179 1.1553564 5802961
0.11352238 0.00020603836 1.1512542 6787017
0.030701894 0.014776431 1.1559545 12972031
-0.024782442 0.02331017 1.1539876 5869264
0.0077032698 0.020478196 1.155949 7515376
0.01520434 0.020293981 1.1559359 8764660
0.024819728 0.020088069 1.1559188 10146554
0.031477377 0.019219518 1.1559135 10870005
-0.082709417 0.030146793 1.1480405 8028800
-0.077595539 0.030638695 1.1480261 7305855
-0.020417511 0.024579309 1.1559678 5671370
-0.017101381 0.024660856 1.1559606 5869265
0.0061115455 0.025231741 1.1559099 6988787
0.010533055 0.025340468 1.1559002 7185904
0.096534863 0.036303565 1.1556337 6314850
-0.076498888 0.035669401 1.1479791 8028802
0.093352742 0.039764524 1.1556093 6117979
0.069126152 0.049624383 1.1475689 5593178
0.071321674 0.049678385 1.1475641 5658970
-0.014513764 -0.21710382 1.1621041 2973083
-0.0089405356 -0.21807659 1.1621017 2973595
0.00047636312 -0.21740869 1.162744 2973598
-0.034752097 -0.20650339 1.1620497 2842012
-0.028340153 -0.20773298 1.162048 2776219
-0.018937647 -0.20996943 1.1635733 2907806
-0.0093083205 -0.21109784 1.1651984 2907807
0.0012605255 -0.21137708 1.1653557 2973599
0.010075656 -0.20884392 1.162649 3039136
0.02079314 -0.20758402 1.1632835 3170723
0.030764583 -0.20722529 1.162594 3236770
0.040548097 -0.20652971 1.161902 3170979
0.049586982 -0.206094 1.1618803 3170980
0.056201145 -0.20426659 1.161851 3171236
-0.046062343 -0.19790301 1.1619955 2842012
-0.039296608 -0.19998997 1.1634554 2842011
-0.029627636 -0.20200282 1.1644613 2842012
-0.021303326 -0.2032344 1.1659943 2907805
0.025198424 -0.20348281 1.1659051 3302309
0.031178132 -0.20218882 1.164739 3302308
0.039823554 -0.20186704 1.1633619 3171236
0.050600622 -0.20218469 1.1618435 3171236
0.061193056 -0.20053561 1.1634748 3105443
0.070964187 -0.19837788 1.1627697 3171492
0.077463411 -0.19634491 1.1617389 3040420
-0.067409858 -0.18732986 1.1619436 2841497
-0.058567531 -0.18985763 1.1624819 2907291
-0.050063699 -0.19228804 1.1638359 2907549
-0.043357406 -0.1932901 1.1659493 2907551
0.073896237 -0.19114891 1.1656997 3040420
0.080861919 -0.18915236 1.1637735 3106213
0.088612646 -0.18637833 1.1616284 3106214
-0.069068633 -0.18086447 1.1638894 2907290
-0.062409706 -0.18356761 1.1654004 2973340
0.084807038 -0.18197158 1.1655967 3302823
0.09078753 -0.17946014 1.1631626 3237030
0.096842289 -0.17590196 1.1632969 3237031
-0.086757384 -0.16782898 1.1618083 2841497
-0.078275956 -0.17109635 1.162354 2842012
-0.072097905 -0.17315939 1.1648269 2907547
0.10183544 -0.16810012 1.1623631 3368361
0.1068365 -0.16473266 1.1614002 3237285
-0.088381894 -0.16194992 1.1617593 2973085
-0.081592135 -0.16198364 1.1644831 3039135
0.10396799 -0.16091886 1.1613719 3368615
0.11041016 -0.15742272 1.1620555 3237799
0.11489605 -0.15399121 1.1612889 3303337
-0.096094951 -0.14919175 1.161661 2973857
-0.090577602 -0.15257329 1.1632358 3039137
-0.084619641 -0.15328629 1.1656749 3104930
0.11221666 -0.14986499 1.1632575 3172264
0.11836404 -0.14683425 1.1618851 3238059
-0.097485863 -0.14101258 1.1625911 3039650
-0.093411587 -0.14448214 1.165614 3105700
0.12136509 -0.13700104 1.1632791 3369132
0.12557843 -0.13708125 1.1611176 3434410
-0.10045063 -0.13251372 1.1632357 3171236
0.12305848 -0.12882571 1.1642493 3500719
0.12637074 -0.12645011 1.1630216 3435183
-0.10789658 -0.12062676 1.1614304 3302823
-0.10319275 -0.12246765 1.1641042 3171495
0.1268837 -0.11633889 1.1627489 3566514
-0.10985248 -0.11202432 1.1628124 3368873
-0.10614182 -0.11309451 1.1645601 3368875
0.12937041 -0.10709109 1.1616436 3697588
-0.11097699 -0.10297254 1.1639463 3303850
0.13070659 -0.097432666 1.1641839 3763892
0.13390738 -0.096701078 1.1607424 3698099
-0.1125735 -0.092812799 1.1627924 3435181
-0.10670292 -0.093136735 1.1651839 3435438
0.13147785 -0.087279178 1.1646636 3829942
0.13430466 -0.086685926 1.1617955 3764149
-0.11177493 -0.083113618 1.1631048 3501229
0.13114913 -0.073923744 1.1645455 3896505
0.13561046 -0.076716669 1.1623797 3830455
-0.11142038 -0.073245212 1.1625547 3632563
-0.10727815 -0.069764733 1.1649773 3567542
0.12860936 -0.066848405 1.1619161 4027837
0.13392319 -0.070287071 1.1605077 3896505
-0.11090947 -0.063173085 1.1622591 3829940
-0.10744251 -0.063087009 1.1649183 3699127
0.12687409 -0.057263862 1.1630725 4291009
-0.11074156 -0.05302975 1.1616353 3895737
-0.10707651 -0.052100837 1.16482 4027576
0.12692188 -0.047226891 1.1623166 4422849
-0.10972558 -0.046314072 1.1607736 4158911
-0.10532622 -0.042487994 1.1627311 4093372
0.12662496 -0.037491526 1.1617306 4817355
-0.101811 -0.033003926 1.1621783 4093630
-0.097134329 -0.029424712 1.1645989 4094397
0.1189113 -0.026924044 1.1623741 5080014
0.12349872 -0.03003516 1.1601704 4883149
-0.099882752 -0.025355443 1.160568 4028348
-0.095438205 -0.022674747 1.1620355 4028864
0.11418223 -0.017397933 1.1618543 4949202
-0.092111878 -0.012994707 1.1622611 4029123
-0.087944917 -0.010638274 1.1644139 3963586
0.10785784 -0.0076780245 1.1626693 5146069
0.11140184 -0.012020692 1.1600342 5080276
-0.091500632 -0.0051726103 1.1603723 5342665
-0.084425278 -0.0028134435 1.1643374 4882633
-0.02107732 0.0025136769 1.1641656 6070261
-0.014399352 0.0026779026 1.164151 6528744
-0.0077213878 0.0028421357 1.1641364 8827627
0.0078605311 0.0032253414 1.1641023 10340848
0.016621137 0.0028044283 1.1640888 8895736
0.024143117 0.0022894293 1.1640786 6266608
0.098491788 0.0048885718 1.1629094 5475287
0.10305577 0.0014672056 1.1612641 5475028
-0.081104323 0.0032432079 1.162277 5999306
-0.074472703 0.0045161173 1.1622527 5540557
-0.065990105 0.008054629 1.1615379 5803727
-0.053313777 0.010134958 1.1641612 4950220
-0.044325955 0.0092311352 1.1641515 5016280
-0.03458878 0.0088557899 1.1637357 5411294
-0.024546854 0.0090729296 1.1618741 5806569
-0.014557919 0.0093458816 1.163492 7120874
-0.0049890177 0.010333508 1.1640644 12379901
0.0056107417 0.010047443 1.1615198 13891069
0.015428346 0.01004421 1.1608268 12969723
0.025376704 0.010533795 1.1616871 9946095
0.035452407 0.010553502 1.1620699 10013177
0.045139607 0.012670703 1.1617912 7449069
0.05175364 0.014698647 1.1639141 5411552
0.095483102 0.0086913928 1.1613815 6526426
-0.051456869 0.015130073 1.1641132 6264275
-0.043888871 0.016097881 1.1615896 5803990
-0.034332536 0.016949877 1.1600633 5345755
-0.024359167 0.018457294 1.1600302 5412839
-0.014784909 0.01929044 1.160504 5676266
-0.0057223318 0.018612556 1.1628494 7253489
0.0041084131 0.018656358 1.1609725 8436213
0.014138309 0.016662166 1.1599705 12051453
0.028448528 0.021453366 1.1598998 10082302
0.036304977 0.020906702 1.1598892 10607102
0.044808406 0.020270258 1.1598781 7515119
0.051862892 0.019841656 1.1612015 6068200
-0.01270054 0.024880648 1.1599503 6001365
-0.0082637975 0.024989761 1.1599405 6396124
0.1040657 0.033523321 1.1596439 6447199
-0.0059079928 -0.20715609 1.1699991 3039391
0.0016221525 -0.20638536 1.1714776 3039135
0.013077651 -0.20668918 1.1699576 3104930
-0.035219725 -0.1967026 1.1699638 2776478
-0.028818782 -0.19742346 1.1719577 2842271
-0.018873822 -0.19879952 1.1741323 2907807
-0.0096023036 -0.20042685 1.1746424 2908063
0.00043694209 -0.20102018 1.1757324 2973600
0.01073023 -0.19978842 1.1752346 3105187
0.020645592 -0.19920143 1.1742902 3236773
0.030313984 -0.1976299 1.1735767 3237029
0.041260984 -0.19744575 1.1736202 3171237
0.050929084 -0.19817829 1.1713077 3171236
0.060407739 -0.19639024 1.1706963 3105444
0.069215067 -0.19469295 1.1697407 3171493
-0.047622636 -0.18810652 1.173112 2841758
-0.039466549 -0.19020692 1.1739147 2907551
-0.030525669 -0.19106904 1.1767284 2842271
-0.019810859 -0.19198418 1.177892 2908064
-0.013036669 -0.19294265 1.1778872 2973857
0.0083272997 -0.19241725 1.1778405 3105444
0.021171056 -0.19110133 1.1778036 3237030
0.031227421 -0.191277 1.1769854 3302823
0.040867239 -0.19025937 1.1768342 3171495
0.050191298 -0.18862443 1.1763332 3105703
0.059904799 -0.18864611 1.1761055 3105703
0.069693409 -0.18792376 1.1741798 3105702
0.077958301 -0.18524 1.1713538 3105958
-0.059091493 -0.180702 1.1715157 2973598
-0.051047206 -0.18218714 1.1758662 2907551
-0.041108198 -0.18378875 1.1778611 2908065
0.071273275 -0.17944556 1.1776015 3237288
0.08006908 -0.17853692 1.1751316 3302823
0.088674784 -0.17630824 1.1721106 3237287
-0.068768598 -0.16965765 1.1726468 3105183
-0.061217971 -0.17281836 1.1759206 2974112
-0.052861787 -0.17479607 1.1778042 2842786
0.081399411 -0.17171922 1.1775129 3171750
0.089935608 -0.16790992 1.1761289 3172008
0.097948246 -0.16599515 1.1717626 3303081
-0.07713414 -0.16019729 1.1703886 3104930
-0.07084015 -0.16231138 1.1763953 3170978
0.092220977 -0.15949532 1.1773831 3303337
0.099955313 -0.15780473 1.1751027 3368873
0.10685694 -0.15635639 1.1718715 3237543
-0.087276153 -0.14763743 1.172297 3040164
-0.080460168 -0.15121785 1.1734382 3105701
-0.07396505 -0.15543905 1.1776737 3302822
0.10131038 -0.14872839 1.1772695 3303597
0.10864349 -0.14615843 1.1728684 3238059
0.11563671 -0.14294174 1.1711897 3303852
-0.089870878 -0.14135492 1.1733574 3106213
-0.082048982 -0.14316846 1.1775806 3172007
0.10932839 -0.1370326 1.1769497 3369387
0.11725145 -0.13663185 1.1731305 3435181
-0.097279139 -0.13131814 1.1708382 3237030
-0.090682574 -0.13179159 1.175163 3237800
-0.084217362 -0.13506511 1.1775129 3303594
0.11099844 -0.13093922 1.1770923 3500972
0.119294 -0.12648425 1.1737863 3500976
0.12389571 -0.12350836 1.1690006 3500977
-0.098642543 -0.12207595 1.1725366 3237545
-0.093931429 -0.12359057 1.176541 3303852
0.12085374 -0.11689615 1.1769482 3566772
0.12417551 -0.11718067 1.1729439 3566515
-0.10139281 -0.11242995 1.1725953 3369389
0.12147586 -0.10734463 1.1768621 3763639
0.12480597 -0.10636996 1.1719577 3763639
-0.10851992 -0.098780863 1.1705712 3435181
-0.10305186 -0.10230636 1.17383 3435438
0.1218456 -0.096245676 1.1767627 3895737
0.12681584 -0.0960491 1.1715745 3764149
-0.10817701 -0.092284597 1.1715795 3435438
-0.10278343 -0.092747696 1.1756347 3501231
0.12170724 -0.090623789 1.1767131 3961530
0.12697662 -0.086558282 1.1714898 3961528
0.13407427 -0.083030313 1.1686209 3895735
-0.10812212 -0.083023794 1.1720971 3501489
-0.10385519 -0.082671225 1.1749681 3501490
0.12126447 -0.072633751 1.1765541 4159679
0.12707974 -0.077210195 1.1718558 3962041
0.13401929 -0.080796801 1.1686012 3895735
-0.10877362 -0.07570529 1.1710334 3501747
-0.10403961 -0.072374307 1.1736612 3567541
0.12035803 -0.066280715 1.1764994 4225473
0.12405504 -0.066727497 1.1724958 4159424
-0.10251787 -0.062191691 1.172501 3764919
0.11988986 -0.057416763 1.1764215 4422597
0.12380682 -0.056642368 1.1724068 4357059
-0.10226618 -0.052411839 1.1722422 3896505
-0.097509384 -0.052137699 1.176802 3962298
0.11950356 -0.046800718 1.1763279 4685767
0.1235586 -0.046557244 1.1723176 4422851
-0.1010335 -0.043269228 1.1703298 4027836
-0.096053846 -0.041334938 1.1756122 4028094
0.1173643 -0.036275472 1.1741209 4948684
0.12329862 -0.038069338 1.1692426 4751818
-0.099540018 -0.035138592 1.1686547 4093632
-0.094043396 -0.031501018 1.1744579 4094399
0.11036644 -0.026024342 1.1761613 5080784
0.11469481 -0.027027763 1.1713614 5211343
-0.091006473 -0.022994556 1.1728938 4094402
-0.08455018 -0.019747801 1.1754887 4226244
-0.078100041 -0.017908618 1.1764597 4620744
-0.024155587 -0.015456907 1.1763319 5412064
-0.0016672006 -0.014903851 1.1762828 6463211
0.0064965771 -0.01854153 1.176299 6397929
0.016165439 -0.017662823 1.1762722 6397929
0.025350491 -0.015525192 1.1762352 6003432
0.10713004 -0.016844496 1.173586 5081042
0.11240511 -0.019869313 1.1681023 5081041
-0.083392933 -0.01195062 1.1702836 4160963
-0.075331174 -0.010769233 1.1755337 4752075
-0.060358398 -0.0073467791 1.176331 4949201
-0.053598039 -0.0077430531 1.1763213 5016022
-0.043993291 -0.0086327195 1.1756436 5213659
-0.034144416 -0.0092998743 1.175066 5411552
-0.024281207 -0.0098356828 1.1754822 5740773
-0.014174185 -0.009586148 1.1762601 6003172
-0.0040564099 -0.0093378201 1.175838 6331366
0.0060330601 -0.0090871155 1.1732157 6989552
0.016132968 -0.0088393912 1.1735938 6792432
0.026214905 -0.0085896626 1.1729217 5937640
0.034682337 -0.0074464008 1.1751449 5806054
0.045364697 -0.0058718026 1.17611 5674725
0.052083537 -0.0045815036 1.1760854 5674983
0.097965896 -0.0059845075 1.1760076 5146841
0.10402176 -0.0079486817 1.1702986 5080789
-0.080207177 -0.0033748969 1.1683344 4554184
-0.076775759 -0.0024373531 1.1713194 4751049
-0.06152799 -0.0017679334 1.1742836 4818129
-0.05408904 -0.0015897676 1.1734674 5015507
-0.044558398 -0.001371704 1.1700466 5147609
-0.034456138 -0.0011302903 1.1687245 5346018
-0.024803691 -0.0012522042 1.1713178 5937898
-0.014338759 -0.0017395243 1.1715238 6462952
-0.0039055785 -0.00074286759 1.1706055 8303605
0.0054662535 -0.00062440336 1.1695701 8501495
0.015343288 -0.0013669506 1.1687441 7252467
0.026637282 -0.00053888559 1.1695538 6069484
0.035757937 0.00078094006 1.1703854 6135528
0.04588275 0.00067346543 1.1734625 5741031
0.055267874 0.0011142194 1.1750284 5543655
0.06471432 0.0026525706 1.1759962 5477092
0.0747438 0.0042262152 1.1759626 5739747
0.086119071 0.0042559355 1.1759399 5280481
0.095394142 0.0018254444 1.1722507 5015513
0.10092553 -3.1515956e-005 1.1699486 4949463
-0.073671274 0.0034904629 1.1682605 4818122
-0.064264923 0.0047150478 1.1682311 5147606
-0.055597007 0.0056731775 1.1682056 4818639
-0.046868019 0.0041496307 1.1682019 5344472
-0.0022096513 0.0058066249 1.1680994 12971007
0.0022713039 0.0053581074 1.1680946 12905215
0.026840957 0.005962342 1.168041 5807584
0.04024259 0.0062919259 1.1680117 6004710
0.046281669 0.0073982552 1.16799 5807083
0.05501429 0.010108501 1.1700821 5477863
0.063531525 0.0099048093 1.1726006 5542628
0.07541962 0.0072429776 1.1759344 5673698
0.085934304 0.0094476342 1.174394 5804766
0.091615513 0.0075553358 1.1678995 5147865
0.05783657 0.017898992 1.167874 5412324
-0.0062332964 -0.19566074 1.1818981 3039650
0.00022958592 -0.19614688 1.1818897 3039650
-0.026735764 -0.18826289 1.1818726 2842271
-0.019966401 -0.18809643 1.1818578 2973857
-0.0096148895 -0.18892244 1.1831081 2973857
0.00017992873 -0.19042371 1.1843654 3039395
0.010787578 -0.18823433 1.1835765 3171237
0.020054927 -0.18659411 1.1828326 3237030
0.030384965 -0.18578529 1.1832769 3302569
0.038724639 -0.18572322 1.1830548 3237546
-0.046657007 -0.17827046 1.181823 2908065
-0.039057959 -0.17905119 1.181815 2973857
-0.030333109 -0.18059209 1.1828116 2973857
-0.020540584 -0.18224305 1.1839247 2973858
-0.012226298 -0.18285128 1.1857961 3105444
0.01947071 -0.18207176 1.1857269 3237030
0.031131268 -0.18027475 1.185688 3302825
0.040048514 -0.17960291 1.1853569 3171754
0.049912367 -0.17989373 1.1836476 3171752
0.060241397 -0.17922133 1.1830331 3171753
0.06859915 -0.17590082 1.1825755 3237546
0.07675574 -0.17330018 1.1815362 3303592
-0.058064543 -0.16909 1.1817639 2908579
-0.049815901 -0.17104006 1.1837651 2908579
-0.03994618 -0.17225966 1.1846656 3105444
-0.031252127 -0.17380469 1.1857532 3105443
0.063397221 -0.17193004 1.1855505 3303339
0.071369715 -0.16947168 1.1841795 3303082
0.07970801 -0.16717604 1.1820475 3237545
0.085559428 -0.16405272 1.1814368 3303850
-0.067368038 -0.15803012 1.1816839 3302822
-0.060647175 -0.16215166 1.1839573 3040165
-0.053425364 -0.16574162 1.1857251 3040167
0.074494697 -0.16259569 1.1854457 3303598
0.080455445 -0.15846118 1.184456 3238061
0.088963032 -0.15620615 1.1824715 3303596
0.0965918 -0.15362158 1.1813223 3369131
-0.077405162 -0.14774086 1.1816121 3171751
-0.070889302 -0.15120226 1.1830419 3368615
-0.063892297 -0.15467224 1.1856474 3171751
0.09824717 -0.14699064 1.1827602 3369134
-0.079553105 -0.14073825 1.1815542 3369130
-0.073381878 -0.14252056 1.184558 3434922
0.099137977 -0.13728696 1.18422 3435183
-0.081486844 -0.13217314 1.1828152 3434923
0.10171515 -0.13012534 1.1843036 3501232
0.10839541 -0.12683314 1.1836494 3435694
0.11507749 -0.12494524 1.1810312 3501232
-0.089981876 -0.12123822 1.1824014 3369646
-0.084169388 -0.12483566 1.1840887 3435182
0.11189734 -0.11750137 1.1849715 3567282
0.11598412 -0.11688538 1.182776 3567027
-0.098685123 -0.10875379 1.1813076 3501231
-0.093999386 -0.112546 1.1840822 3435439
0.11170232 -0.10957741 1.1849014 3829686
0.11673262 -0.10665587 1.1830877 3829431
-0.098768421 -0.10536923 1.1812776 3501231
-0.094459534 -0.10200736 1.182906 3567024
0.11880951 -0.097218178 1.1834443 3830201
-0.099115513 -0.091266915 1.1811531 3632818
-0.095865309 -0.09188997 1.1831522 3698612
0.12066414 -0.086564876 1.1826792 3896507
-0.099351533 -0.081677333 1.1810683 3633333
-0.095497437 -0.081753656 1.1838615 3764919
0.12024757 -0.07636828 1.1820894 4093886
-0.10001941 -0.072888583 1.1809915 3633334
-0.095999405 -0.071827665 1.1841743 3830201
0.11700933 -0.066814132 1.1827332 4291523
-0.095832646 -0.061532211 1.1825491 3896506
0.11626063 -0.056350622 1.1820194 4619975
-0.092788339 -0.051903319 1.1825051 4028348
0.11011425 -0.045053758 1.1843312 5146320
0.11459415 -0.047173955 1.1833411 4883148
-0.091305502 -0.042461757 1.1809897 3962814
-0.086354703 -0.040957876 1.1835381 3963072
0.10890228 -0.036267113 1.1827554 5146577
0.11270045 -0.037814192 1.1807616 5080527
-0.090154715 -0.033361349 1.1806209 4028607
-0.084016584 -0.031444289 1.1827252 4291526
-0.034155816 -0.028213553 1.1844652 5147865
-0.02668995 -0.027803406 1.1844468 5344731
-0.010410921 -0.02649691 1.1844032 5345501
-0.0036187032 -0.026329875 1.1843884 5739743
0.0066104834 -0.028322436 1.1830525 5936862
0.015663821 -0.028105088 1.1833662 5871068
0.025842093 -0.026738018 1.184334 5739228
0.043926809 -0.025160588 1.1842844 5213656
0.10680769 -0.027435213 1.1825811 4949970
-0.08242701 -0.023971029 1.1805222 4422856
-0.074110687 -0.018986687 1.1822798 4686797
-0.063771114 -0.017602287 1.182429 4884690
-0.053339519 -0.018771201 1.183919 4950486
-0.042870104 -0.019280352 1.1830695 5213659
-0.034277838 -0.020257398 1.1811945 5279707
-0.024091214 -0.021140978 1.1815825 5345244
-0.013969372 -0.019260108 1.1814569 5411808
-0.0040858602 -0.020132929 1.1812432 5806052
0.0053227721 -0.023035944 1.1803414 6068964
0.017366456 -0.023116037 1.1803185 6068963
0.027343709 -0.020481139 1.1811985 6003173
0.035757408 -0.018547527 1.1820418 5608417
0.045956202 -0.018300705 1.1826195 5411038
0.052815929 -0.018145904 1.1842047 5279709
0.097449593 -0.015299149 1.1831685 5212630
0.1031789 -0.018765353 1.1814444 5015248
-0.070555411 -0.013237029 1.1804035 4949712
-0.063786045 -0.013070554 1.1803887 4949713
-0.053631999 -0.012820832 1.1803665 5016279
-0.044220842 -0.012965672 1.1803493 5213659
-0.035552584 -0.013505071 1.1803371 5345501
0.037204217 -0.011151344 1.1801732 5871590
0.045652039 -0.010379151 1.1801497 5871847
0.055855181 -0.0078773126 1.1821074 5543139
0.063111335 -0.0065669194 1.1823672 5280225
0.087630436 -0.0059629232 1.184028 5411294
0.09352015 -0.0072544515 1.1814823 5279196
0.065187767 -0.0014322028 1.1800318 5411556
0.074736066 0.000495933 1.1799958 5412066
0.086018331 0.00077339262 1.1799712 5477344
0.092843235 -0.0013165027 1.1799763 5213404
0.0010717912 -0.18576564 1.1897962 3105189
-0.019499354 -0.17779484 1.1907657 3039906
-0.0097478973 -0.17968634 1.191192 3039908
-0.00018385425 -0.18059564 1.1930861 3105447
0.010398035 -0.17958125 1.1904728 3105702
0.019446872 -0.17811596 1.189692 3171750
0.028420204 -0.17748201 1.1896688 3237289
0.039836161 -0.17534156 1.1896273 3237548
0.05005876 -0.17509016 1.189605 3171752
0.059145518 -0.17486669 1.1895851 3171752
-0.047426701 -0.1670319 1.189725 3039909
-0.039559703 -0.16756204 1.1906031 3105701
-0.031337257 -0.1699957 1.1922653 3105443
-0.02160522 -0.1751387 1.1937464 3040163
0.0091429669 -0.17347026 1.1936711 3105960
0.020512071 -0.1720757 1.1936364 3105958
0.029568441 -0.17034821 1.1928033 3237545
0.039935354 -0.16904166 1.1916765 3237547
0.049966786 -0.16848642 1.1911465 3237544
0.060022581 -0.16801107 1.1912067 3237545
0.068621665 -0.16581987 1.1901528 3303339
-0.058903582 -0.15788129 1.1896663 3172009
-0.050400831 -0.16081609 1.1920757 3105961
-0.041009948 -0.16278754 1.1936748 3171752
0.0430745 -0.16214503 1.1935037 3303337
0.049912419 -0.16197687 1.1934888 3303593
0.059982445 -0.16075182 1.1934582 3303594
0.069120467 -0.15792269 1.192165 3303596
0.07589817 -0.15627085 1.189387 3238062
-0.066496231 -0.14954434 1.1896071 3434409
-0.060707428 -0.15114047 1.1924335 3237547
-0.052310087 -0.15329514 1.1936127 3237805
0.069904901 -0.15058899 1.1933483 3238318
0.079124846 -0.14743841 1.1921822 3238572
0.089237556 -0.14699003 1.1904783 3434926
0.095719129 -0.1462369 1.1892588 3369134
-0.069056273 -0.14056188 1.1907631 3435179
-0.063060351 -0.14240488 1.1930926 3369388
0.083597131 -0.14062306 1.1932329 3500977
0.089128286 -0.13695589 1.1921893 3435186
0.094579354 -0.13686992 1.1891778 3500720
-0.077834167 -0.13003436 1.190456 3566511
-0.072059266 -0.13275746 1.1921356 3566767
-0.064782113 -0.13514972 1.193476 3500977
0.090405062 -0.12928495 1.1926187 3501234
0.098226354 -0.12667449 1.1898301 3501490
-0.087752111 -0.11710889 1.1893606 3566770
-0.080875814 -0.12150143 1.1919863 3632306
-0.074123725 -0.12625706 1.1934153 3632563
0.099818051 -0.11795254 1.1915877 3699127
0.10722385 -0.11650161 1.1894425 3633076
-0.089095853 -0.11154305 1.1903139 3566770
-0.083064489 -0.11226705 1.1933086 3763892
0.10049041 -0.10884934 1.1929173 3633335
0.10710689 -0.10651321 1.190439 3764407
-0.089472093 -0.10145336 1.1920251 3698868
-0.085111834 -0.10194749 1.1932209 3699126
0.10076574 -0.096869417 1.1928103 3962811
0.10730347 -0.096807383 1.1916302 3830969
0.11502638 -0.096860543 1.1887821 3830714
-0.090894006 -0.091546193 1.1900628 3699126
-0.085611299 -0.091950476 1.193133 3830712
0.10775882 -0.086848147 1.1921074 4028606
0.11591464 -0.086772643 1.1886907 3962300
-0.09054596 -0.082043536 1.1906546 3830970
-0.085649334 -0.08158011 1.193041 3962813
0.10780877 -0.077780649 1.1926268 4291522
0.11567103 -0.077206612 1.1889699 4094399
-0.091094904 -0.071984313 1.1906806 3962044
-0.086207338 -0.072145626 1.1929582 4093630
0.10912742 -0.067003086 1.1922618 4554438
0.11398302 -0.067662172 1.1885247 4357059
-0.090719134 -0.061932031 1.1902095 4093886
-0.0861542 -0.061067116 1.1928596 4291009
0.10703472 -0.05651262 1.1915505 4686026
0.1130584 -0.056482375 1.1884271 4685769
-0.089289621 -0.054639768 1.1888086 4159935
-0.084344365 -0.052023672 1.1916329 4225985
0.099531613 -0.046726562 1.1923672 5015248
0.10564328 -0.047874548 1.1896986 5014991
-0.081572153 -0.042141125 1.1908001 4292037
-0.076143213 -0.044205118 1.1926901 4619977
-0.053518437 -0.036806911 1.1925799 5279449
-0.045540869 -0.036610719 1.1925625 5016538
-0.032976639 -0.037442025 1.1925452 4950743
-0.023415931 -0.03888382 1.1925392 4950488
-0.014324916 -0.038503733 1.1925179 5147351
-0.0039014695 -0.037297137 1.1924868 5278422
0.0067195585 -0.039358951 1.1915952 5212886
0.016050618 -0.038474258 1.1907079 5278423
0.026001055 -0.037387531 1.1911787 5147094
0.036911864 -0.037515163 1.1924084 4885460
0.046357736 -0.035784829 1.1916472 4950741
0.055454805 -0.035039183 1.1923499 5016279
0.097796991 -0.036925483 1.1908834 5212370
0.10521417 -0.037923206 1.1882776 5212369
-0.079662487 -0.035125975 1.1906164 4423370
-0.077669188 -0.031884596 1.1901835 4554187
-0.053176016 -0.03177692 1.1922679 5147610
-0.043341797 -0.030820891 1.1905067 5081818
-0.034182411 -0.032870993 1.1905068 5016538
-0.023069847 -0.031159513 1.1906031 5278938
-0.013981254 -0.030329376 1.1905779 5344730
-0.0034947013 -0.030959591 1.1894962 5673948
0.0067819254 -0.032956757 1.188427 5805277
0.015868681 -0.032733288 1.1884072 5541848
0.026063325 -0.031346068 1.1883748 5475544
0.036230013 -0.02882307 1.1883324 5213397
0.046898447 -0.029177658 1.1890205 5082070
0.056570731 -0.028142914 1.1906865 5016536
0.065456338 -0.025735959 1.1922476 5213915
0.07617759 -0.024494901 1.1922156 5279453
0.087129466 -0.024681672 1.1921957 5213659
0.096632637 -0.027382679 1.1906009 5212628
0.10324483 -0.027174994 1.188186 5146833
-0.077494197 -0.025937445 1.1885303 4554443
-0.052323185 -0.023500025 1.1884592 5016281
-0.045031413 -0.024229884 1.1884513 5147611
-0.013886909 -0.024373151 1.1883914 5411294
0.056802236 -0.018088751 1.1881965 5148123
0.065522678 -0.017877087 1.1883775 5213915
0.075564414 -0.017846383 1.1898967 5213917
0.086317211 -0.017510988 1.1904492 5213659
0.094359197 -0.019063912 1.1884648 5212887
0.086923689 -0.010529026 1.1880702 5279708
0.091467075 -0.010417297 1.1880603 5411037
-0.015945498 -0.17569837 1.1987405 3106213
-0.010223429 -0.17555764 1.198728 3105959
0.0010733083 -0.17593417 1.1987091 3105706
0.011520422 -0.1750229 1.1986804 3105960
-0.02698642 -0.16909951 1.1987035 3105700
-0.019526914 -0.17016023 1.1994483 3105957
-0.010366847 -0.16993497 1.1994283 3106216
-5.4670498e-005 -0.16979484 1.2002568 3106217
0.010570919 -0.16901954 1.2000576 3171752
0.01845365 -0.16833438 1.1996983 3303337
0.029605709 -0.16541761 1.1985595 3369130
0.036472186 -0.16524875 1.1985445 3369132
-0.039860342 -0.15819722 1.1989653 3171753
-0.030124355 -0.16035306 1.2013521 3171752
-0.019823555 -0.16036481 1.2034121 3172010
-0.010607648 -0.16141018 1.2043533 3172012
-0.00058117509 -0.16074145 1.2051231 3237802
0.010065515 -0.15978186 1.2045481 3303338
0.019267989 -0.15958196 1.2047284 3369133
0.029570874 -0.15910846 1.2029837 3369388
0.039693542 -0.15852921 1.2022681 3303853
0.048943639 -0.15714261 1.2001981 3369643
0.05902572 -0.1561013 1.1986542 3303851
-0.057876676 -0.14695793 1.1985675 3303598
-0.049696773 -0.14957175 1.200289 3303341
-0.041085079 -0.15107544 1.2037141 3303340
-0.031701736 -0.15226415 1.2065636 3369132
-0.023486398 -0.15394831 1.2065624 3303600
0.0099224709 -0.15312669 1.2064893 3303598
0.022594802 -0.15281504 1.2064617 3435186
0.030082993 -0.1526309 1.2064453 3369391
0.039875247 -0.15239006 1.206424 3369392
0.049612481 -0.14923894 1.2057614 3369390
0.059144996 -0.14796139 1.2021465 3435184
0.068481259 -0.14614055 1.1983118 3369392
-0.058999524 -0.13997282 1.1993077 3369646
-0.051803544 -0.14208205 1.2041125 3303853
-0.044449762 -0.14524239 1.2065262 3173034
0.051353764 -0.14104201 1.2063005 3566773
0.059503745 -0.13953665 1.2056044 3566516
0.06926024 -0.1374349 1.2026331 3500977
0.079185121 -0.13786392 1.1999016 3500975
-0.069460578 -0.12826748 1.1984242 3632562
-0.060502969 -0.13110103 1.2014319 3501236
-0.052977473 -0.13106072 1.2059726 3501494
0.071269937 -0.12827611 1.2061479 3698612
0.078838117 -0.12844636 1.2037709 3567283
0.087632217 -0.12580706 1.2010269 3567283
0.094967715 -0.12258791 1.1980505 3501747
-0.076891422 -0.11879897 1.1983547 3895478
-0.071243279 -0.12118103 1.2008649 3698613
-0.06232512 -0.12188765 1.2050204 3633080
0.072546937 -0.12161679 1.2060863 3699128
0.07902614 -0.1182654 1.2060437 3830713
0.088492371 -0.11765373 1.2048197 3699126
0.095267765 -0.11616817 1.1979928 3633333
-0.078396484 -0.11082055 1.1982868 3961271
-0.071630128 -0.11107408 1.2032759 3896247
-0.06482815 -0.11346839 1.2062839 3764921
0.078748807 -0.11132064 1.2059826 3962300
0.089546159 -0.10854588 1.205466 3896506
0.097028248 -0.10650907 1.1999036 3764920
-0.079985045 -0.10152581 1.1997074 3830712
-0.073128402 -0.10089173 1.2048551 4093627
0.092244267 -0.097617604 1.2058343 4028352
0.097610906 -0.096922308 1.200484 3962812
-0.080637828 -0.091218263 1.2001171 3962556
-0.074164309 -0.092149585 1.2056683 4028606
0.091461644 -0.087229759 1.2057436 4357317
0.097868457 -0.087294333 1.2017313 4225985
0.10316539 -0.08345414 1.1976866 4225985
-0.080367938 -0.082200542 1.2000364 4028606
-0.075587392 -0.082226291 1.2060275 4094655
0.091790624 -0.079185814 1.2056713 4554695
0.09756244 -0.076923184 1.2010398 4554182
0.10372178 -0.075043321 1.1976107 4619462
-0.081315354 -0.071581014 1.1984143 4159424
-0.073354781 -0.070346273 1.2046866 4160448
-0.067085944 -0.068569236 1.2058893 4554440
0.091922529 -0.065811425 1.2055522 4620747
0.09751334 -0.066710755 1.2032992 4686026
0.10391551 -0.067404807 1.1975425 4619977
-0.080934145 -0.061909474 1.197857 4291265
-0.072862335 -0.061676111 1.2030894 4357573
-0.067256063 -0.061657302 1.2058283 4751563
0.0067917039 -0.057146657 1.2056426 4818903
0.014453001 -0.056189783 1.2056191 4819160
0.089869484 -0.057332054 1.2054809 4752590
0.097284555 -0.057512056 1.2032179 4817869
0.10257392 -0.059422363 1.1974742 4752076
-0.079182997 -0.052278075 1.1977681 4291778
-0.073201925 -0.051398445 1.2013276 4554440
-0.067454532 -0.053593393 1.205757 4883149
-0.049051646 -0.046100017 1.2016542 5674209
-0.043310538 -0.045958824 1.2016416 5082331
-0.03187653 -0.048501246 1.2035084 4950745
-0.022522014 -0.050029315 1.2010368 4884953
-0.013337622 -0.049796063 1.2008168 4753366
-0.0030362522 -0.048435077 1.2019844 4884692
0.0075861327 -0.049804453 1.2011312 4884692
0.016327225 -0.048861161 1.2017606 4884692
0.026497297 -0.047398575 1.2041839 4950484
0.037453108 -0.048095368 1.2023907 4950488
0.046225883 -0.047610823 1.2033626 4950489
0.056796346 -0.045893714 1.2043777 5411037
0.065772429 -0.045418043 1.2054224 5542623
0.079835176 -0.043055005 1.2053738 5213404
0.087682262 -0.045743734 1.2053822 5081558
0.096038938 -0.047800582 1.202984 5015248
-0.074208908 -0.041686594 1.1976641 4685772
-0.051997751 -0.040666681 1.1987023 5542365
-0.043025594 -0.040625997 1.1987363 4951002
-0.034240197 -0.041447196 1.1975834 4884951
-0.024934761 -0.043092094 1.1975797 4753366
-0.011229965 -0.041609991 1.1975397 4950484
-0.002353725 -0.041677959 1.1975228 5015763
0.027708247 -0.041797448 1.1974647 5015764
0.034574725 -0.041628581 1.1974498 4885461
0.046485178 -0.040354185 1.197415 4884950
0.05724889 -0.039009269 1.1992282 5082072
0.066600308 -0.037613973 1.2021514 5542624
0.076210909 -0.038514551 1.2045406 5279197
0.086323589 -0.037041508 1.2017075 5213144
0.093683966 -0.039411534 1.1973139 5212627
0.060670909 -0.031826295 1.1973114 5016538
0.066350721 -0.029969014 1.1972836 5213917
0.075826474 -0.027255006 1.1972409 5345245
0.086231954 -0.029303662 1.1979054 5213917
0.1774742 -0.029126935 1.2050581 13158081
-0.010770838 -0.1564315 1.2105596 3303598
0.0019433824 -0.15611881 1.2105318 3303850
-0.039466176 -0.14649743 1.2105278 3303853
-0.02965859 -0.14784962 1.2108777 3304111
-0.020035293 -0.149717 1.2126236 3303857
-0.010950592 -0.14981273 1.2132514 3303856
-0.0005239388 -0.14958552 1.2134788 3369903
0.009835124 -0.14782925 1.2104427 3435441
0.018921789 -0.14851882 1.210431 3435187
0.02938107 -0.14762391 1.2104025 3500978
0.039886922 -0.14709018 1.2103771 3369649
0.046550952 -0.14530721 1.2103481 3435441
-0.047818057 -0.13922417 1.2104796 3370159
-0.041249342 -0.13983363 1.2104721 3370416
-0.03088589 -0.1398218 1.2127017 3436469
-0.020500936 -0.13986503 1.2154318 3502005
-0.011216144 -0.1396367 1.2154115 3501749
-0.00068506319 -0.14286147 1.2154194 3501493
0.009657776 -0.13898435 1.2141147 3567542
0.018953724 -0.13885999 1.2150328 3567541
0.029357485 -0.13847351 1.2138213 3633333
0.039694175 -0.13794187 1.2112337 3567541
0.048268359 -0.1370094 1.210271 3633079
0.058248803 -0.13457803 1.2102298 3632566
-0.048411943 -0.13075779 1.2104055 3501750
-0.041545667 -0.13083775 1.2128928 3567798
-0.03313233 -0.1311536 1.2153792 3633848
-0.01948316 -0.13403371 1.2153779 3633591
-0.012519562 -0.13386247 1.2153628 3699128
0.0095032528 -0.13215959 1.2153044 3830714
0.019948643 -0.13190271 1.2152815 3764921
0.02942108 -0.13071963 1.2152524 3830712
0.039950922 -0.12954897 1.2148641 3830713
0.048650898 -0.12903753 1.214533 3830458
0.058966391 -0.12853494 1.2125431 3764409
0.067047186 -0.1268162 1.2106991 3764407
-0.057694882 -0.12011504 1.2103292 3698874
-0.051060207 -0.12061656 1.2125707 3764923
-0.042481653 -0.12107407 1.215308 3765435
-0.035960048 -0.12514886 1.2153314 3699641
0.057661593 -0.12284642 1.2151269 3896252
0.067672387 -0.11815354 1.2124463 3831226
0.075006746 -0.11731412 1.2100434 3830458
-0.060565472 -0.11073109 1.211041 3896508
-0.051419176 -0.11043268 1.2152311 4028352
-0.043509956 -0.11093494 1.21522 4094143
0.068697415 -0.10822792 1.2114037 4159936
0.077985182 -0.10675532 1.2099438 4028352
0.085984588 -0.10519007 1.2099141 3962559
-0.0688008 -0.10119036 1.2101829 4093628
-0.061897002 -0.10107824 1.2109183 4028352
-0.051635228 -0.1011251 1.2148362 4094401
-0.044956189 -0.099357918 1.2151198 4225986
0.069941439 -0.09900067 1.2135272 4357317
0.078184083 -0.097786486 1.2126763 4225732
0.087000519 -0.097127445 1.2098404 4159938
-0.070031293 -0.091473013 1.210099 4028609
-0.061849035 -0.091332324 1.2114453 3963330
-0.052509114 -0.091127962 1.2150617 4160708
-0.04601606 -0.094042197 1.2150748 4292035
0.072222196 -0.08532808 1.2147648 4620236
0.077737078 -0.087936983 1.2133882 4488649
0.086216174 -0.088392958 1.2097644 4357318
-0.071439087 -0.081264399 1.210011 4160449
-0.062828295 -0.081197485 1.2136892 4160708
-0.053537413 -0.080988824 1.2149736 4489161
0.078618295 -0.078633487 1.2136214 4555212
0.086857982 -0.077239238 1.209664 4620489
-0.16377926 -0.074874431 1.2151359 14082013
-0.07024461 -0.073855482 1.2099428 4226242
-0.06219469 -0.071345292 1.2124047 4620234
-0.055146009 -0.069106132 1.2148712 5079759
-0.021111291 -0.067882031 1.2147933 6791922
-0.013015666 -0.066521682 1.2147653 5608162
-0.0025702771 -0.066264801 1.2147425 5016279
0.0075955354 -0.068060279 1.2133747 5608413
0.016013587 -0.066388398 1.214707 4950485
0.022962898 -0.065636866 1.2146868 5016277
0.081078522 -0.067691408 1.2145907 4752847
0.086974286 -0.067586049 1.2113428 4620747
-0.063090391 -0.062469404 1.2108276 4948687
-0.052533157 -0.065171018 1.214831 5408980
-0.031055097 -0.061525941 1.2128333 6134248
-0.022410832 -0.060842317 1.2122332 5344990
-0.013473143 -0.060803968 1.2125725 4884696
-0.0023066942 -0.060572047 1.2126325 4818902
0.0081753358 -0.061595548 1.2096797 4818646
0.01727625 -0.060281437 1.2103645 4818646
0.027373912 -0.059584107 1.2113742 4884696
0.037445553 -0.058841817 1.2113835 5344733
0.04669245 -0.058598518 1.2110059 5936870
0.056407344 -0.057812903 1.2137181 5608416
0.065478705 -0.056694724 1.2145237 5082072
0.078287765 -0.0571809 1.2115027 5016278
0.084663391 -0.058557991 1.2095023 4884178
-0.031767562 -0.055176295 1.2097012 5082331
-0.0028716056 -0.054465659 1.209638 4687574
0.020245165 -0.05389715 1.2095876 4687574
0.028154656 -0.053041775 1.2095644 4819159
0.03527106 -0.05352762 1.2095547 4950233
0.047985282 -0.053214941 1.2095269 5542369
0.056686681 -0.051715955 1.2094965 5805540
0.069475599 -0.049216945 1.2094492 5213659
0.076795898 -0.04903692 1.2094332 5147866
0.085704744 -0.050745316 1.2094308 5081557
-0.00078001991 -0.1386483 1.2193823 3633335
-0.0285629 -0.12874003 1.2193489 3699641
-0.021029912 -0.12900336 1.2193364 3765177
-0.011308248 -0.12892455 1.2209637 3830714
-0.00099601131 -0.12961672 1.2221826 3962299
0.0094205402 -0.12681073 1.2199237 4028092
0.018255414 -0.1273891 1.2195306 3962300
0.027758438 -0.12678923 1.2199482 3962299
0.037286017 -0.12523909 1.2214106 3962299
0.049655702 -0.12389314 1.219152 3896509
0.059425253 -0.12318685 1.2191266 3830714
-0.038556889 -0.11860611 1.2192785 3962813
-0.03195357 -0.12015841 1.2210572 3962813
-0.020968974 -0.12108481 1.2232661 4028350
-0.011677179 -0.12298152 1.2232647 4093886
-0.0046678865 -0.12280914 1.2232494 4093886
0.0092644459 -0.11895988 1.2231878 4291263
0.018610172 -0.11873004 1.2231674 4291265
0.027955893 -0.1185002 1.223147 4291265
0.038469836 -0.11824164 1.223124 4225471
0.048866998 -0.11775701 1.2205992 4159424
0.058117557 -0.11739367 1.2190776 4028351
-0.03995055 -0.10931984 1.2191987 4159681
-0.034367573 -0.11090916 1.2221111 4159937
0.0090631871 -0.11078268 1.2231156 4685507
0.018619554 -0.10961255 1.2230864 4685766
0.027497992 -0.1093942 1.223067 4685768
0.039522082 -0.10918351 1.2230415 4685254
0.048741739 -0.10861637 1.2227683 4553924
0.05790076 -0.10809863 1.2192454 4357059
0.06365303 -0.10560685 1.218962 4291524
-0.041125566 -0.10141116 1.2194641 4291267
-0.035357516 -0.10035934 1.2223102 4291525
0.01940462 -0.10351507 1.2230307 5080013
0.026413914 -0.10334269 1.2230153 5013964
0.041485712 -0.098296516 1.2229409 5014215
0.048495006 -0.098124139 1.2229255 4948424
0.057797443 -0.097832702 1.2221047 4686025
0.06539645 -0.097059414 1.2204827 4554696
-0.048617236 -0.088561743 1.2190313 4423366
-0.043031737 -0.090567052 1.2209048 4489158
-0.036957238 -0.093212381 1.2230499 4554697
0.041226946 -0.087782964 1.2228479 6725605
0.048475638 -0.087838471 1.2228342 5541334
0.057581961 -0.087380745 1.2228122 4949456
0.06758789 -0.088307858 1.2212769 4752076
-0.050010905 -0.079275467 1.2189515 4751821
-0.044239398 -0.0804554 1.2216175 4817612
-0.018668309 -0.076398298 1.2228645 6133729
-0.016331878 -0.076340839 1.2228594 5804510
0.0082198158 -0.076516286 1.2228128 6726116
0.016378157 -0.0755364 1.222788 6791913
0.029228527 -0.075220369 1.22276 5673696
0.03800191 -0.078121617 1.2227684 5344728
0.049174447 -0.078236483 1.2227474 5475805
0.057351954 -0.07803537 1.2227297 5147095
0.067789592 -0.077709265 1.2215061 4949712
0.076284274 -0.074421898 1.2186601 4621777
0.1846012 -0.071399301 1.2224205 11781308
-0.052483 -0.073510922 1.2189051 4883150
-0.043603651 -0.071350768 1.2188685 6001884
-0.032774061 -0.069531016 1.2188311 6133474
-0.021078441 -0.072126009 1.2204312 6067939
-0.013251157 -0.071228147 1.2198987 6594284
-0.0022610147 -0.069686875 1.2198634 6002915
0.0087820012 -0.072703272 1.2187775 6857704
0.017750522 -0.070460454 1.2194066 6397928
0.026929688 -0.069560155 1.2205807 6397674
0.035971586 -0.069520935 1.2210959 6002659
0.047964513 -0.068941586 1.2216005 5476060
0.057031736 -0.06860622 1.2208964 5213402
0.0676146 -0.0695576 1.2218341 5081814
0.077651963 -0.068280742 1.2192183 4818898
0.18739954 -0.066362754 1.2223703 12896707
0.040468957 -0.063069485 1.2186296 6331369
0.049784217 -0.062840395 1.2186092 5805025
0.056770653 -0.062668577 1.218594 5213658
0.06774237 -0.061363142 1.2185608 5213658
0.076076902 -0.061261725 1.2185435 5082070
-0.028292414 -0.11681852 1.2282429 4160192
