# .PCD v0.7 - Point Cloud Data file format
VERSION 0.7
FIELDS x y z rgba
SIZE 4 4 4 4
TYPE F F F U
COUNT 1 1 1 1
WIDTH 174
HEIGHT 1
VIEWPOINT 0 0 0 1 0 0 0
POINTS 174
DATA ascii
-0.40590069 0.075626977 1.1007488 5134174
-0.39901021 0.07487864 1.1006832 5134176
-0.40697002 0.080208309 1.1007386 4871515
-0.41174081 0.057139233 1.1078914 4936281
-0.40106511 0.055922441 1.1077902 5199967
-0.39622346 0.056531407 1.107739 5397348
-0.42073759 0.062781669 1.1076559 4673880
-0.41301915 0.063216537 1.1056591 4870232
-0.40353686 0.064487725 1.1062759 5068382
-0.39384255 0.066086203 1.1067172 5068384
-0.38625431 0.06860172 1.1075845 4476504
-0.42232826 0.072109617 1.1062627 4607822
-0.41532457 0.073006436 1.1048552 4673623
-0.40432474 0.073634431 1.1047423 5134174
-0.39408398 0.07582444 1.1046299 4739419
-0.3863079 0.076563969 1.1058345 4081746
-0.42354089 0.08040569 1.107904 4410445
-0.41541687 0.082500562 1.104813 4213839
-0.40524578 0.084296264 1.1047031 4345429
-0.39519507 0.08514408 1.1045986 4016211
-0.38705924 0.085822135 1.1056682 3621193
-0.41548634 0.087976828 1.1047888 3884109
-0.40629053 0.090123065 1.1046871 3752784
-0.3959358 0.091357194 1.1045779 3621192
-0.38856405 0.09118557 1.1045049 3686459
-0.41845125 0.044052139 1.1184472 4673626
-0.41030312 0.044148095 1.1155246 4870741
-0.40106571 0.044134147 1.1156168 5265754
-0.39115578 0.046099924 1.1157761 5397604
-0.38299188 0.049895667 1.1186374 4608350
-0.42059615 0.052857168 1.1144998 4673629
-0.41211927 0.052363746 1.1122504 4870744
-0.40354174 0.051860638 1.1118336 5134174
-0.39153337 0.055385642 1.1123496 5397606
-0.38336423 0.057218023 1.116426 4476760
-0.37763047 0.062022187 1.1185287 4015442
-0.4284687 0.060217664 1.1190455 3883351
-0.42506656 0.06064181 1.1138092 4475995
-0.3914302 0.061971113 1.1116666 5068641
-0.38270792 0.066287823 1.1136124 4082513
-0.37688962 0.068186492 1.1179934 3752531
-0.42751631 0.070403889 1.1125894 4079443
-0.38186845 0.075571947 1.1130093 3621705
-0.37705597 0.073797666 1.1160694 3751503
-0.38441199 0.082889549 1.1115015 3490378
-0.40464795 0.027393289 1.1299567 5002588
-0.40147057 0.027771983 1.1299232 5528419
-0.41637552 0.03566343 1.1300366 4739163
-0.4088628 0.03365555 1.1270258 5002333
-0.39939547 0.034475636 1.1268719 5397092
-0.3904748 0.037586723 1.1281258 5332066
-0.38460216 0.039450344 1.1297015 4740695
-0.41831577 0.039422773 1.1247886 4082256
-0.41129267 0.039092481 1.1229697 5068120
-0.38858405 0.04234013 1.124728 5200736
-0.380804 0.046660639 1.126767 4345175
-0.37396339 0.049428493 1.1289784 4278096
-0.37929407 0.056384161 1.1234283 4147028
-0.37441373 0.056505993 1.1274632 3819087
-0.37553167 0.063939787 1.1236993 3687502
-0.3959884 0.016451638 1.1409204 5528423
-0.39177412 0.017496299 1.1408736 5397348
-0.40721521 0.02301864 1.1356694 4804702
-0.39777881 0.02393499 1.134991 5462626
-0.38848859 0.025696088 1.13747 5003105
-0.3808654 0.030185618 1.1383067 4804440
-0.41749477 0.031935655 1.1370652 3817824
-0.41116601 0.028907243 1.1330153 4673622
-0.39523673 0.030805778 1.1328473 5660265
-0.38808382 0.033224974 1.1327648 5069150
-0.37942457 0.037097476 1.1346607 4475986
-0.37452722 0.042001031 1.1345894 4014924
-0.37738779 0.043703988 1.1326102 4606547
-0.37197575 0.046801008 1.1330421 3620428
-0.40161225 0.0089283828 1.1480112 4079956
-0.39496112 0.0087209083 1.1456598 5266270
-0.38917255 0.0098652728 1.1478826 5002845
-0.40521991 0.014705345 1.146021 4079963
-0.39737278 0.013018508 1.1439501 5330781
-0.38716716 0.016478099 1.1454794 5002331
-0.38461837 0.0228047 1.1437781 5001816
-0.38079786 0.026135646 1.1449248 4540755
-0.37719023 0.033478763 1.1436553 4213074
-0.39425632 -0.00088535808 1.1599829 5265766
-0.39610046 0.0033945087 1.1571246 5068639
-0.38765654 0.0060674381 1.1565518 4214103
-0.40501472 0.008635981 1.1520469 1580089
-0.38418564 0.012964156 1.1524856 4145996
-0.38215789 0.01902736 1.1517711 4212054
-0.40048096 -0.0026770364 1.1630535 3618132
-0.39489934 -0.0031176526 1.1629996 5199718
-0.38848743 -0.0012475848 1.162927 4214875
-0.38277778 -0.060828555 1.1791412 528927
-0.37761366 -0.060885798 1.1790898 1517876
-0.37719762 -0.070766672 1.1911312 4419983
-0.39304414 -0.065788999 1.189267 1651559
-0.38775751 -0.064395554 1.1860647 1782104
-0.37545907 -0.06546706 1.1838393 4154236
-0.37070328 -0.061457008 1.1875952 3028033
-0.38562939 -0.057046302 1.1911533 2369321
-0.37788895 -0.056238029 1.187472 2040105
-0.38785499 -0.037999697 1.1870888 4146252
-0.39206311 -0.070599183 1.1992795 5077683
-0.38500232 -0.072361618 1.1978835 4617364
-0.37559804 -0.071620896 1.1977861 4549258
-0.3710027 -0.065652885 1.1950463 6582660
-0.39448309 -0.059358984 1.1952527 7695014
-0.38727674 -0.054732371 1.1958262 2040625
-0.37938282 -0.052558418 1.1950706 2172202
-0.3720715 -0.056687854 1.1950163 2760198
-0.38510451 -0.08157663 1.2072603 4683677
-0.37944487 -0.080902085 1.2072005 3831442
-0.39350614 -0.07564193 1.2061745 3299734
-0.38625944 -0.0770064 1.2047055 4683420
-0.37767884 -0.076485671 1.2055628 3960460
-0.38319981 -0.15465359 1.2205735 3829135
-0.37518489 -0.15321305 1.2204868 4223637
-0.36895001 -0.15292209 1.2204231 3960467
-0.38511983 -0.14543751 1.2205509 3498881
-0.37681168 -0.14398764 1.2200612 3895695
-0.36916852 -0.14173469 1.2203746 3631246
-0.38636231 -0.13432941 1.2175128 3499128
-0.37907201 -0.13426827 1.2174397 4025235
-0.37042513 -0.13226999 1.2192013 3499655
-0.38688943 -0.12495258 1.2154754 3826560
-0.38018772 -0.12419774 1.215905 4156303
-0.37218729 -0.12378944 1.2183232 3630985
-0.3877466 -0.11546218 1.2184411 3893387
-0.3812485 -0.1143764 1.2168156 4157333
-0.37398776 -0.1129963 1.2187923 3762828
-0.38704416 -0.10683373 1.2203951 3762325
-0.38172674 -0.10362645 1.2166605 4420507
-0.37551108 -0.10304663 1.2189291 3828877
-0.38982543 -0.093238838 1.2203612 4222878
-0.38251653 -0.094230808 1.2165591 4552347
-0.37628952 -0.093897894 1.2194288 3631755
-0.39255559 -0.085613474 1.2147536 3627913
-0.38378897 -0.086301833 1.2126021 4683676
-0.37680128 -0.084162503 1.2154622 3892613
-0.3768245 -0.076230183 1.2121534 3563127
-0.38357729 -0.16459115 1.2260513 3033484
-0.37516361 -0.16457909 1.2283622 2897991
-0.36526135 -0.16259201 1.2277639 3891064
-0.35783961 -0.16094248 1.2293489 2638186
-0.38866767 -0.15604635 1.2246349 666715
-0.37757772 -0.1569868 1.2245282 4813457
-0.36443773 -0.15245157 1.2243762 3499654
-0.3572917 -0.15147027 1.2279847 3561592
-0.39067283 -0.14480801 1.2246039 6722
-0.36569738 -0.14299566 1.2243458 3694979
-0.35918453 -0.14195895 1.2262762 3233144
-0.36536378 -0.1324766 1.2242948 3104639
-0.36068392 -0.13189754 1.2274274 2640231
-0.36720228 -0.12291502 1.2242697 2907007
-0.3628144 -0.12250271 1.2287698 3099492
-0.39092436 -0.11340005 1.2244639 4089741
-0.36872926 -0.11344303 1.2245992 3496061
-0.36453345 -0.11180034 1.229193 4278874
-0.38958645 -0.10509003 1.2244129 2972810
-0.37060079 -0.10323962 1.2255783 3757171
-0.36664823 -0.10386825 1.2291782 3748927
-0.38912281 -0.09921293 1.2243816 3630740
-0.37089166 -0.09587568 1.224184 3953004
-0.37500659 -0.17083059 1.2335658 984897
-0.36505759 -0.16573481 1.2334431 4350584
-0.35766682 -0.14067748 1.2339222 4674411
-0.35871363 -0.13221499 1.2362278 6974583
-0.36176714 -0.1214086 1.2362093 3815753
-0.39462253 -0.11451855 1.2335066 5799072
-0.36210233 -0.11181561 1.233169 5064001
-0.35672379 -0.14654455 1.2462735 7039097
-0.35767093 -0.14082843 1.247257 7565430
-0.35938889 -0.13230443 1.2469022 8223350
-0.36069414 -0.12415045 1.2422113 9076613
