# .PCD v0.7 - Point Cloud Data file format
VERSION 0.7
FIELDS x y z rgba
SIZE 4 4 4 4
TYPE F F F U
COUNT 1 1 1 1
WIDTH 1132
HEIGHT 1
VIEWPOINT 0 0 0 1 0 0 0
POINTS 1132
DATA ascii
0.077421091 0.0082333162 0.99858594 5996731
0.085353695 0.0064567253 1.0000165 5731750
0.09475486 0.0044681355 1.0033355 5927827
0.10296535 0.001465328 1.0062115 5861518
-0.064470798 0.016998969 1.0059422 6058377
-0.053352289 0.019847751 1.0037378 5467271
-0.047757298 0.022941701 1.0030926 5466762
0.075449347 0.014941178 1.0000426 5268360
0.083845928 0.012820601 1.0033867 5663111
0.092019275 0.010034904 1.0048974 6517124
-0.045765474 0.025751926 1.0043284 5532297
-0.031870179 0.02765011 1.0021489 5204613
-0.025521735 0.029806666 1.0033669 5138821
-0.015931083 0.028800629 1.0007567 4876167
-0.0080612134 0.031644814 0.99984479 5138310
0.0033892021 0.031134479 0.99968785 5138050
0.046010196 0.029234923 0.99910367 5006203
0.055612557 0.027860798 0.99934286 5202812
0.063592531 0.026156478 0.99885249 5203582
0.0732667 0.021595217 1.0025018 5597049
-0.022390177 0.034424312 1.0080516 5269636
-0.0138823 0.034744196 1.0054379 5204101
-0.0043232031 0.034703173 1.0036833 5072257
0.0054735662 0.034012623 1.0030729 5006718
0.015017774 0.033548765 1.0016418 4875393
0.02468602 0.033206604 1.0045099 4875390
0.035148926 0.032658197 1.0045389 4874877
0.045301735 0.032156207 1.0033488 5006460
0.052479625 0.031016059 1.0045247 5202811
-0.095981628 -0.0086272582 1.0130546 6980776
-0.089839794 -0.008642152 1.0117714 6129600
-0.094586208 -0.0021425709 1.0160649 7570324
-0.087198704 0.00066167861 1.0123773 6651024
-0.080720939 0.0061764196 1.0117142 6781327
0.10239345 -0.0058513731 1.009187 6854356
0.11398628 -0.0062689409 1.0108621 7111067
-0.076196685 0.011779018 1.0128031 6583439
0.10581512 0.0052147806 1.0099901 6845830
0.11396953 0.002233766 1.012067 7436672
-0.063357234 0.022167511 1.0151941 6321290
-0.05715023 0.022806801 1.0140951 5795463
0.085387938 0.016233124 1.0135155 5860223
0.094833493 0.01113046 1.0111649 6649473
0.10231514 0.010161974 1.01526 6977411
-0.063575514 0.026750289 1.0153245 7372164
-0.054145209 0.026630335 1.0139464 6123396
-0.044571914 0.030563138 1.0160016 5729669
-0.036015145 0.030761026 1.0159076 5336195
-0.029266858 0.032883175 1.011138 5270149
0.075688042 0.023855485 1.00968 5532277
0.083132841 0.020620681 1.0143656 5860472
-0.044822529 0.035681196 1.0173612 6714755
-0.035765707 0.035277553 1.0172371 5794947
-0.024915902 0.036483146 1.0149956 5466498
-0.014369693 0.038595401 1.0137124 5466240
-0.0038603637 0.038649507 1.0147208 5334655
0.0065810392 0.038328327 1.0130782 5138044
0.015658546 0.038582273 1.0135567 5072252
0.02531312 0.037968285 1.0127312 5072247
0.034930035 0.036994509 1.0122178 5137530
0.045170017 0.035823859 1.0157175 5137788
0.05400569 0.032163255 1.0130101 5268347
0.12055823 -0.014514685 1.017904 7374502
-0.095013231 0.0011943802 1.0250293 9214113
-0.086049065 0.0047168732 1.0230665 6978442
0.11675218 -0.01239457 1.0179648 7112109
0.12142593 -0.0083981678 1.0185511 8686741
-0.083915003 0.010400876 1.0236773 7636109
-0.078396678 0.014262624 1.0227199 7437970
0.12184404 -0.00026837736 1.0179501 9277068
0.088276736 0.017498881 1.0194826 5992060
0.094776653 0.015133724 1.0219679 6451580
0.10158975 0.013673104 1.0206192 6516347
-0.053070888 0.029005565 1.0214432 6254982
-0.049218461 0.03321702 1.0274106 6648965
-0.033421069 0.031357758 1.0201881 5270660
0.070060946 0.028776206 1.0217791 5662844
0.075863674 0.027151279 1.0217935 5794679
0.08431907 0.023989387 1.020565 5926261
0.092362687 0.019995466 1.0234389 6253428
-0.042946532 0.037683748 1.0220952 7043204
-0.033826694 0.037948258 1.0223899 6188928
-0.023305947 0.040572561 1.0231929 5991293
-0.013451109 0.042286508 1.0231674 5794427
-0.0036869124 0.041822366 1.0222332 5597052
0.004469607 0.041025303 1.0209194 5399930
0.013815049 0.040955447 1.0195928 5203324
0.024520561 0.040478326 1.019446 5269365
0.037220165 0.039948545 1.0202721 5334394
0.046370305 0.038529508 1.0221425 5466234
0.052846238 0.036420651 1.022879 5597049
0.070191622 0.031704701 1.0217903 5991033
0.074836165 0.031425424 1.0240123 6055795
-0.011407273 0.044144385 1.0229479 6056827
-0.0023076087 0.044854097 1.0263286 5859449
0.0060509723 0.044634499 1.0251145 5728377
0.015207672 0.043671705 1.0265868 5532027
0.025821466 0.042637549 1.0264388 5532021
-0.092056185 0.0027056336 1.0308537 7306630
-0.090046845 0.0036008582 1.0308306 7438985
-0.071680836 0.02058249 1.0366586 7044228
-0.067805655 0.020372704 1.0336051 6255491
0.097169444 0.017414451 1.028363 6187632
0.10259646 0.017664962 1.0282907 6119529
-0.052933075 0.032081001 1.0304559 6780808
0.065690823 0.029157586 1.0288404 5465215
0.08918985 0.022966623 1.033496 6056820
0.095238581 0.022004545 1.0317098 5988198
-0.040182151 0.039784841 1.0303179 7108737
-0.033649012 0.042369358 1.0335416 7108222
-0.025265614 0.043059178 1.030131 6582396
0.057468496 0.036662571 1.0312352 5859705
0.062718391 0.034577437 1.0299048 5728122
-0.020560296 0.046232067 1.0325818 6713719
-0.014090756 0.046856634 1.0338974 6450807
-0.0058984272 0.046720363 1.032136 6122104
0.0059669325 0.047177754 1.0319777 6122617
0.018310828 0.047140636 1.0322275 6057083
0.024638331 0.046699338 1.0330734 6057334
-0.076696448 0.01956594 1.0397222 7832202
0.089058429 0.026369341 1.0375134 5792617
0.092032336 0.026236802 1.0374726 5724767
-0.03225264 0.045683004 1.0392381 7764863
-0.012249611 0.048764952 1.0389816 6384242
-0.0033278819 0.048367329 1.0388592 6121843
0.16467948 -0.086781099 1.0549904 13950701
0.16770762 -0.086916059 1.0549489 13160147
0.16683339 -0.08384268 1.0549743 13423577
0.16542131 -0.096531577 1.0619377 12898285
0.16935617 -0.097684078 1.0613793 12832198
0.16421582 -0.09050592 1.0601234 10136266
0.17095479 -0.091285579 1.0601361 13159885
0.1648643 -0.08425086 1.0614997 12175571
0.17020267 -0.083410263 1.0579309 13093836
-0.1400418 -0.10330641 1.0778351 1720740
-0.14050752 -0.096382059 1.0776604 3628972
-0.14124542 -0.090187751 1.0791099 4745397
0.16480127 -0.098323174 1.0709389 6256041
0.16922577 -0.10120645 1.0710664 12767188
0.16348463 -0.089179426 1.0729977 7312841
-0.1388946 -0.12762961 1.0889125 2903988
-0.13578084 -0.1277684 1.0888698 1324707
-0.13982823 -0.11554135 1.0882288 2904505
-0.13814361 -0.10684252 1.0868946 2644141
0.16415909 -0.11825467 1.0848604 5801403
0.16857213 -0.11879804 1.0847983 11779799
-0.13736326 -0.09576375 1.0850332 3039906
0.16370885 -0.10912433 1.083907 3630254
0.16987883 -0.11021807 1.0832305 11516624
0.17698465 -0.11050572 1.0847216 13685195
-0.13942939 -0.086705111 1.0874653 2708908
0.16385651 -0.10065047 1.0830677 3762605
0.16842197 -0.10464335 1.081863 10465738
0.16426283 -0.093834095 1.078967 6721740
-0.13630085 -0.069501206 1.0891361 1588628
-0.13318709 -0.069639981 1.0890934 3826867
-0.1329513 -0.14329746 1.094763 3694011
-0.13765703 -0.13654314 1.0928565 7178192
-0.13239746 -0.1365301 1.0939394 2114980
-0.13735403 -0.12507391 1.0929034 1063065
-0.13299188 -0.12809457 1.0937312 2447769
-0.13654821 -0.11754166 1.092926 2578847
-0.13398845 -0.11722185 1.0958933 2907546
0.16352502 -0.12926173 1.0903205 6851775
0.16910681 -0.12903918 1.088746 13029078
-0.1353997 -0.10749365 1.0937053 3104917
-0.13342908 -0.10468585 1.0959414 3170462
0.16261519 -0.11841865 1.090381 3040417
0.17215715 -0.12216619 1.0887353 13422807
0.17521344 -0.11917074 1.0887073 13619661
-0.13692634 -0.094890408 1.0937821 3104162
0.16173658 -0.11015572 1.0897868 2973607
-0.13588686 -0.08660426 1.0940549 3169952
0.16263115 -0.10008613 1.0919626 2843043
-0.13726337 -0.076852441 1.0932747 3301299
-0.12822774 -0.1554639 1.1046462 4750553
-0.1246598 -0.15785868 1.1065875 1196192
-0.12996005 -0.14810202 1.1015019 3036848
-0.12609646 -0.15057024 1.1066394 1789334
0.15788847 -0.15917437 1.1002645 12898004
-0.12840608 -0.13727175 1.1029515 2776475
0.15877689 -0.15010159 1.0991929 9087435
0.16474152 -0.14570893 1.0957314 13488846
-0.13017541 -0.12644318 1.1028013 3038106
0.15909177 -0.13945092 1.0982358 4354994
0.16698417 -0.13782465 1.0957361 13752800
-0.13159509 -0.11666656 1.1043087 2973083
0.15951185 -0.12969165 1.0991814 2121388
-0.1358833 -0.10289494 1.099983 3301280
-0.13267663 -0.10800859 1.1035537 3039132
0.16056994 -0.12166099 1.0970615 2646946
0.17704208 -0.1171505 1.0986927 13817039
-0.13560261 -0.096604101 1.1000072 3366820
-0.13301294 -0.097205885 1.10497 3105183
0.15953712 -0.10936827 1.1006639 3631271
0.17818713 -0.11509471 1.0986863 13817037
-0.13510357 -0.085420392 1.1000501 3499424
-0.13240863 -0.086575426 1.103809 3302563
0.15964969 -0.099108532 1.0999491 3369127
-0.1319526 -0.077083237 1.1035451 3434147
0.16200326 -0.089623064 1.1009276 2908578
0.16784319 -0.087244831 1.0989499 8233160
-0.13611993 -0.065722674 1.1010088 3365295
-0.1308182 -0.067183316 1.10392 3499689
0.16321771 -0.080088593 1.1006916 4024485
0.16821849 -0.078834213 1.0989823 11192030
-0.13416298 -0.056930203 1.1031646 2181536
-0.12891841 -0.057026509 1.1042933 3433908
0.16272029 -0.074634939 1.1030757 2708114
-0.13212711 -0.048807271 1.1071737 8233201
-0.12837735 -0.050087806 1.1054028 3564980
0.021639718 0.11641089 1.1018311 9935247
0.02738665 0.11705764 1.1017563 9934992
-0.11932646 -0.1670517 1.1151677 929696
-0.11513142 -0.1676013 1.1174165 1984411
0.147174 -0.17502098 1.1138401 13424882
-0.11994257 -0.15744296 1.1129262 2512540
-0.11536538 -0.15956005 1.116122 2906513
0.14872737 -0.1691518 1.1114006 8955594
0.15438834 -0.16804561 1.1077732 14080986
-0.12645267 -0.14305769 1.1136783 2381461
-0.12354717 -0.14838116 1.115553 2776212
0.149358 -0.15956451 1.1101991 3697834
-0.12662396 -0.13712615 1.1145405 2841752
-0.12464534 -0.14155206 1.117661 2906774
0.15165874 -0.1497422 1.1106917 2646183
-0.12802635 -0.12649548 1.1156305 2907034
-0.12416986 -0.13089606 1.1177019 2775704
0.15263943 -0.14104679 1.1118172 3696546
0.15488632 -0.13660391 1.1112399 3761571
-0.12864186 -0.11700147 1.1142683 2973083
0.15682617 -0.13058148 1.1105739 3368880
-0.12928718 -0.10675213 1.1137781 3039134
0.15763435 -0.11899611 1.1102204 3500454
-0.12900238 -0.096303463 1.1135207 3171232
0.15695383 -0.11052263 1.1112804 3631529
-0.12917766 -0.087515175 1.1128621 3302564
0.15585478 -0.10005345 1.1070558 3697839
0.15630077 -0.10033654 1.1100488 3763633
-0.12878922 -0.076970309 1.1137038 3368355
0.15736401 -0.089116231 1.1097986 3436468
0.17182791 -0.086133905 1.1099023 10992842
-0.12598816 -0.066667363 1.1137118 3697068
0.15585801 -0.076110259 1.1141629 3765679
0.15887909 -0.07872875 1.1092918 3830452
0.17166354 -0.081870958 1.1099234 11387079
-0.12457415 -0.058938447 1.111527 3631022
-0.12226401 -0.055826798 1.1110095 3500456
0.15549181 -0.069159396 1.1113096 3830449
0.16214573 -0.069940254 1.1087365 5207985
0.16866951 -0.071258716 1.1126779 10334913
-0.12424762 -0.04692531 1.1136476 3434161
0.15502732 -0.06019764 1.1111017 3893939
0.16208196 -0.060993314 1.1102012 8428221
-0.12400778 -0.036909793 1.1172607 6194370
-0.11935777 -0.035015941 1.1180636 4421311
0.15344447 -0.048297457 1.1132282 5734064
0.15959162 -0.052253012 1.1142186 10203587
-0.1177287 -0.028415315 1.1180708 6852289
0.15219642 -0.042306226 1.1111624 8955077
0.027813256 0.092957295 1.1166449 9737616
-0.090286814 -0.20516761 1.1252481 7635861
-0.086891666 -0.20582236 1.1278661 8100012
-0.10005652 -0.19481298 1.128093 10535920
-0.093187571 -0.19778943 1.1256337 5996227
-0.08673162 -0.20223549 1.12788 6394567
-0.10967135 -0.18330759 1.1202732 8431615
-0.1027509 -0.18607304 1.122937 1526185
-0.096625783 -0.18875717 1.1269306 1262491
0.12701543 -0.1959482 1.1250205 11717846
-0.11783684 -0.17437905 1.1204232 7571711
-0.11094043 -0.17696372 1.1218743 1917611
-0.10403109 -0.17980975 1.1255465 2379673
-0.097376414 -0.18307218 1.128109 2644619
0.12891014 -0.18915266 1.1250252 5010097
0.1362967 -0.18650198 1.121794 10599906
0.14343464 -0.18560514 1.1208444 14081762
-0.11057619 -0.16815077 1.1245638 2709143
0.13042448 -0.17860925 1.1250516 2909858
0.13703759 -0.17841375 1.1211445 4026283
0.14456899 -0.17892776 1.1173583 12307424
-0.116931 -0.15407844 1.1205013 2775446
-0.11270127 -0.15849607 1.1233339 2775442
0.13869725 -0.16953433 1.12198 3105445
0.14360654 -0.16890192 1.1169158 2578854
-0.11861145 -0.14680526 1.1227105 2775449
-0.1144455 -0.14941649 1.1271559 2906778
0.14148082 -0.15985344 1.1233855 3564451
0.14482027 -0.15900803 1.1193438 3433893
-0.12205825 -0.13796924 1.1239368 2840984
0.14336237 -0.15175158 1.1249963 3565217
0.14716269 -0.14978153 1.1196198 3499430
-0.12637506 -0.12582251 1.1207546 2841497
-0.12339311 -0.12775835 1.1267064 2907290
0.14994159 -0.13928118 1.1219627 3237547
-0.12611154 -0.11637453 1.1223933 2973083
-0.12334343 -0.11699758 1.1267536 3038877
0.15347873 -0.12974764 1.1231391 3827369
0.15610187 -0.12877688 1.1169256 3564710
-0.12670703 -0.10637385 1.1237031 3039391
-0.12410339 -0.10842072 1.1274687 3170977
0.15419452 -0.11968034 1.1229925 3565735
0.15648326 -0.12022924 1.1169585 3500198
-0.12643898 -0.098193824 1.1258789 3170977
0.15485486 -0.11067959 1.1223569 3631790
0.15589869 -0.11241675 1.1250019 3434923
-0.12613688 -0.087639473 1.1249217 3302823
0.1550318 -0.099224128 1.1225722 3566513
-0.12567808 -0.077643134 1.1236265 3368614
0.15454096 -0.089936718 1.1226586 3632560
-0.12481334 -0.069972917 1.1249825 3565995
0.15377991 -0.079719305 1.1214423 3895728
-0.12118854 -0.055076752 1.1265999 3697842
0.15186787 -0.069660924 1.1200461 4158132
-0.11917479 -0.046849322 1.1253729 3502262
0.15122981 -0.058958016 1.1213025 4027837
-0.1161157 -0.037459329 1.1247873 3698611
0.1469439 -0.047325391 1.1254125 4619197
0.15253069 -0.05065592 1.1197832 4946612
-0.12213195 -0.030730203 1.1211203 7180220
-0.11432127 -0.02810479 1.1282272 4815032
0.14713885 -0.04084323 1.124772 5209534
0.15183772 -0.039270051 1.1173815 8425655
0.028791167 0.088871561 1.1196138 9474444
-0.063727714 -0.21675643 1.1345053 8300241
-0.08160802 -0.20774239 1.1311502 7642055
-0.074123368 -0.20874225 1.1331812 4815810
-0.067504846 -0.21249655 1.1345752 5210825
-0.090211332 -0.19543205 1.1309576 932767
-0.083379641 -0.19919042 1.132533 2382238
-0.074874662 -0.20262116 1.1347188 2251168
0.10859618 -0.20754354 1.1322184 6518691
0.11445393 -0.20677198 1.1307141 11319227
-0.091611467 -0.18862861 1.1328735 2447513
-0.086348809 -0.19234587 1.1349194 2513045
0.11666781 -0.19864149 1.1310962 4617903
0.12366407 -0.19895823 1.1280527 10929103
-0.10057259 -0.17718971 1.1326333 2971544
-0.09482713 -0.18121681 1.1330833 2774929
0.11914308 -0.18947244 1.1304895 2909086
0.12405481 -0.18873283 1.1280929 3105187
-0.10753092 -0.16366965 1.1313329 2709911
-0.10310806 -0.16894051 1.1336027 2644371
0.12601767 -0.1789974 1.1287252 3368356
-0.10954004 -0.15696551 1.1332082 2775444
-0.10474797 -0.16131005 1.1339726 2709910
0.13088593 -0.16934212 1.1296871 3368613
0.13519879 -0.16655993 1.128041 3499683
-0.1123725 -0.14825943 1.1329669 2841497
0.13304803 -0.16198361 1.1320908 3237027
0.13785717 -0.15947549 1.1293701 3302821
-0.11779308 -0.13641202 1.1321642 2645144
-0.11435429 -0.13830307 1.1346493 2775964
0.14142793 -0.14969382 1.130214 3237542
0.14566001 -0.14629595 1.1293234 3106215
-0.11923552 -0.12794386 1.1331046 2907291
0.14323232 -0.14021429 1.1307166 3499683
0.14639869 -0.13836694 1.1291581 3303338
-0.11976474 -0.11798823 1.1341015 3039134
0.14839388 -0.12995715 1.1294376 3499947
-0.12430198 -0.10346366 1.1318272 3236770
-0.12229118 -0.10786048 1.1351142 3236770
0.15059753 -0.11953906 1.1298605 3500458
-0.12401312 -0.096990146 1.1318521 3237027
-0.12225137 -0.0974463 1.1358267 3302821
0.15343826 -0.10910819 1.1303362 3632048
-0.12357984 -0.087279879 1.1318895 3302824
-0.12184072 -0.088243142 1.1358621 3302569
0.15210719 -0.10015066 1.13029 3632047
-0.12360699 -0.078197725 1.1319302 3434408
-0.1206734 -0.075974062 1.1359009 3434665
0.14920551 -0.08896213 1.1300154 4026292
-0.12271326 -0.067859344 1.1319642 3631531
-0.12089863 -0.067130029 1.1359433 3631531
0.14964938 -0.080990434 1.1286711 4157366
-0.12242442 -0.061385836 1.1319891 4025255
-0.11901813 -0.056418668 1.1342511 3632304
0.14963281 -0.06918674 1.1282792 4289211
-0.1151681 -0.047587086 1.1336669 3568048
0.14696905 -0.058291711 1.1290305 4094399
0.14912036 -0.062784351 1.1303148 4224702
-0.11361433 -0.041598618 1.1319581 3764911
-0.10995147 -0.037452467 1.1344273 3895729
0.14480112 -0.04976847 1.1298856 4487616
-0.1139797 -0.02347032 1.135044 6458567
-0.10922552 -0.027456373 1.134362 3895996
0.14520864 -0.038734276 1.1288745 5735616
0.15220404 -0.035788342 1.1283932 9477559
-0.11340802 -0.020814143 1.1360482 6852289
-0.11016013 -0.0209589 1.1360036 5933254
0.060858183 0.073146023 1.1301117 9474701
-0.027307054 -0.22888729 1.1459606 7248329
0.0054235449 -0.23193613 1.1447048 5801654
0.013481089 -0.2311627 1.144066 5210039
0.026252553 -0.23237064 1.1452216 6328255
0.033910897 -0.23271197 1.1451166 7379645
0.045464624 -0.23310509 1.1449587 8430007
0.053432547 -0.23166952 1.1408571 8625323
-0.064918421 -0.21904649 1.1385117 9678537
-0.054016419 -0.21955928 1.1448891 4422071
-0.044698663 -0.22065717 1.1462321 2778029
-0.0350269 -0.22290498 1.1460915 2513574
-0.027541542 -0.22595328 1.1459768 2315684
0.0023299288 -0.22801548 1.1455641 2120102
0.014364473 -0.22855186 1.1453992 2185635
0.027541891 -0.22804284 1.1452234 2186146
0.032963313 -0.22938079 1.1451442 2316696
0.048377648 -0.22787511 1.1449428 4486314
0.055920668 -0.2278083 1.1428409 5997746
0.067201652 -0.22535184 1.1435567 6063288
0.075943708 -0.22427991 1.1445863 6589614
0.084029905 -0.22485957 1.1444745 8757678
-0.069817312 -0.20685256 1.1386321 1855898
-0.063170977 -0.20967245 1.1417681 2249885
-0.05554416 -0.2123403 1.1456883 2381985
-0.047508128 -0.21483111 1.146296 3039902
0.070175424 -0.21843162 1.1446903 2841504
0.0762171 -0.21815273 1.1446099 3302564
0.085855909 -0.21631941 1.1431544 4420011
0.095626645 -0.21590406 1.1386428 6984117
0.1051478 -0.21356177 1.1362387 6254993
-0.080472499 -0.19585037 1.1396251 2710418
-0.072851487 -0.19947106 1.1430873 2775447
-0.066196337 -0.20201001 1.1458055 2906776
0.088665895 -0.20854744 1.1440845 3171492
0.097191326 -0.20754156 1.1411734 3237285
0.10551659 -0.20668083 1.1368358 3629215
-0.082993202 -0.18879762 1.1436908 2775191
-0.074986584 -0.19265947 1.1460991 2906012
0.099577963 -0.19843942 1.1427152 3040421
0.10654397 -0.1970522 1.1392409 3105703
0.11239365 -0.19755435 1.136212 2777257
-0.097745173 -0.17403582 1.1391554 2710677
-0.091111168 -0.1782337 1.1425768 2709909
-0.085027486 -0.18212643 1.1449481 2709910
0.10811648 -0.18874845 1.142836 3368100
0.11571368 -0.1872333 1.1383467 3302561
-0.09863846 -0.16745719 1.1423081 2710421
-0.093930244 -0.17053771 1.1463201 2644886
0.11053831 -0.18109201 1.1443112 3040936
0.11868291 -0.17834496 1.1421262 3237031
0.12517112 -0.17571899 1.1391368 3368615
-0.10773688 -0.15399408 1.1393795 2776209
-0.10244624 -0.15873398 1.1440374 2841240
0.12111999 -0.16996703 1.1442177 3237287
0.12759963 -0.1680073 1.1389955 3302822
-0.10837866 -0.14732391 1.1439517 2710683
-0.10379681 -0.15083458 1.1466744 2841499
0.13026981 -0.15971053 1.1415513 3237541
0.13530636 -0.15720268 1.1376822 3237798
-0.11011562 -0.13868469 1.1446232 2907293
0.13237871 -0.15103962 1.1441498 3237797
0.13715343 -0.14868735 1.1390952 3303334
-0.11594968 -0.12670034 1.1407548 2907805
-0.11374418 -0.1284598 1.146775 2907805
0.13944401 -0.1394268 1.1416613 3434407
-0.11601277 -0.11738689 1.1423211 3039392
-0.11337743 -0.11870846 1.1476135 3039391
0.14181069 -0.12994961 1.1415446 3500202
0.14601378 -0.12719917 1.1360708 3631274
-0.11872528 -0.10809649 1.1442659 3170979
0.1442471 -0.11978881 1.143684 3631791
0.14758331 -0.11934581 1.1378626 3566510
-0.11865167 -0.09774407 1.1454921 3105957
0.14390455 -0.1086437 1.1425159 3632305
0.14900801 -0.10994599 1.1364405 3501227
-0.11861671 -0.087701105 1.1432503 3237546
0.14384 -0.099557251 1.1416783 3698099
0.1483673 -0.1001196 1.1365596 3698094
-0.11755645 -0.077991374 1.1435173 3434923
0.14549586 -0.090350032 1.1422424 3895479
0.14756522 -0.092430212 1.1362046 3895477
-0.11670334 -0.067564055 1.1441712 3566256
0.14627632 -0.079076111 1.1436155 4027579
0.14874825 -0.078597009 1.1402506 4157882
-0.11532266 -0.058703925 1.1434357 3567024
0.144657 -0.069454692 1.1431704 4159422
0.14891562 -0.069774397 1.1386874 4289724
-0.11260156 -0.048970006 1.141246 3567791
-0.10934316 -0.047199864 1.1465436 3764403
0.1433764 -0.059344385 1.1417422 4356797
-0.10728759 -0.038323633 1.1404595 3830196
0.1411311 -0.049648423 1.1408823 4619718
-0.10529861 -0.027508952 1.1428187 3896507
0.13758135 -0.037587516 1.1414728 4817095
0.14203487 -0.038351431 1.1381867 4948420
-0.11247513 -0.018010512 1.1440488 6916535
-0.10502177 -0.018872336 1.1436367 5210049
0.13704912 -0.031174302 1.1436199 5013440
0.14149229 -0.030945793 1.1412274 5998788
0.040078633 0.047312386 1.1411357 5859448
0.048245922 0.04703299 1.1391668 6122362
0.053846136 0.046900563 1.1420909 6319482
0.06505695 0.047653444 1.1459433 5330522
0.040837608 0.051736049 1.1396213 5792108
0.048685357 0.052234374 1.1389841 5527648
0.054040745 0.051261894 1.1421076 5067354
-0.021527318 -0.2291289 1.1488817 4354997
-0.014194502 -0.23049188 1.1507767 4684224
-0.0043142214 -0.23063195 1.1491759 4289976
0.0067486949 -0.22881883 1.148501 2054307
0.017144803 -0.22983176 1.1483561 2777510
0.022580372 -0.23117319 1.1482767 4026798
0.03903392 -0.2319065 1.1480513 5604271
0.042946506 -0.23043212 1.1480049 4881326
-0.040026553 -0.21794072 1.1491814 3039902
-0.032119587 -0.2192138 1.1495689 2710943
-0.023706993 -0.22151047 1.1522497 2645152
-0.013921328 -0.22482052 1.1554655 2514339
-0.0039931796 -0.22515723 1.1547965 2514851
0.0060053235 -0.22308883 1.1531371 2842787
0.015869593 -0.22309589 1.1508036 2908579
0.025555022 -0.22313409 1.1511616 3039651
0.035722189 -0.22429526 1.1521302 2908578
0.045097992 -0.2238394 1.1517556 2778020
0.055162124 -0.22261587 1.1493034 2646433
0.064589024 -0.2257176 1.1477336 5012145
0.076049402 -0.22751075 1.1475707 8955830
-0.052664965 -0.20895094 1.1496778 2841242
-0.042897083 -0.21146901 1.1515825 2775960
-0.033928685 -0.21315268 1.1533874 2841500
-0.024577228 -0.21575814 1.1569831 2907551
0.0071183732 -0.2164329 1.156552 3105184
0.016339088 -0.21647494 1.1564273 3170722
0.026279714 -0.21691796 1.156291 3302053
0.036429074 -0.2168169 1.1561544 3170723
0.046963032 -0.21636404 1.1560141 3105188
0.056297496 -0.21597919 1.1541753 3170467
0.065851077 -0.21618018 1.1501591 3236258
0.076112963 -0.21318436 1.1480781 3171236
-0.06876187 -0.19687483 1.1496632 2906776
-0.062322333 -0.19940478 1.150708 2907033
-0.053875327 -0.20078149 1.1542786 2841497
-0.044767663 -0.20526598 1.1573026 2775704
0.057551131 -0.21056405 1.1558968 3105443
0.066387244 -0.21095785 1.1557757 3105443
0.077319331 -0.2077187 1.1543791 3105956
0.085757293 -0.20520738 1.1507392 3105956
-0.079241402 -0.185416 1.1498557 2644884
-0.07229811 -0.18930891 1.152745 2775705
-0.064027786 -0.19256315 1.1552857 2841497
0.081238829 -0.20055172 1.1556214 3172006
0.088981286 -0.19850838 1.1545258 3040421
0.094909236 -0.19641073 1.1519548 2974628
-0.087625049 -0.17624894 1.1500099 2645144
-0.08102674 -0.17832482 1.1529706 2710425
-0.075830013 -0.18128645 1.1544 2776216
0.09876173 -0.18793499 1.1521906 3171493
0.10379242 -0.18591425 1.1489812 3237026
-0.090268277 -0.16811562 1.1526703 2710424
-0.083950602 -0.17062402 1.1565313 2710937
0.10200727 -0.18155488 1.1554253 3302823
0.10847139 -0.1777415 1.1521968 3172005
0.11438981 -0.17485821 1.1512874 3172006
-0.098460577 -0.15634722 1.1502447 2841498
-0.094116151 -0.15908284 1.1550975 2907290
0.11133628 -0.17090264 1.1553468 3303592
0.11771072 -0.16779603 1.153941 3237544
0.1239594 -0.16369539 1.1472075 3303337
-0.099823713 -0.14782715 1.1520156 2973342
-0.09529189 -0.15117888 1.1582258 3038879
0.12169372 -0.16020465 1.1545877 3237544
0.12612382 -0.15735227 1.1500068 3303336
-0.10733572 -0.13592501 1.1514556 2973342
-0.10135699 -0.13937655 1.1558599 2973600
0.12995259 -0.14839292 1.151195 3368872
-0.1085436 -0.12800562 1.1528603 3039392
-0.10308095 -0.12909096 1.1584293 3236259
0.1316966 -0.13902783 1.1529633 3500460
0.13615216 -0.13675937 1.1471626 3434923
-0.10920548 -0.11832567 1.1534482 3170978
0.13314773 -0.13015807 1.1538999 3500719
0.13790384 -0.12785427 1.1505122 3500718
-0.11530349 -0.10686638 1.1506925 3237029
-0.11147489 -0.10843192 1.1566343 3237286
0.13867359 -0.11903349 1.1533133 3697329
-0.11491189 -0.09809041 1.1507262 3237543
-0.1122349 -0.097802907 1.158192 3172263
0.1402899 -0.10998315 1.1528264 3697843
-0.1147443 -0.088462785 1.1537671 3303340
-0.11255599 -0.087506108 1.1587423 3303852
0.14053544 -0.099539533 1.1532696 3764149
-0.11441278 -0.078693859 1.1508057 3500716
-0.11152915 -0.077485234 1.1587729 3501229
0.14391965 -0.089237779 1.151841 3764661
-0.11368816 -0.070665523 1.1508317 3566512
-0.11030886 -0.067407466 1.1551646 3632306
0.1413949 -0.07890626 1.1518202 3896764
-0.10927892 -0.057823114 1.1551933 3698357
0.13589367 -0.06861911 1.1541367 4291265
0.13959664 -0.069932848 1.1485564 4225217
-0.10727298 -0.048894387 1.1548423 3764408
0.13709444 -0.059057429 1.1534963 4554434
0.13962756 -0.058872692 1.1474621 4488640
-0.10383212 -0.038327929 1.1556429 3895997
-0.099529572 -0.035329036 1.1587985 4027323
0.13717103 -0.048248496 1.1525432 4817354
-0.10191247 -0.028856762 1.1521921 3962044
-0.097807355 -0.027855851 1.1580083 4093118
0.12844394 -0.035528235 1.155718 5014224
0.13365616 -0.038480069 1.151634 4751563
-0.10036957 -0.018498614 1.1508838 4290235
-0.095426157 -0.018608049 1.1553504 4158908
-0.089102782 -0.01660914 1.1587409 4028609
0.12707159 -0.02841486 1.1539901 4817874
0.13369066 -0.028404579 1.1486781 5145287
-0.092777081 -0.012063354 1.1532102 4487616
-0.087226145 -0.009661369 1.157413 4356800
0.11878187 -0.015517317 1.1539373 5276623
0.12493217 -0.018792063 1.1501249 5604813
0.13425294 -0.020420641 1.1485949 6720449
-0.084796742 -0.0027815476 1.1587442 5671109
0.11719196 -0.0098810196 1.1554126 5802961
0.12346302 -0.010914445 1.1512276 6787017
0.041906498 0.0092803612 1.1570863 12972031
-0.012871977 0.021652527 1.1558812 5869264
0.019359177 0.016557142 1.1574233 7515376
0.026828898 0.015855275 1.1573192 8764660
0.036406189 0.014985725 1.1571859 10146554
0.042987265 0.013659395 1.1570911 10870005
-0.070248105 0.032553025 1.150704 8028800
-0.065112904 0.032690562 1.1506352 7305855
-0.0084082633 0.022590838 1.1578252 5671370
-0.0050947219 0.022443153 1.1577798 5869265
0.018100077 0.021409407 1.1574619 6988787
0.022518132 0.021212496 1.1574013 7185904
0.10906456 0.026209697 1.1562544 6314850
-0.063671127 0.037633665 1.1506379 8028802
0.10612965 0.029882275 1.1563103 6117979
0.08255744 0.041497611 1.1486796 5593178
0.084751248 0.041399829 1.1486496 5658970
-0.019186104 -0.21898244 1.1608964 2973083
-0.013693964 -0.22033784 1.1608162 2973595
-0.0042469632 -0.2203307 1.1613554 2973598
-0.038641274 -0.2070092 1.1612126 2842012
-0.032330252 -0.20867875 1.1611198 2776219
-0.023089061 -0.21157941 1.1625061 2907806
-0.013543783 -0.21339178 1.1640033 2907807
-0.0030185524 -0.21440265 1.1640321 2973599
0.0059207026 -0.21244916 1.1612531 3039136
0.016705994 -0.21194127 1.1617764 3170723
0.02667021 -0.21226332 1.1609737 3236770
0.036470257 -0.21223632 1.1601746 3170979
0.045516834 -0.21242592 1.1600516 3170980
0.052240938 -0.21105967 1.1599668 3171236
-0.049328804 -0.19764793 1.1613985 2842012
-0.042708248 -0.20021644 1.1627524 2842011
-0.033191442 -0.20290563 1.1636189 2842012
-0.024956113 -0.2047295 1.1650382 2907805
0.021413069 -0.20818913 1.1643964 3302309
0.027454913 -0.20729615 1.1631758 3302308
0.036086295 -0.20755439 1.1617008 3171236
0.046798259 -0.20859587 1.1600513 3171236
0.057496652 -0.20770425 1.1615776 3105443
0.067385443 -0.20621768 1.1607839 3171492
0.073998176 -0.20462525 1.1597016 3040420
-0.069892295 -0.18562528 1.1617298 2841497
-0.061240852 -0.18876484 1.1621324 2907291
-0.052911408 -0.19179463 1.1633556 2907549
-0.046267897 -0.19328544 1.165377 2907551
0.070842847 -0.19924782 1.1637684 3040420
0.077908576 -0.19771215 1.1617849 3106213
0.085808858 -0.19545224 1.1595829 3106214
-0.071078062 -0.17908692 1.1637751 2907290
-0.064606145 -0.18226339 1.1651738 2973340
0.082361124 -0.19084574 1.1636503 3302823
0.088474184 -0.18872166 1.1611769 3237030
0.094761878 -0.18559243 1.1612837 3237031
-0.08784347 -0.16483411 1.1620649 2841497
-0.079603165 -0.1686866 1.1624697 2842012
-0.073556118 -0.17120399 1.1648438 2907547
0.10027274 -0.17814261 1.1603876 3368361
0.10548413 -0.17511635 1.1594075 3237285
-0.089057446 -0.15885672 1.1621078 2973085
-0.082256943 -0.15939538 1.1647507 3039135
0.10288643 -0.1711134 1.1594604 3368615
0.10956231 -0.16808006 1.1601111 3237799
0.11426638 -0.1649569 1.1593341 3303337
-0.095869236 -0.14559594 1.1622589 2973857
-0.090582378 -0.14937106 1.1637263 3039137
-0.084661767 -0.15052611 1.1660858 3104930
0.1119008 -0.16068171 1.1613852 3172264
0.11822791 -0.15806514 1.1599779 3238059
-0.096680216 -0.13735317 1.1633066 3039650
-0.092823148 -0.14113548 1.166238 3105700
0.12191767 -0.14848201 1.161458 3369132
0.12609147 -0.14882466 1.1592461 3434410
-0.099042192 -0.12867901 1.1640915 3171236
0.12418357 -0.14045672 1.1625094 3500719
0.12763874 -0.13829967 1.1612722 3435183
-0.10566651 -0.11628323 1.1625216 3302823
-0.10107248 -0.1184798 1.1651167 3171495
0.12884755 -0.12824535 1.1611187 3566514
-0.10700686 -0.10758517 1.1640331 3368873
-0.10336031 -0.10893212 1.1657234 3368875
0.13195638 -0.11917772 1.1600989 3697588
-0.10748945 -0.098493055 1.1652923 3303850
0.1339858 -0.10966901 1.1627425 3763892
0.13719174 -0.10911505 1.1592728 3698099
-0.10839119 -0.088232957 1.1642834 3435181
-0.10253134 -0.088993236 1.1666011 3435438
0.13546342 -0.099600285 1.1633389 3829942
0.13829301 -0.099166028 1.1604452 3764149
-0.10691961 -0.078617096 1.1647063 3501229
0.13605896 -0.086253665 1.1633902 3896505
0.14029224 -0.089319386 1.1611373 3830455
-0.10588865 -0.068790376 1.1642746 3632563
-0.10148913 -0.06563665 1.1666908 3567542
0.13398658 -0.078985721 1.1608789 4027837
0.13903385 -0.082764462 1.1593652 3896505
-0.10468483 -0.058774602 1.1640977 3829940
-0.10119136 -0.058963332 1.1667166 3699127
0.13293186 -0.069320261 1.1621743 4291009
-0.10382183 -0.048659779 1.1635976 3895737
-0.10006665 -0.048028361 1.16675 4027576
0.13366622 -0.059301481 1.1615423 4422849
-0.10235278 -0.042019576 1.1628072 4158911
-0.097677924 -0.038532738 1.1647598 4093372
0.1340377 -0.049561996 1.1610805 4817355
-0.093520708 -0.02930776 1.1642832 4093630
-0.088581257 -0.02609244 1.1666925 4094397
0.12708177 -0.038496204 1.1619461 5080014
0.13141838 -0.041887533 1.15965 4883149
-0.091085233 -0.021790236 1.1627451 4028348
-0.086449973 -0.01944261 1.164193 4028864
0.12301822 -0.028660081 1.1616002 4949202
-0.082459107 -0.010019362 1.1644993 4029123
-0.078115694 -0.0079850331 1.1666316 3963586
0.1173913 -0.018538006 1.1626102 5146069
0.12059709 -0.023080066 1.1598798 5080276
-0.081328414 -0.0022339672 1.1627003 5342665
-0.07406377 -0.00042176247 1.1666106 4882633
-0.010504659 0.00051743537 1.1657561 6070261
-0.00383191 0.000220038 1.1656647 6528744
0.0028408412 -7.7359378e-005 1.1655732 8827627
0.018410591 -0.00077127665 1.1653597 10340848
0.027120356 -0.0017962754 1.1652375 8895736
0.034588061 -0.0028295964 1.165132 6266608
0.10892103 -0.0053585544 1.1631166 5475287
0.1132189 -0.0090651065 1.1613753 5475028
-0.070354149 0.0054175705 1.1645862 5999306
-0.063650966 0.0062294379 1.1644993 5540557
-0.05495204 0.0091825202 1.1637282 5803727
-0.042134173 0.010347247 1.1662271 4950220
-0.033231139 0.0088247955 1.1661001 5016280
-0.023548452 0.0077830628 1.1655647 5411294
-0.013536545 0.007330358 1.1635872 5806569
-0.0035356004 0.0068911463 1.1650903 7120874
0.0060844058 0.0072076172 1.1655618 12379901
0.016610468 0.0062234029 1.1628886 13891069
0.026396122 0.0055509731 1.1620798 12969723
0.036363311 0.0053406283 1.1628284 9946095
0.046419777 0.0046590716 1.1630924 10013177
0.056226701 0.0061053708 1.1627254 7449069
0.062988088 0.0076433197 1.164795 5411552
0.10616635 -0.0013371408 1.1616716 6526426
-0.03993649 0.015202321 1.166219 6264275
-0.032347679 0.015678078 1.1636184 5803990
-0.022772556 0.015887797 1.1619899 5345755
-0.0127197 0.016702816 1.1618577 5412839
-0.0031061303 0.01686611 1.1622286 5676266
0.0059128543 0.015532836 1.1644582 7253489
0.015701935 0.014922015 1.1624659 8436213
0.025558125 0.012252957 1.1613208 12051453
0.040164113 0.016044468 1.1611404 10082302
0.047963269 0.014956459 1.1610302 10607102
0.056401595 0.013734199 1.1609107 7515119
0.063423522 0.012801789 1.1621453 6068200
-0.00064587779 0.022305757 1.1617196 6001365
0.0037874002 0.022108175 1.1616588 6396124
0.1164282 0.022863165 1.1601405 6447199
-0.0098264161 -0.20975798 1.1688119 3039391
-0.002245266 -0.20952892 1.1702106 3039135
0.0091444012 -0.21060348 1.1685519 3104930
-0.038342625 -0.19730464 1.1692525 2776478
-0.031985551 -0.19849226 1.1711615 2842271
-0.02213656 -0.20058072 1.1732012 2907807
-0.012994951 -0.20285133 1.1735816 2908063
-0.003009567 -0.20415124 1.1745453 2973600
0.0073382454 -0.20362717 1.1739411 3105187
0.017259538 -0.20371428 1.1728871 3236773
0.027005162 -0.20280528 1.172079 3237029
0.037938461 -0.20337853 1.1719954 3171237
0.047506779 -0.2047468 1.1695598 3171236
0.057079233 -0.20361005 1.1688586 3105444
0.065971971 -0.20251291 1.1678202 3171493
-0.050085425 -0.18791437 1.1726532 2841758
-0.042086057 -0.19058368 1.1733334 2907551
-0.033196107 -0.1920985 1.1760304 2842271
-0.0225583 -0.19376706 1.1770558 2908064
-0.015867194 -0.19519114 1.1769592 2973857
0.0054800939 -0.19614255 1.1766665 3105444
0.018382967 -0.19571684 1.1764941 3237030
0.028393488 -0.19657613 1.175555 3302823
0.038078405 -0.19622509 1.1753026 3171495
0.047487248 -0.19523184 1.1747117 3105703
0.057172865 -0.19592161 1.174369 3105703
0.066966355 -0.19585204 1.1723368 3105702
0.075365856 -0.19370873 1.1694469 3105958
-0.061030835 -0.17971472 1.1712844 2973598
-0.053061612 -0.18180934 1.1755209 2907551
-0.043236136 -0.18412 1.1773781 2908065
0.069166772 -0.18754905 1.1758444 3237288
0.07797686 -0.18721788 1.1732821 3302823
0.086682692 -0.18554951 1.1701876 3237287
-0.069907062 -0.168044 1.1726665 3105183
-0.062558062 -0.17176174 1.1758115 2974112
-0.05433879 -0.17433673 1.1775717 2842786
0.079802006 -0.18054035 1.175732 3171750
0.088565826 -0.17731206 1.1742945 3172008
0.096643612 -0.17589812 1.1698579 3303081
-0.077621676 -0.15799931 1.1706247 3104930
-0.071423881 -0.16062218 1.17653 3170978
0.091441914 -0.16909274 1.1756257 3303337
0.099249355 -0.16791068 1.1732752 3368873
0.10619897 -0.16690022 1.1699809 3237543
-0.086848222 -0.14479494 1.1728083 3040164
-0.080284454 -0.14885248 1.1738245 3105701
-0.074051283 -0.15356781 1.1779304 3302822
0.10125323 -0.158979 1.1755381 3303597
0.10869812 -0.15686408 1.1710829 3238059
0.11587853 -0.15411644 1.1693615 3303852
-0.088989981 -0.13836269 1.1739771 3106213
-0.081266738 -0.14076784 1.1780847 3172007
0.11005783 -0.14786197 1.1752687 3369387
0.1179474 -0.14795932 1.1713612 3435181
-0.095712617 -0.12780569 1.1716702 3237030
-0.089117773 -0.12879077 1.1759105 3237800
-0.08286944 -0.13253385 1.178143 3303594
0.11214723 -0.14190096 1.1754669 3500972
0.12069471 -0.13798663 1.1721185 3500976
0.12543885 -0.13527301 1.1673161 3500977
-0.096414164 -0.11851458 1.173499 3237545
-0.091775745 -0.12040374 1.1774282 3303852
0.12294906 -0.1285717 1.1753803 3566772
0.1261992 -0.12903227 1.1713339 3566515
-0.098489136 -0.10870322 1.1737095 3369389
0.12423006 -0.1190857 1.1754053 3763639
0.12756586 -0.11827892 1.1704743 3763639
-0.10467578 -0.094568819 1.1719391 3435181
-0.09942966 -0.098506339 1.1750891 3435438
0.1253663 -0.10803848 1.175439 3895737
0.1302812 -0.10811744 1.1701952 3764149
-0.10387289 -0.088125624 1.1730237 3435438
-0.098480307 -0.089013688 1.1770089 3501231
0.12561698 -0.1024203 1.1754606 3961530
0.13109782 -0.098660119 1.1702263 3961528
0.1383909 -0.095593497 1.1673176 3895735
-0.10317125 -0.07889837 1.1736554 3501489
-0.098859027 -0.078879334 1.1764798 3501490
0.12641919 -0.084442131 1.1755297 4159679
0.13185193 -0.089347132 1.1707067 3962041
0.1384905 -0.093361452 1.1673262 3895735
-0.10332604 -0.07153897 1.17269 3501747
-0.098344311 -0.068577953 1.1753029 3567541
0.12595429 -0.078041479 1.1755645 4225473
0.12956749 -0.078689843 1.1715124 4159424
-0.096133977 -0.058510415 1.1742511 3764919
0.12610014 -0.069166109 1.1756021 4422597
0.13001721 -0.068611369 1.1715511 4357059
-0.095208555 -0.04876877 1.1741104 3896505
-0.090394646 -0.04888406 1.1786169 3962298
0.12644883 -0.058548436 1.1756446 4685767
0.13046692 -0.058532905 1.1715899 4422851
-0.093366787 -0.039708771 1.1722971 4027836
-0.088207714 -0.03819295 1.1775439 4028094
0.12501948 -0.047872368 1.1735935 4948684
0.13076167 -0.050007537 1.1686236 4751818
-0.091332316 -0.031679399 1.1707052 4093632
-0.085533917 -0.028507084 1.1764878 4094399
0.11877091 -0.037190001 1.1758434 5080784
0.1229667 -0.038426753 1.1709806 5211343
-0.081932575 -0.020210922 1.1749933 4094402
-0.075239003 -0.017452486 1.1775519 4226244
-0.068666764 -0.016076326 1.1784693 4620744
-0.014686644 -0.017356262 1.1777344 5412064
0.0077841803 -0.018357746 1.1774263 6463211
0.01567618 -0.02255071 1.1773012 6397929
0.025381807 -0.022341892 1.177171 6397929
0.03469187 -0.0208437 1.1770518 6003432
0.11614994 -0.02777534 1.1734203 5081042
0.12114266 -0.03108488 1.1678376 5081041
-0.073601611 -0.0096860006 1.1724304 4160963
-0.065420493 -0.0091337338 1.1775991 4752075
-0.050238863 -0.0067647994 1.1782618 4949201
-0.043522686 -0.00762707 1.1781672 5016022
-0.034010567 -0.0091692284 1.1773651 5213659
-0.024238428 -0.010507636 1.176663 5411552
-0.014432028 -0.011729084 1.1769559 5740773
-0.0043240879 -0.012188755 1.1776174 6003172
0.0057813786 -0.012634575 1.1770788 6331366
0.015834723 -0.013047062 1.174341 6989552
0.025931071 -0.013502784 1.1746025 6792432
0.035998151 -0.013941415 1.1738145 5937640
0.044548221 -0.013415337 1.1759516 5806054
0.055323876 -0.012595445 1.1768098 5674725
0.062115259 -0.011772253 1.1767217 5674983
0.10778676 -0.016340971 1.1760845 5146841
0.11362932 -0.018643476 1.1702803 5080789
-0.06985122 -0.00132595 1.1705501 4554184
-0.066330701 -0.00066715479 1.1735058 4751049
-0.051041692 -0.0010919794 1.1762977 4818129
-0.043617614 -0.0014174953 1.1753958 5015507
-0.034132712 -0.0018134117 1.1718656 5147609
-0.024053039 -0.0022531748 1.1704273 5346018
-0.014404425 -0.0030758902 1.1729047 5937898
-0.0039967299 -0.0042877942 1.1729809 6462952
0.0064697526 -0.0040023699 1.1719519 8303605
0.015815418 -0.0045181066 1.1708074 8501495
0.025607713 -0.0059303641 1.1698555 7252467
0.036940113 -0.0058953837 1.1705419 6069484
0.046138801 -0.0052199662 1.1712819 6135528
0.056264907 -0.0060672909 1.1742376 5741031
0.065674588 -0.0062967241 1.1756979 5543655
0.075214885 -0.0054276362 1.176573 5477092
0.085328281 -0.0045504272 1.1764404 5739747
0.096677385 -0.0053064451 1.1762836 5280481
0.10572103 -0.0083231628 1.1724553 5015513
0.11108507 -0.01052738 1.1700652 4949463
-0.062856846 0.005071789 1.1704841 4818122
-0.053389162 0.0056438074 1.1703588 5147606
-0.044676505 0.0060009956 1.1702427 4818639
-0.036074519 0.003878139 1.170117 5344472
0.0085876025 0.0024467409 1.1695073 12971007
0.013026426 0.0016897768 1.169444 12905215
0.037576891 0.00059560686 1.1691074 5807584
0.050968058 -1.2218952e-006 1.1689239 6004710
0.057068653 0.00068539381 1.1688446 5807083
0.065990314 0.0027579665 1.1708667 5477863
0.074500024 0.0019331127 1.1732817 5542628
0.086211003 -0.001587458 1.1764416 5673698
0.096835651 -9.4473362e-005 1.1748044 5804766
0.10230086 -0.0022890419 1.1682203 5147865
0.069320932 0.010363266 1.168722 5412324
-0.0092249103 -0.19842544 1.1808554 3039650
-0.0028116759 -0.19935679 1.1807646 3039650
-0.029164994 -0.18962897 1.1811639 2842271
-0.022400917 -0.18993044 1.1810712 2973857
-0.012118397 -0.19148611 1.1821886 2973857
-0.0024378765 -0.19367699 1.1833113 3039395
0.0082866466 -0.19221558 1.1824244 3171237
0.017636636 -0.19120994 1.1815914 3237030
0.028002124 -0.19112271 1.1819236 3302569
0.036323152 -0.19163412 1.1816038 3237546
-0.048345901 -0.1782842 1.1814735 2908065
-0.04081969 -0.17958793 1.181366 2973857
-0.032212101 -0.181741 1.1822402 2973857
-0.022545813 -0.18407913 1.1832169 2973858
-0.014273629 -0.18528497 1.1849824 3105444
0.017398626 -0.18669656 1.1845483 3237030
0.029154498 -0.18570918 1.1843939 3302825
0.038092703 -0.18565077 1.1839657 3171754
0.047893479 -0.1865999 1.1821365 3171752
0.058236934 -0.18663472 1.1814084 3171753
0.06679903 -0.18389389 1.1808932 3237546
0.075104274 -0.18184957 1.1797899 3303592
-0.059090368 -0.16833749 1.1816628 2908579
-0.050975159 -0.17087901 1.1835421 2908579
-0.041204318 -0.17278941 1.1843108 3105444
-0.032626741 -0.17494565 1.1852763 3105443
0.061917365 -0.17961273 1.1839784 3303339
0.070025481 -0.17769323 1.182544 3303082
0.078478903 -0.17595132 1.1803421 3237545
0.084525518 -0.17323199 1.179701 3303850
-0.067606062 -0.15666112 1.1818298 3302822
-0.061162263 -0.1612668 1.1839725 3040165
-0.054187454 -0.16537014 1.1856102 3040167
0.07363271 -0.17106688 1.1838582 3303598
0.07985425 -0.16734144 1.1828494 3238061
0.088475354 -0.16565365 1.1807926 3303596
0.096251749 -0.16358745 1.1795856 3369131
-0.07690686 -0.1457029 1.1820042 3171751
-0.070631064 -0.14962476 1.1833138 3368615
-0.063863046 -0.15360394 1.1857933 3171751
0.098377891 -0.15710627 1.1810858 3369134
-0.078565292 -0.13856845 1.1820583 3369130
-0.072499819 -0.14081234 1.1849667 3434922
0.099954344 -0.1475074 1.182655 3435183
-0.079887435 -0.12990756 1.1834482 3434923
0.10302196 -0.14054269 1.1827968 3501232
0.1099066 -0.1377116 1.1821047 3435694
0.11667433 -0.13625556 1.1794312 3501232
-0.087608956 -0.11840732 1.1832703 3369646
-0.08204142 -0.12241969 1.1848441 3435182
0.1140605 -0.12866232 1.1835006 3567282
0.11815587 -0.12830129 1.181265 3567027
-0.095438324 -0.10533805 1.1824342 3501231
-0.090996362 -0.10948119 1.1851059 3435439
0.11441385 -0.12074359 1.1835312 3829686
0.11961423 -0.11815295 1.1816945 3829431
-0.095287405 -0.10195573 1.1824472 3501231
-0.090738542 -0.098921359 1.1840661 3567024
0.12234336 -0.10888684 1.1821433 3830201
-0.094658554 -0.087862715 1.1825013 3632818
-0.091437638 -0.088735141 1.1844542 3698612
0.12492272 -0.098377988 1.1814885 3896507
-0.094230942 -0.078279465 1.1825383 3633333
-0.090361074 -0.0786587 1.1852845 3764919
0.12520674 -0.088170089 1.18103 4093886
-0.094289489 -0.069465317 1.1825782 3633334
-0.090171121 -0.068726733 1.1857262 3830201
0.12264502 -0.078424342 1.1818303 4291523
-0.089309685 -0.058446892 1.1842268 3896506
0.12261485 -0.067925617 1.1812551 4619975
-0.085606627 -0.049051609 1.1842662 4028348
0.11729106 -0.056262508 1.1837791 5146320
0.12160231 -0.058673948 1.1827101 4883148
-0.083490267 -0.039715923 1.1828505 3962814
-0.078419678 -0.038591415 1.1853586 3963072
0.11667323 -0.047393128 1.1823268 5146577
0.12033314 -0.049172536 1.1802694 5080527
-0.081716239 -0.030712701 1.1825808 4028607
-0.075437471 -0.029252231 1.184636 4291526
-0.025456632 -0.029497527 1.1858265 5147865
-0.017980935 -0.02960401 1.1857251 5344731
-0.0016519669 -0.029424965 1.1855053 5345501
0.0051349448 -0.029727444 1.1854123 5739743
0.015186403 -0.032404244 1.1839311 5936862
0.024235947 -0.03281711 1.1841404 5871068
0.034494415 -0.032169446 1.1850048 5739228
0.052643329 -0.031844825 1.184761 5213656
0.11519341 -0.038436081 1.1822866 4949970
-0.073358439 -0.02187828 1.1825072 4422856
-0.064698242 -0.017504051 1.1842281 4686797
-0.054286622 -0.01683946 1.1842722 4884690
-0.043945327 -0.018745884 1.1856241 4950486
-0.033546209 -0.019965962 1.1846448 5213659
-0.025063226 -0.021509551 1.1826565 5279707
-0.0149586 -0.023099892 1.1829129 5345244
-0.0047327969 -0.021921389 1.1826912 5411808
0.0050636306 -0.02347213 1.1823499 5806052
0.014238259 -0.027006157 1.1813011 6068964
0.02624652 -0.027917899 1.1811348 6068963
0.036391288 -0.025990501 1.1819295 6003173
0.044927392 -0.024654128 1.1826972 5608417
0.055124506 -0.025120206 1.1831573 5411038
0.061995409 -0.025460646 1.1846632 5279709
0.10670505 -0.025691226 1.183135 5212630
0.11216142 -0.029521994 1.1813005 5015248
-0.060774118 -0.011989571 1.1823812 4949712
-0.054010041 -0.012291037 1.1822885 4949713
-0.043863915 -0.012743235 1.1821494 5016279
-0.034486137 -0.01353775 1.1820192 5213659
-0.02587668 -0.014674574 1.1818979 5345501
0.046862327 -0.017351598 1.1809033 5871590
0.055342585 -0.017164715 1.1807896 5871847
0.065715261 -0.015399843 1.1826575 5543139
0.073047131 -0.014597483 1.1828477 5280225
0.097565889 -0.015711002 1.184226 5411294
0.10332387 -0.017372735 1.1815952 5279196
0.075448453 -0.009588182 1.1805516 5411556
0.085106373 -0.0083240867 1.1804268 5412066
0.096379839 -0.008826524 1.1802723 5477344
0.1030433 -0.011382878 1.1801709 5213404
-0.0011663176 -0.18916366 1.1887885 3105189
-0.021124365 -0.17980403 1.1900998 3039906
-0.011523198 -0.18237022 1.1903874 3039908
-0.002024943 -0.18396306 1.1921569 3105447
0.0085725877 -0.1836479 1.1894315 3105702
0.017692087 -0.18280117 1.1885622 3171750
0.026686989 -0.18278851 1.1884407 3237289
0.038222611 -0.18144158 1.1882908 3237548
0.04843723 -0.18189684 1.1881508 3171752
0.057516888 -0.18230149 1.1880263 3171752
-0.048249163 -0.16712442 1.1895226 3039909
-0.040428624 -0.16820835 1.1903012 3105701
-0.032376744 -0.17122602 1.1918356 3105443
-0.023008553 -0.17704824 1.1931379 3040163
0.0077786939 -0.17750748 1.1927199 3105960
0.01921601 -0.17690144 1.1925681 3105958
0.028360609 -0.17579301 1.1916494 3237545
0.038780168 -0.17519113 1.1904166 3237547
0.048819579 -0.1753234 1.189775 3237544
0.058884211 -0.17554483 1.1897223 3237545
0.067602336 -0.1739393 1.188594 3303339
-0.059064873 -0.15720269 1.1897129 3172009
-0.050759897 -0.16074947 1.1919851 3105961
-0.041511141 -0.16338597 1.1934485 3171752
0.042409092 -0.16855256 1.192292 3303337
0.049241669 -0.16885708 1.1921983 3303593
0.059371412 -0.16833046 1.1920638 3303594
0.068668708 -0.16612265 1.1906979 3303596
0.07551375 -0.16490662 1.1878606 3238062
-0.066062242 -0.14836101 1.1898468 3434409
-0.060367301 -0.1503904 1.1925845 3237547
-0.052126899 -0.15313549 1.1936376 3237805
0.069971927 -0.15887693 1.1919627 3238318
0.079374604 -0.15635583 1.1907268 3238572
0.089474857 -0.15658483 1.1889092 3434926
0.095979296 -0.15626533 1.1876225 3369134
-0.0679814 -0.13923915 1.1911441 3435179
-0.062102363 -0.14152256 1.1933795 3369388
0.084319264 -0.14988022 1.1918089 3500977
0.090079315 -0.14659053 1.1907456 3435186
0.095490009 -0.14684175 1.1876712 3500720
-0.076012127 -0.12812716 1.1910713 3566511
-0.070421629 -0.13126464 1.1926486 3566767
-0.06331335 -0.13417146 1.193873 3500977
0.091888778 -0.1390325 1.1912549 3501234
0.099841103 -0.13693215 1.1884065 3501490
-0.085022695 -0.11453398 1.1902534 3566770
-0.078438744 -0.11942536 1.1927429 3632306
-0.072016925 -0.12465456 1.194033 3632563
0.102052 -0.12836495 1.1902531 3699127
0.10951659 -0.12740105 1.1880388 3633076
-0.085967332 -0.10890165 1.1912913 3566770
-0.079968192 -0.11008005 1.1942053 3763892
0.10336754 -0.11934827 1.1916873 3633335
0.11010243 -0.11744243 1.1891602 3764407
-0.085625343 -0.098833501 1.1931316 3698868
-0.081296936 -0.099643432 1.1942697 3699126
0.10447052 -0.10741563 1.1917256 3962811
0.11098356 -0.10778993 1.1904691 3830969
0.11865266 -0.10833903 1.1875296 3830714
-0.086379223 -0.088826768 1.1913092 3699126
-0.081103936 -0.089635514 1.1943116 3830712
0.11213259 -0.097893104 1.1910644 4028606
0.12023623 -0.098336287 1.1875527 3962300
-0.085367598 -0.079379499 1.1920146 3830970
-0.08042483 -0.079286993 1.1943485 3962813
0.11281592 -0.088858359 1.1916955 4291522
0.12065861 -0.088780798 1.1879531 4094399
-0.0852184 -0.069307595 1.1921717 3962044
-0.080329135 -0.069836237 1.1943892 4093630
0.11487358 -0.078193799 1.1914483 4554438
0.11963075 -0.079137497 1.1876463 4357059
-0.084152699 -0.059299976 1.1918209 4093886
-0.079510123 -0.058787536 1.1944273 4291009
0.1135046 -0.067575343 1.1908919 4686026
0.11948144 -0.067920223 1.1876981 4685769
-0.082237095 -0.052106086 1.1904935 4159935
-0.077091984 -0.049875371 1.1932913 4225985
