# .PCD v0.7 - Point Cloud Data file format
VERSION 0.7
FIELDS x y z rgba
SIZE 4 4 4 4
TYPE F F F U
COUNT 1 1 1 1
WIDTH 1132
HEIGHT 1
VIEWPOINT 0 0 0 1 0 0 0
POINTS 1132
DATA ascii
0.0028935038 0.033768438 1.0011426 5006718
0.012440533 0.033459686 0.99968868 4875393
0.022121344 0.033328228 1.0025318 4875390
0.032592513 0.032969691 1.0025361 4874877
0.042749405 0.032636829 1.0013218 5006460
0.049950048 0.031641491 1.00249 5202811
-0.097743481 -0.010573573 1.0119563 6980776
-0.091605984 -0.010493234 1.0106549 6129600
-0.096457519 -0.0040277913 1.014882 7570324
-0.089132383 -0.0011363104 1.0111376 6651024
-0.082757577 0.0044861212 1.0103869 6781327
0.10053708 -0.0042556673 1.0074579 6854356
0.1121402 -0.0044424906 1.0091031 7111067
-0.07833267 0.010182798 1.0113928 6583439
0.10375972 0.0068797171 1.0081136 6845830
0.11197262 0.0040728301 1.0102026 7436672
-0.065677129 0.020830885 1.0136164 6321290
-0.059485823 0.021568716 1.012491 5795463
0.083145961 0.017569445 1.0115639 5860223
0.092675924 0.012609802 1.0092483 6649473
0.10018528 0.011827826 1.0133325 6977411
-0.065978125 0.025410227 1.0136909 7372164
-0.056551069 0.025443874 1.0122861 6123396
-0.047044992 0.029574536 1.0142635 5729669
-0.038493514 0.029926084 1.0141414 5336195
-0.031798132 0.032110624 1.0093256 5270149
0.073298775 0.024966761 1.0076636 5532277
0.080814041 0.021925695 1.0123664 5860472
-0.047384605 0.034703709 1.0155605 6714755
-0.038322333 0.034462549 1.0154141 5794947
-0.027502459 0.035836406 1.0131253 5466498
-0.016999904 0.038123108 1.0117843 5466240
-0.0064905193 0.03837996 1.0127604 5334655
0.0039503761 0.038227431 1.0110904 5138044
0.013023082 0.038651593 1.0115385 5072252
0.022684867 0.038202249 1.0106915 5072247
0.032316394 0.037396409 1.0101613 5137530
0.042585626 0.036454849 1.0136445 5137788
0.051478665 0.032921441 1.010956 5268347
0.11888022 -0.012479812 1.0162265 7374502
-0.096920036 -0.00058801472 1.0238056 9214113
-0.088026717 0.0030715168 1.0217724 6978442
0.11503652 -0.010428339 1.0162727 7112109
0.11963863 -0.0063410252 1.0167954 8686741
-0.085994415 0.0088003576 1.0223064 7636109
-0.080549724 0.012749165 1.0212847 7437970
0.11990756 0.0017869025 1.0160925 9277068
0.086027928 0.018961325 1.0175061 5992060
0.092576563 0.016745262 1.0200009 6451580
0.099411257 0.015391558 1.0186499 6516347
-0.055499136 0.027931102 1.0197496 6254982
-0.051707119 0.032285415 1.0256529 6648965
-0.035898782 0.030622818 1.0184064 5270660
0.067617074 0.029934727 1.0197178 5662844
0.07344833 0.028415419 1.0197349 5794679
0.08195623 0.02539207 1.0185201 5926261
0.090078928 0.02158042 1.021419 6253428
-0.045532063 0.036798559 1.0202637 7043204
-0.036417734 0.037231751 1.0205276 6188928
-0.025944121 0.040055819 1.0212665 5991293
-0.016122092 0.041947417 1.02119 5794427
-0.0063537285 0.041648515 1.0202324 5597052
0.0018122168 0.040982954 1.018904 5399930
0.011153659 0.04106582 1.0175502 5203324
0.021865614 0.04078076 1.0173771 5269365
0.034574986 0.040491216 1.0181717 5334394
0.043754533 0.039261378 1.0200318 5466234
0.050269675 0.037279405 1.0207748 5597049
0.067694642 0.032865025 1.0196924 5991033
0.072349645 0.032697521 1.0219038 6055795
-0.01411291 0.04383909 1.0209416 6056827
-0.0050182343 0.044755362 1.0242858 5859449
0.0033395384 0.044672035 1.0230495 5728377
0.012516259 0.043893494 1.0245059 5532027
0.023146611 0.043049864 1.0243388 5532021
-0.093974672 0.0010487661 1.0296021 7306630
-0.09198197 0.0019798502 1.0295618 7438985
-0.073910825 0.019362226 1.0351241 7044228
-0.070040978 0.019184701 1.0320616 6255491
0.094945408 0.019148208 1.0263602 6187632
0.10036676 0.019495994 1.0262685 6119529
-0.055392027 0.031120248 1.0287231 6780808
0.063260421 0.030324645 1.026787 5465215
0.086880744 0.024618372 1.0314481 6056820
0.092940927 0.023743816 1.0296558 5988198
-0.042783361 0.039051332 1.0284514 7108737
-0.036289211 0.041793518 1.0316232 7108222
-0.027929235 0.042592533 1.0281792 6582396
0.054910034 0.037708752 1.0291134 5859705
0.060193155 0.035702623 1.0277932 5728122
-0.023275431 0.04588031 1.0305765 6713719
-0.016814649 0.046638168 1.0318646 6450807
-0.0086261313 0.046628334 1.0300804 6122104
0.0032284968 0.047298409 1.0298808 6122617
0.015571683 0.047487833 1.0300939 6057083
0.021908481 0.047171675 1.0309262 6057334
-0.078898631 0.018293187 1.038215 7832202
0.086698808 0.028067783 1.0354234 5792617
0.08967451 0.027988598 1.0353754 5724767
-0.034937315 0.045202412 1.0372741 7764863
-0.014994267 0.048642479 1.0369192 6384242
-0.006067168 0.04840491 1.0367751 6121843
0.16440794 -0.08346948 1.0540712 13950701
0.16743791 -0.08355011 1.0540222 13160147
0.16650817 -0.080492981 1.0540123 13423577
0.16534585 -0.093117878 1.0611362 12898285
0.16929939 -0.094205819 1.0605804 12832198
0.1640262 -0.087138027 1.0592512 10136266
0.17077821 -0.087795369 1.0592532 13159885
0.164565 -0.080855645 1.0605482 12175571
0.16987729 -0.079962954 1.0569532 13093836
-0.13989872 -0.10522267 1.0780354 1720740
-0.14049044 -0.098310597 1.0777764 3628972
-0.14133653 -0.09211313 1.0791514 4745397
0.16478348 -0.094808444 1.0701609 6256041
0.16925985 -0.097609356 1.0703106 12767188
0.16330695 -0.085665159 1.0721102 7312841
-0.13827974 -0.12938164 1.0894094 2903988
-0.13516411 -0.12946457 1.0893589 1324707
-0.13943434 -0.11732169 1.0885789 2904505
-0.13791147 -0.10861102 1.0871322 2644141
0.16454163 -0.11457382 1.0843296 5801403
0.16896361 -0.11503796 1.0842611 11779799
-0.13733739 -0.097543932 1.0851314 3039906
0.16392323 -0.10546568 1.0832647 3630254
0.17011011 -0.10645587 1.0825832 11516624
0.17722413 -0.10659631 1.0840564 13685195
-0.1395607 -0.088494666 1.0874575 2708908
0.16391483 -0.097001612 1.0823201 3762605
0.16854858 -0.10092586 1.0811514 10465738
0.16418606 -0.090230465 1.0781343 6721740
-0.13674006 -0.071217522 1.088906 1588628
-0.1336244 -0.071300432 1.0888556 3826867
-0.13203698 -0.14486547 1.0954354 3694011
-0.13686973 -0.13822162 1.0934595 7178192
-0.13160825 -0.13809992 1.0945264 2114980
-0.13677466 -0.1267491 1.0933636 1063065
-0.13235614 -0.12967978 1.0942155 2447769
-0.13610551 -0.11920379 1.0932907 2578847
-0.13354373 -0.11880087 1.0962459 2907546
0.16412249 -0.12552188 1.0899274 6851775
0.16969493 -0.1252179 1.0883334 13029078
-0.13513726 -0.10912773 1.0939422 3104917
-0.13321167 -0.10625716 1.0961374 3170462
0.16301635 -0.11469713 1.0898565 3040417
0.17262006 -0.11829148 1.0882286 13422807
0.17562145 -0.1152418 1.0881543 13619661
-0.13689199 -0.096554212 1.0938675 3104162
0.16198638 -0.10645948 1.0891627 2973607
-0.13600224 -0.088247858 1.0940347 3169952
0.16270423 -0.09634909 1.0912111 2843043
-0.13755757 -0.078532994 1.0931381 3301299
-0.12706602 -0.1568207 1.1054538 4750553
-0.12344984 -0.15912619 1.107414 1196192
-0.12894031 -0.14953099 1.1022241 3036848
-0.1250183 -0.15186489 1.10738 1789334
0.15905711 -0.15540579 1.1002576 12898004
-0.127579 -0.13865721 1.1035349 2776475
0.15977785 -0.14633244 1.099071 9087435
0.16565216 -0.14187588 1.0955377 13488846
-0.12954485 -0.12786514 1.1032561 3038106
0.15989685 -0.13569054 1.0979815 4354994
0.16775146 -0.13395284 1.0954381 13752800
-0.13113743 -0.11809785 1.1046466 2973083
0.16014248 -0.12591425 1.098805 2121388
-0.13568673 -0.1044609 1.1001638 3301280
-0.13237789 -0.10947092 1.1037878 3039132
0.16104883 -0.11789272 1.0965828 2646946
0.17744097 -0.1130649 1.0981083 13817039
-0.1355201 -0.098166198 1.1001093 3366820
-0.13290611 -0.098659307 1.1050714 3105183
0.15980327 -0.1055769 1.1000359 3631271
0.17854851 -0.11098894 1.0980731 13817037
-0.13522387 -0.086975619 1.1000124 3499424
-0.13249797 -0.088034898 1.1037772 3302563
0.15972775 -0.095326483 1.0991939 3369127
-0.13221487 -0.07854002 1.1033945 3434147
0.16191164 -0.085788541 1.1000478 2908578
0.16770196 -0.083329745 1.0980234 8233160
-0.13659462 -0.067289129 1.1007304 3365295
-0.1312592 -0.068617299 1.1036435 3499689
0.1629523 -0.076237321 1.0996902 4024485
0.16792476 -0.074913956 1.0979506 11192030
-0.13479146 -0.05843658 1.1027713 2181536
-0.12954289 -0.05842391 1.1038855 3433908
0.16236269 -0.070764363 1.1020082 2708114
-0.13289207 -0.050228953 1.1066735 8233201
-0.12912467 -0.051463306 1.1049074 3564980
0.017837483 0.11766628 1.0988249 9935247
0.023571514 0.118416 1.0987248 9934992
-0.11792678 -0.16811389 1.1160911 929696
-0.11371619 -0.16855946 1.1183339 1984411
0.14866966 -0.17127389 1.1140604 13424882
-0.1187233 -0.15854645 1.1137329 2512540
-0.11409957 -0.16054049 1.1169407 2906513
0.1501095 -0.16540831 1.1115438 8955594
0.15573937 -0.16424498 1.1078858 14080986
-0.12549111 -0.14427313 1.1143265 2381461
-0.12248433 -0.14951944 1.1162581 2776212
0.15056282 -0.15582684 1.1102217 3697834
-0.12576756 -0.13833544 1.1151156 2841752
-0.12370028 -0.14268568 1.1182847 2906774
0.15268639 -0.14595914 1.110586 2646183
-0.12735948 -0.12771915 1.1160784 2907034
-0.12341804 -0.13202314 1.1181924 2775704
0.15351236 -0.13723411 1.1116009 3696546
0.15567666 -0.13275878 1.1109619 3761571
-0.12815085 -0.11825549 1.1146007 2973083
0.15750512 -0.12671097 1.1102155 3368880
-0.12898335 -0.10802639 1.1139857 3039134
0.15810207 -0.11511815 1.1097164 3500454
-0.12888879 -0.097578295 1.1135982 3171232
0.15727091 -0.10664587 1.1106735 3631529
-0.12922528 -0.088803478 1.1128315 3302564
0.15597042 -0.096251577 1.106323 3697839
0.1564298 -0.096489348 1.109318 3763633
-0.12902579 -0.078243665 1.1135415 3368355
0.1572887 -0.085255608 1.1089258 3436468
0.17169634 -0.08201091 1.1089491 10992842
-0.12641203 -0.067892395 1.1134137 3697068
0.15555918 -0.072225809 1.1131334 3765679
0.15861368 -0.074849501 1.108286 3830452
0.17145473 -0.077751696 1.108918 11387079
-0.12514454 -0.060166892 1.111129 3631022
-0.12289266 -0.057020608 1.1105663 3500456
0.15505904 -0.065318704 1.1101955 3830449
0.16171882 -0.066010892 1.1076123 5207985
0.1682764 -0.067161992 1.1115501 10334913
-0.12503001 -0.048124395 1.1130999 3434161
0.15443152 -0.056370091 1.1098782 3893939
0.16149688 -0.05704907 1.1089664 8428221
-0.12496183 -0.03806207 1.1165881 6194370
-0.12034469 -0.036074538 1.1173534 4421311
0.15263903 -0.044475008 1.1118621 5734064
0.15885964 -0.04830604 1.1128827 10203587
-0.11883559 -0.029445924 1.1172743 6852289
0.15127677 -0.038533472 1.1097261 8955077
0.024476599 0.094514139 1.113909 9737616
-0.088172674 -0.20556974 1.1265547 7635861
-0.08475893 -0.20613036 1.1291705 8100012
-0.098120607 -0.19535911 1.1293007 10535920
-0.091205686 -0.19824106 1.1268579 5996227
-0.08466392 -0.20254126 1.1291395 6394567
-0.10796424 -0.18412764 1.1213683 8431615
-0.10098741 -0.1867341 1.1240451 1526185
-0.094803512 -0.18925709 1.1280533 1262491
0.12892514 -0.19242206 1.1255593 11717846
-0.11628989 -0.17534719 1.1214324 7571711
-0.10934372 -0.17778839 1.1228945 1917611
-0.10237371 -0.18046306 1.1265808 2379673
-0.095653839 -0.18357241 1.1291635 2644619
0.13069631 -0.18559381 1.1254742 5010097
0.13802457 -0.18285021 1.1221883 10599906
0.14514241 -0.18183616 1.1212062 14081762
-0.10913188 -0.16893756 1.1254737 2709143
0.13201925 -0.17502519 1.1253657 2909858
0.13861683 -0.17475858 1.1214367 4026283
0.1461457 -0.17518318 1.1176344 12307424
-0.11575217 -0.15503412 1.1212566 2775446
-0.11143514 -0.15933892 1.124131 2775442
0.1401175 -0.16584086 1.1221571 3105445
0.14500037 -0.16518268 1.1170709 2578854
-0.11755808 -0.14776565 1.1233807 2775449
-0.11333313 -0.15024564 1.1278455 2906778
0.14272892 -0.15609448 1.1234344 3564451
0.14604121 -0.15523902 1.1193726 3433893
-0.12116116 -0.13897894 1.1245079 2840984
0.14446771 -0.1479405 1.1249392 3565217
0.14821666 -0.14596891 1.1195275 3499430
-0.1257064 -0.1269528 1.1211888 2841497
-0.12267325 -0.12876026 1.1271551 2907290
0.1508112 -0.13539171 1.1217318 3237547
-0.12560973 -0.11748197 1.1227096 2973083
-0.12281863 -0.11800061 1.127069 3038877
0.15417811 -0.12578183 1.1227796 3827369
0.15676588 -0.124841 1.1165466 3564710
-0.12638283 -0.10747822 1.1238974 3039391
-0.12373204 -0.10943069 1.1276803 3170977
0.15471077 -0.11570581 1.1225063 3565735
0.15699229 -0.11628813 1.1164726 3500198
-0.12625715 -0.09926828 1.1259711 3170977
0.15520599 -0.10670318 1.1217574 3631790
0.1562885 -0.10838816 1.1244206 3434923
-0.12614918 -0.088722892 1.1248825 3302823
0.15517575 -0.095244601 1.1218303 3566513
-0.12587538 -0.078736752 1.1234623 3368614
0.15451679 -0.085967243 1.1218034 3632560
-0.12514609 -0.071035884 1.1247207 3565995
0.15356717 -0.075781174 1.1204631 3895728
-0.12178759 -0.056057602 1.1261429 3697842
0.15146911 -0.065777168 1.1189485 4158132
-0.1199268 -0.047810946 1.1248081 3502262
0.15064058 -0.055072784 1.1200742 4027837
-0.11704013 -0.038375121 1.1240972 3698611
0.14615583 -0.043469489 1.1240529 4619197
0.15178642 -0.046768025 1.1184484 4946612
-0.12318762 -0.031802073 1.1203655 7180220
-0.1154061 -0.028947622 1.1274158 4815032
0.14623141 -0.036993314 1.1233317 5209534
0.15088037 -0.035427276 1.115908 8425655
0.025536712 0.090483956 1.1169254 9474444
-0.061382085 -0.21656002 1.1358746 8300241
-0.079432197 -0.20791349 1.1324623 7642055
-0.071925014 -0.20875239 1.1344829 4815810
-0.065235645 -0.21236867 1.1359034 5210825
-0.088257872 -0.19576423 1.1321431 932767
-0.081354775 -0.19937846 1.1337444 2382238
-0.072782919 -0.20262729 1.1359469 2251168
0.11073934 -0.20425859 1.1329556 6518691
0.11657793 -0.2033999 1.1314241 11319227
-0.089775838 -0.18896396 1.1339791 2447513
-0.084440939 -0.19255966 1.136055 2513045
0.11864504 -0.19522652 1.1316991 4617903
0.12563738 -0.19545436 1.1286386 10929103
-0.098943569 -0.17769301 1.1336243 2971544
-0.093124799 -0.18160956 1.1341068 2774929
0.12095192 -0.1860224 1.1309714 2909086
0.12584272 -0.18522386 1.1285511 3105187
-0.10614956 -0.16431831 1.1321776 2709911
-0.10162552 -0.16947967 1.1344993 2644371
0.12763044 -0.17544737 1.129057 3368356
-0.10827472 -0.15762886 1.1339759 2775444
-0.10340253 -0.16187611 1.1347797 2709910
0.13232544 -0.16569436 1.1298847 3368613
0.13658254 -0.16285522 1.1281915 3499683
-0.11126526 -0.14897916 1.1336355 2841497
0.13436042 -0.15826862 1.1321907 3237027
0.13911569 -0.15570787 1.1294248 3302821
-0.11690205 -0.1372427 1.1327026 2645144
-0.11342261 -0.13904017 1.1352005 2775964
0.14251077 -0.14585343 1.1301368 3237542
0.14667806 -0.14239085 1.1291915 3106215
-0.11849522 -0.12879099 1.1335425 2907291
0.14414433 -0.1363373 1.1305168 3499683
0.14727235 -0.13445242 1.128926 3303338
-0.11920211 -0.11883496 1.1344178 3039134
0.14911547 -0.12600508 1.1290953 3499947
-0.12400835 -0.10442426 1.1319777 3236770
-0.121909 -0.1087428 1.1353127 3236770
0.15113094 -0.11554436 1.1293828 3500458
-0.12383687 -0.09794677 1.1319216 3237027
-0.12205607 -0.098321557 1.1358962 3302821
0.15378335 -0.10505868 1.1297208 3632048
-0.12357967 -0.088230535 1.1318376 3302824
-0.12181231 -0.089112744 1.1358165 3302569
0.1522899 -0.096127972 1.129568 3632047
-0.12377142 -0.079150565 1.1317661 3434408
-0.12086759 -0.076825008 1.1357 3434665
0.14918503 -0.084998071 1.1291636 4026292
-0.12306527 -0.068798073 1.1316694 3631531
-0.12125307 -0.06798666 1.1356337 3631531
0.14948052 -0.077036962 1.1277194 4157366
-0.12289379 -0.062320586 1.1316134 4025255
-0.11957189 -0.057264861 1.1338035 3632304
0.14924878 -0.065241277 1.1271818 4289211
-0.1158843 -0.048372976 1.1330985 3568048
0.14638993 -0.054387763 1.1278061 4094399
0.14862597 -0.058824424 1.1291395 4224702
-0.11444417 -0.042379055 1.1313111 3764911
-0.11085025 -0.038136929 1.1337178 3895729
0.14407018 -0.045895193 1.1285622 4487616
-0.11512967 -0.024223402 1.1341735 6458567
-0.11030587 -0.028130926 1.1335266 3895996
0.14427471 -0.034868844 1.1274136 5735616
0.15121415 -0.031802982 1.1268747 9477559
-0.11460345 -0.021545053 1.135143 6852289
-0.11135361 -0.021631531 1.1350906 5933254
0.057912763 0.075473063 1.1275206 9474701
-0.024715643 -0.22788641 1.1473695 7248329
0.0080612414 -0.23035768 1.1460531 5801654
0.016101623 -0.2294465 1.1453805 5210039
0.028896064 -0.23040867 1.1465125 6328255
0.036559016 -0.23061258 1.1463888 7379645
0.048117489 -0.23079845 1.146201 8430007
0.05604662 -0.22926995 1.1420579 8625323
-0.062519908 -0.21882132 1.1399126 9678537
-0.051592678 -0.21905743 1.1462631 4422071
-0.042252842 -0.21996972 1.1475916 2778029
-0.032542329 -0.22204366 1.1474496 2513574
-0.025003266 -0.22495717 1.1473502 2315684
0.004899432 -0.22648332 1.1468731 2120102
0.016941218 -0.22680375 1.1466787 2185635
0.030106695 -0.22605851 1.146457 2186146
0.03555125 -0.227299 1.146378 2316696
0.050935127 -0.22551721 1.1461115 4486314
0.058469806 -0.22533995 1.1439863 5997746
0.069706336 -0.222671 1.1446377 6063288
0.078430355 -0.2214283 1.1456277 6589614
0.086525381 -0.22186285 1.1454988 8757678
-0.067638785 -0.20671751 1.139897 1855898
-0.060933702 -0.20937747 1.1430477 2249885
-0.053248852 -0.2118579 1.1469775 2381985
-0.045167316 -0.21419512 1.1475918 3039902
0.072557256 -0.21568456 1.1456766 2841504
0.078592643 -0.21529737 1.1455747 3302564
0.088192515 -0.21330811 1.1440675 4420011
0.09794151 -0.21277204 1.1395218 6984117
0.10741189 -0.21028785 1.1370603 6254993
-0.078488961 -0.1958985 1.1407858 2710418
-0.070793927 -0.19933735 1.1442696 2775447
-0.064086281 -0.20172146 1.1469989 2906776
0.09086366 -0.2054756 1.1448929 3171492
0.099361315 -0.2043518 1.1419441 3237285
0.10765749 -0.20339449 1.1375711 3629215
-0.081125826 -0.18884256 1.1447716 2775191
-0.073043816 -0.19252864 1.1472034 2906012
0.10158676 -0.19518951 1.143366 3040421
0.10851676 -0.19371969 1.1398538 3105703
0.11436614 -0.19415346 1.1368138 2777257
-0.096155681 -0.17440769 1.1400982 2710677
-0.089437127 -0.17844197 1.1435515 2709909
-0.083277263 -0.18219419 1.1459525 2709910
0.1099484 -0.18534482 1.1433412 3368100
0.11750436 -0.18374828 1.1388106 3302561
-0.097159341 -0.16780764 1.143172 2710421
-0.092384875 -0.17075238 1.1472077 2644886
0.11223508 -0.17762804 1.1447142 3040936
0.1203224 -0.17476138 1.142471 3237031
0.12675357 -0.17205577 1.1394298 3368615
-0.10650856 -0.15454885 1.1401045 2776209
-0.10111988 -0.15913399 1.1448048 2841240
0.12261295 -0.16631536 1.1444514 3237287
0.1290414 -0.16430372 1.1391858 3302822
-0.10725848 -0.14783511 1.1445957 2710683
-0.10260615 -0.15122816 1.1473479 2841499
0.13156778 -0.15592887 1.1416306 3237541
0.13654722 -0.15337852 1.1377157 3237798
-0.10914997 -0.13922107 1.1451656 2907293
0.1335263 -0.14718959 1.1441154 3237797
0.13824348 -0.14481424 1.1390178 3303334
-0.11521115 -0.12739326 1.1411668 2907805
-0.11295737 -0.12903759 1.1472017 2907805
0.14037287 -0.13548261 1.1414622 3434407
-0.11543881 -0.11806374 1.1426179 3039392
-0.1127652 -0.11927155 1.1479183 3039391
0.14256695 -0.12596631 1.141221 3500202
0.1467042 -0.12320844 1.1357012 3631274
-0.11831393 -0.10880052 1.1444559 3170979
0.14482459 -0.11573727 1.1432275 3631791
0.14813602 -0.11530632 1.1373909 3566510
-0.11842468 -0.098434031 1.1455536 3105957
0.14427674 -0.10461557 1.1419225 3632305
0.14938605 -0.10590063 1.1358484 3501227
-0.11857813 -0.088420704 1.1431878 3237546
0.14404508 -0.095542878 1.1409727 3698099
0.14856753 -0.096086726 1.1358478 3698094
-0.11769339 -0.078690797 1.1433314 3434923
0.14553523 -0.086300895 1.141418 3895479
0.14762515 -0.088418119 1.1354002 3895477
-0.11702772 -0.068242431 1.1438538 3566256
0.14611492 -0.074998505 1.1426492 4027579
0.14856836 -0.07451658 1.1392711 4157882
-0.11581 -0.059368581 1.1430044 3567024
0.14432013 -0.06541425 1.1420898 4159422
0.14857134 -0.065712482 1.1375984 4289724
-0.113272 -0.049614958 1.1406863 3567791
-0.11003152 -0.047720451 1.1459519 3764403
0.1428524 -0.055347301 1.1405407 4356797
-0.1081542 -0.038884733 1.1397523 3830196
0.14042923 -0.045705002 1.1395676 4619718
-0.10635513 -0.028007351 1.1419715 3896507
0.13666296 -0.033703916 1.1400197 4817095
0.14112046 -0.034427855 1.1367298 4948420
-0.11369931 -0.018625826 1.1431056 6916535
-0.1062327 -0.019357637 1.1426817 5210049
0.13602051 -0.027275212 1.1420888 5013440
0.14045212 -0.026996054 1.1396801 5998788
0.037635941 0.049406461 1.1389257 5859448
0.045801446 0.049250521 1.1369358 6122362
0.05141126 0.049255811 1.1398444 6319482
0.062617257 0.050259285 1.1436534 5330522
0.038310345 0.053823985 1.1373543 5792108
0.046145964 0.054456331 1.1366874 5527648
0.051526781 0.053619824 1.1398066 5067354
-0.018924374 -0.22798705 1.1502759 4354997
-0.011562791 -0.22919345 1.1521658 4684224
-0.0016860906 -0.22917452 1.1505369 4289976
0.0093402024 -0.22716999 1.1498065 2054307
0.019752527 -0.22799629 1.1496428 2777510
0.02521129 -0.22924 1.1495637 4026798
0.041674737 -0.22967812 1.1492977 5604271
0.045559794 -0.22813383 1.1492214 4881326
-0.037622578 -0.21713272 1.1504929 3039902
-0.029692769 -0.21825755 1.1508723 2710943
-0.021232475 -0.22036809 1.1535561 2645152
-0.011379467 -0.22346029 1.1567831 2514339
-0.0014487449 -0.22362551 1.1560884 2514851
0.0085059404 -0.22139724 1.1543735 2842787
0.018362181 -0.22125474 1.1520106 2908579
0.02804767 -0.22111315 1.1523398 3039651
0.038236883 -0.22207797 1.1532922 2908578
0.047601797 -0.22145718 1.1528838 2778020
0.057635214 -0.22008225 1.1503863 2646433
0.067112416 -0.22303212 1.1488266 5012145
0.078602925 -0.22461939 1.1486515 8955830
-0.050420508 -0.20836771 1.1509161 2841242
-0.04060331 -0.21068469 1.1528225 2775960
-0.031600852 -0.21218319 1.154621 2841500
-0.022193708 -0.2145741 1.1582206 2907551
0.0095075946 -0.21468034 1.1577024 3105184
0.018727172 -0.21455701 1.1575505 3170722
0.028673783 -0.21482168 1.1573898 3302053
0.03881922 -0.21453865 1.1572214 3170723
0.0493428 -0.21389696 1.1570438 3105188
0.058663595 -0.21336608 1.1551722 3170467
0.068208031 -0.21344399 1.1511303 3236258
0.078408062 -0.210289 1.1489815 3171236
-0.06673377 -0.19658604 1.1508006 2906776
-0.060246527 -0.19898583 1.1518573 2907033
-0.05176603 -0.20016497 1.1554191 2841497
-0.04257014 -0.20444596 1.158471 2775704
0.059823602 -0.20790815 1.156823 3105443
0.068665035 -0.20814344 1.1566801 3105443
0.079532646 -0.20472455 1.1552107 3105956
0.087913498 -0.20210631 1.1515146 3105956
-0.077418834 -0.18531728 1.150883 2644884
-0.070398062 -0.18904766 1.1537992 2775705
-0.062063038 -0.19211987 1.1563551 2841497
0.083324946 -0.19747293 1.1563524 3172006
0.091026001 -0.19530353 1.1552083 3040421
0.09690775 -0.19313103 1.1525937 2974628
-0.085966885 -0.17630225 1.1509488 2645144
-0.079323806 -0.17822143 1.1539152 2710425
-0.074070252 -0.18107051 1.1553655 2776216
0.10060652 -0.18458468 1.1527131 3171493
0.10559079 -0.18251324 1.1494639 3237026
-0.088749774 -0.16818568 1.1535163 2710424
-0.08237692 -0.17053117 1.1573892 2710937
0.10374482 -0.17810717 1.155859 3302823
0.1101297 -0.17421779 1.152564 3172005
0.11599231 -0.17123938 1.1516013 3172006
-0.097160891 -0.15659854 1.1509701 2841498
-0.092754059 -0.15919457 1.1558433 2907290
0.11287884 -0.16728958 1.1556205 3303592
0.11919195 -0.16408584 1.1541573 3237544
0.12534645 -0.15995672 1.1473547 3303337
-0.098673388 -0.1480832 1.1526395 2973342
-0.094064251 -0.15127495 1.158877 3038879
0.12303839 -0.15641615 1.154698 3237544
0.12740326 -0.15354118 1.1500688 3303336
-0.10640155 -0.13632686 1.151955 2973342
-0.10034897 -0.13961464 1.1563836 2973600
0.13107219 -0.14449991 1.1511346 3368872
-0.10774895 -0.12841378 1.1532651 3039392
-0.10225203 -0.12933081 1.1588306 3236259
0.132651 -0.13508356 1.1527817 3500460
0.13704851 -0.13280706 1.14694 3434923
-0.10858463 -0.11874085 1.1537354 3170978
0.13394365 -0.12617803 1.1536041 3500719
0.13864772 -0.12383078 1.1501739 3500718
-0.11489714 -0.10742894 1.1508564 3237029
-0.11102425 -0.10885099 1.1568056 3237286
0.13926515 -0.1149634 1.1528633 3697329
-0.11466468 -0.098647572 1.1507803 3237543
-0.11197258 -0.09821894 1.158234 3172263
0.1407157 -0.10589203 1.1522596 3697843
-0.11466327 -0.088981465 1.1537014 3303340
-0.11247882 -0.087923601 1.1586578 3303852
0.14077301 -0.095440984 1.1525729 3764149
-0.1145172 -0.079245672 1.1506184 3500716
-0.11163381 -0.077886164 1.1585615 3501229
0.14396584 -0.0850982 1.1510068 3764661
-0.11393826 -0.071205832 1.1505429 3566512
-0.11060656 -0.067833573 1.154825 3632306
0.14125407 -0.074815132 1.1508658 3896764
-0.10975052 -0.058232527 1.1547321 3698357
0.13557367 -0.064601257 1.1530713 4291265
0.13928428 -0.06591697 1.1474966 4225217
-0.10790784 -0.049274009 1.1542646 3764408
0.13659903 -0.055028107 1.1523091 4554434
0.13911156 -0.05487252 1.1462656 4488640
-0.10465696 -0.038637862 1.154924 3895997
-0.10040075 -0.03552261 1.1580293 4027323
0.1364769 -0.044232234 1.1512221 4817354
-0.10291902 -0.029177107 1.1513506 3962044
-0.098816559 -0.028029874 1.1571417 4093118
0.12752944 -0.031633556 1.1542655 5014224
0.13278294 -0.034541082 1.1502028 4751563
-0.10156789 -0.018809773 1.1499097 4290235
-0.096610881 -0.018774219 1.1543623 4158908
-0.090315387 -0.016619213 1.1577088 4028609
0.12602347 -0.024568208 1.1524541 4817874
0.13262644 -0.024504103 1.1471224 5145287
-0.094086908 -0.012209736 1.1521333 4487616
-0.088568769 -0.009655647 1.1562895 4356800
0.1175011 -0.011824466 1.1522666 5276623
0.12369913 -0.01503446 1.1484766 5604813
0.1330436 -0.016512945 1.1469387 6720449
-0.086260855 -0.002716966 1.1575282 5671109
0.11581334 -0.0061999932 1.1536769 5802961
0.12209044 -0.0071716532 1.1494861 6787017
0.040197685 0.011614844 1.15534 12972031
-0.014799315 0.022977538 1.1541467 5869264
0.017523121 0.018485941 1.1556547 7515376
0.025004024 0.017918162 1.1555369 8764660
0.034595102 0.017220527 1.1553856 10146554
0.041198861 0.016012453 1.1552874 10870005
-0.07237789 0.032772548 1.1490078 8028800
-0.067246243 0.033002131 1.1489218 7305855
-0.010347959 0.024020568 1.1560655 5671370
-0.0070324223 0.023932338 1.1560119 5869265
0.016176336 0.023314729 1.155637 6988787
0.02059705 0.023197085 1.1555656 7185904
0.10703509 0.029745363 1.1540966 6314850
-0.065894358 0.037970163 1.1488589 8028802
0.10403421 0.033364646 1.154116 6117979
0.080234066 0.0444557 1.1464131 5593178
0.082429193 0.044397272 1.1463777 5658970
-0.01673412 -0.21765143 1.1621573 2973083
-0.011218542 -0.21890807 1.1620773 2973595
-0.0017717611 -0.21872327 1.1625879 2973598
-0.036402289 -0.2060293 1.1623838 2842012
-0.03006231 -0.20758535 1.1622927 2776219
-0.020766199 -0.21030083 1.1636869 2907806
-0.01118549 -0.21192136 1.1651777 2907807
-0.00064362027 -0.21274114 1.1651874 2973599
0.0082509639 -0.21066085 1.1623574 3039136
0.019026686 -0.20995134 1.162842 3170723
0.028992832 -0.21010293 1.1620133 3236770
0.038788512 -0.20990849 1.1611845 3170979
0.047836661 -0.20993581 1.1610366 3170980
0.054534622 -0.20844924 1.1609148 3171236
-0.047257274 -0.19686142 1.1624861 2842012
-0.040587489 -0.19929266 1.1638516 2842011
-0.031021092 -0.20179817 1.1647228 2842012
-0.022750124 -0.20345491 1.1661397 2907805
0.023672212 -0.20608237 1.1654012 3302309
0.029693447 -0.20509541 1.1641515 3302308
0.038323954 -0.20521566 1.1626538 3171236
0.049048413 -0.20608349 1.1609851 3171236
0.059733085 -0.20497948 1.1624681 3105443
0.06959103 -0.20332414 1.1616263 3171492
0.076170757 -0.20162582 1.1605045 3040420
-0.068034418 -0.18520975 1.1627305 2841497
-0.059326388 -0.18818697 1.1631458 2907291
-0.050939992 -0.19105008 1.1643813 2907549
-0.044264931 -0.19239515 1.166401 2907551
0.072929755 -0.19625631 1.1645139 3040420
0.07996092 -0.19461775 1.1624904 3106213
0.087812759 -0.19224273 1.1602367 3106214
-0.069332883 -0.17866905 1.1646984 2907290
-0.062800571 -0.18171021 1.1661166 2973340
0.084293388 -0.18764922 1.1642572 3302823
0.090360001 -0.18544573 1.1617393 3237030
0.096590191 -0.18220212 1.1617886 3237031
-0.086358733 -0.16474438 1.1628623 2841497
-0.078048818 -0.16844174 1.16329 2842012
-0.071950518 -0.17081958 1.1656768 2907547
0.10196251 -0.17466545 1.1607838 3368361
0.10711542 -0.17155778 1.1597507 3237285
-0.087680794 -0.15878986 1.162835 2973085
-0.08086431 -0.15917246 1.1654638 3039135
0.1044457 -0.16760218 1.1597619 3368615
0.11106724 -0.16444063 1.1603549 3237799
0.11571173 -0.16124272 1.1595252 3303337
-0.094731517 -0.14565369 1.1628425 2973857
-0.089373 -0.14931399 1.1643406 3039137
-0.083425872 -0.15033227 1.1666964 3104930
0.11327472 -0.15698591 1.1615304 3172264
0.11954937 -0.15427293 1.1600717 3238059
-0.095688954 -0.13741457 1.1637906 3039650
-0.09175577 -0.14108975 1.1667569 3105700
0.12306883 -0.14460693 1.1614221 3369132
0.12724197 -0.14490144 1.159202 3434410
-0.098205656 -0.12877551 1.1644752 3171236
0.12519172 -0.13652951 1.1623672 3500719
0.12860376 -0.13432582 1.1610931 3435183
-0.10505804 -0.11652213 1.1627721 3302823
-0.10041773 -0.11860278 1.1653802 3171495
0.12962958 -0.12425394 1.1608117 3566514
-0.10655172 -0.10783165 1.1641799 3368873
-0.10287666 -0.10909127 1.1658758 3368875
0.13257059 -0.11514489 1.1596704 3697588
-0.10719564 -0.098734818 1.1653279 3303850
0.13443457 -0.10556889 1.1621901 3763892
0.13762027 -0.10500014 1.1587042 3698099
-0.10828611 -0.088506058 1.1641949 3435181
-0.10240699 -0.089131281 1.1665041 3435438
0.13573098 -0.095468439 1.1626574 3829942
0.13854417 -0.095019013 1.15975 3764149
-0.10698798 -0.078860611 1.1644944 3501229
0.1360845 -0.082113624 1.1625417 3896505
0.14036641 -0.085129961 1.1603143 3830455
-0.10613663 -0.069022968 1.163938 3632563
-0.10178833 -0.065760352 1.166302 3567542
0.13387367 -0.074916132 1.159947 4027837
0.13898441 -0.078621417 1.158465 3896505
-0.10511517 -0.05899002 1.1636337 3829940
-0.10161156 -0.059082936 1.1662441 3699127
0.13264742 -0.065256 1.1611259 4291009
-0.10443715 -0.04886822 1.1630059 3895737
-0.10068528 -0.048129827 1.166139 4027576
0.1331982 -0.055234201 1.1603678 4422849
-0.10309096 -0.042212844 1.162129 4158911
-0.098474711 -0.038617976 1.1640242 4093372
0.13339171 -0.045496073 1.1597846 4817355
-0.094486825 -0.029325895 1.163421 4093630
-0.089599811 -0.025992014 1.1657755 4094397
0.12623864 -0.034548108 1.1605339 5080014
0.13062966 -0.037888642 1.158267 4883149
-0.092192382 -0.0217852 1.1617827 4028348
-0.087596454 -0.019336246 1.1631876 4028864
0.12199643 -0.024792194 1.1600788 4949202
-0.08377631 -0.0098392293 1.1633652 4029123
-0.079464592 -0.0077002943 1.1654592 3963586
0.11618969 -0.01476188 1.1609803 5146069
0.11946972 -0.01927872 1.1582967 5080276
-0.082792014 -0.002057597 1.1614667 5342665
-0.075550579 -6.5758824e-005 1.1653323 4882633
-0.012021584 0.00201305 1.1642752 6070261
-0.0053448174 0.0018353686 1.1641673 6528744
0.0013319515 0.0016576946 1.1640594 8827627
0.016911069 0.0012431145 1.1638077 10340848
0.025637619 0.00037449598 1.1636721 8895736
0.033122517 -0.00052470714 1.1635569 6266608
0.10748323 -0.0017326251 1.1613492 5475287
0.11184275 -0.0053821132 1.1596409 5475028
-0.071953118 0.0058141574 1.1632248 5999306
-0.065266035 0.0067460835 1.1631076 5540557
-0.056624278 0.0098463297 1.162274 5803727
-0.043822732 0.011273831 1.1647197 4950220
-0.034893949 0.0099113211 1.1645848 5016280
-0.025195487 0.0090384632 1.1640331 5411294
-0.015182558 0.0087425187 1.1620313 5806569
-0.0051711462 0.0085031018 1.1635096 7120874
0.0044428119 0.0089994818 1.1639482 12379901
0.014977509 0.008172825 1.1612558 13891069
0.024771459 0.0076676384 1.1604258 12969723
0.034742873 0.0076470599 1.161147 9946095
0.044810742 0.0071509704 1.1613891 10013177
0.054588757 0.0087698698 1.1609749 7449069
0.061326876 0.010455549 1.1630049 5411552
0.10465204 0.0022200197 1.1598629 6526426
-0.041713506 0.016167417 1.164645 6264275
-0.034141846 0.016748123 1.1620158 5803990
-0.024576664 0.017110869 1.160356 5345755
-0.014540657 0.018106014 1.1601835 5412839
-0.0049306303 0.018447891 1.1605234 5676266
0.0041172262 0.017305881 1.1627421 7253489
0.013910189 0.016847648 1.1607282 8436213
0.023809941 0.014343411 1.1595865 12051453
0.038344204 0.018396139 1.1593152 10082302
0.046161473 0.017448202 1.1591951 10607102
0.05462021 0.016377486 1.1590654 7515119
0.061661303 0.015587747 1.1602901 6068200
-0.0025708657 0.02392444 1.1599396 6001365
0.0018650824 0.023806393 1.159868 6396124
0.11446901 0.026581213 1.1580017 6447199
-0.0075212661 -0.20816144 1.1699297 3039391
5.8345497e-005 -0.20777784 1.1713028 3039135
0.011460968 -0.20866659 1.1696231 3104930
-0.036257312 -0.1962218 1.1703022 2776478
-0.029874451 -0.19727033 1.1722065 2842271
-0.01998356 -0.19915468 1.1742423 2907807
-0.01080125 -0.20125456 1.1746231 2908063
-0.00079128891 -0.20236143 1.1755729 2973600
0.0095435958 -0.2016577 1.1749312 3105187
0.019461863 -0.20157829 1.1738484 3236773
0.029187109 -0.20050314 1.1729997 3237029
0.04012873 -0.2008794 1.1728904 3171237
0.04971347 -0.2021044 1.1704432 3171236
0.059261747 -0.20080337 1.1696991 3105444
0.068130195 -0.19955844 1.1686205 3171493
-0.048158966 -0.18700409 1.1736218 2841758
-0.040110644 -0.18951952 1.1743108 2907551
-0.031187207 -0.19083956 1.1769996 2842271
-0.020518072 -0.19230241 1.1780136 2908064
-0.013802532 -0.19360624 1.1779144 2973857
0.0075575989 -0.19417466 1.1775693 3105444
0.020450098 -0.19351764 1.1773528 3237030
0.030471906 -0.19420719 1.1763942 3302823
0.04014812 -0.19368407 1.1761084 3171495
0.049535725 -0.1925281 1.1754769 3105703
0.059231266 -0.19304663 1.1751137 3105703
0.069016188 -0.19282505 1.1730514 3105702
0.077367365 -0.19056614 1.1701099 3105958
-0.059255056 -0.17902154 1.1721846 2973598
-0.051237404 -0.18091878 1.1764226 2907551
-0.041366495 -0.18302795 1.1782787 2908065
0.071075417 -0.18444069 1.1764493 3237288
0.07987088 -0.18398194 1.1738566 3302823
0.088536359 -0.18219483 1.1707155 3237287
-0.068337612 -0.16749713 1.1734488 3105183
-0.060913667 -0.17104188 1.1766175 2974112
-0.052644178 -0.17344561 1.1783845 2842786
0.081581429 -0.17724255 1.1762182 3171750
0.090281226 -0.17387427 1.1747144 3172008
0.09831965 -0.17236957 1.1702363 3303081
-0.076238789 -0.15761985 1.1713061 3104930
-0.069978036 -0.16005656 1.1772248 3170978
0.093011461 -0.16558832 1.1759353 3303337
0.10078961 -0.16429442 1.1735468 3368873
0.10771055 -0.16319934 1.1702194 3237543
-0.085697189 -0.14455855 1.173354 3040164
-0.079058103 -0.14848369 1.1744006 3105701
-0.072729029 -0.15303406 1.1785456 3302822
0.10263744 -0.15530053 1.175693 3303597
0.11003033 -0.1531067 1.1711895 3238059
0.1171549 -0.15025114 1.1694129 3303852
-0.087951988 -0.13815211 1.1744496 3106213
-0.08017499 -0.14036584 1.1785634 3172007
0.1112382 -0.14403015 1.1752596 3369387
0.11911733 -0.14403321 1.17133 3435181
-0.094871379 -0.127748 1.1720325 3237030
-0.088247977 -0.12856078 1.1762648 3237800
-0.081926599 -0.13216212 1.1785246 3303594
0.11321969 -0.13803029 1.1753778 3500972
0.12168542 -0.13400379 1.1719556 3500976
0.12636615 -0.1312646 1.1671057 3500977
-0.095736228 -0.1184491 1.1737483 3237545
-0.091053389 -0.12020503 1.1776867 3303852
0.1237777 -0.12450981 1.1750939 3566772
0.12702438 -0.1249617 1.1710436 3566515
-0.097988211 -0.10867505 1.1738437 3369389
0.12488651 -0.1150026 1.1749976 3763639
0.12819338 -0.11419688 1.170047 3763639
-0.10443509 -0.094678029 1.1719172 3435181
-0.099109665 -0.098480515 1.1751 3435438
0.12582229 -0.10393705 1.1748912 3895737
0.13072321 -0.10399217 1.1696341 3764149
-0.10374618 -0.088208385 1.1729196 3435438
-0.098327301 -0.088949114 1.1768992 3501231
0.12597111 -0.098315418 1.1748426 3961530
0.13136825 -0.094521962 1.1695458 3961528
0.13859639 -0.091360196 1.1665775 3895735
-0.10321025 -0.07896281 1.173435 3501489
-0.098891221 -0.07883063 1.176246 3501490
0.12644731 -0.0803262 1.174687 4159679
0.13195467 -0.0851916 1.1699086 3962041
0.13865551 -0.089126788 1.166558 3895735
-0.10350117 -0.071619973 1.1723791 3501747
-0.098566711 -0.068537042 1.1749402 3567541
0.12586649 -0.073935077 1.174644 4225473
0.12947957 -0.074568227 1.1705892 4159424
-0.096542262 -0.058444984 1.1737572 3764919
0.12585145 -0.065058745 1.1745713 4422597
0.12974653 -0.064483553 1.1705019 4357059
-0.095794074 -0.048690684 1.1734934 3896505
-0.090966336 -0.048662834 1.1779863 3962298
0.12600763 -0.054436788 1.1744814 4685767
0.1300135 -0.054398898 1.1704147 4422851
-0.094121978 -0.039622057 1.1715626 4027836
-0.088976666 -0.037948046 1.1767745 4028094
0.12437919 -0.043814648 1.1723027 4948684
0.1301453 -0.045907099 1.1673423 4751818
-0.092237912 -0.031577565 1.1698654 4093632
-0.086481914 -0.028229237 1.1755908 4094399
0.1179442 -0.033220001 1.174439 5080784
0.12214817 -0.034440927 1.1695794 5211343
-0.083035812 -0.019888453 1.173983 4094402
-0.076386273 -0.016977735 1.176487 4226244
-0.069837548 -0.015471548 1.1773676 4620744
-0.015845343 -0.015783235 1.1764861 5412064
0.0066390038 -0.016381569 1.1761229 6463211
0.014605373 -0.020432219 1.1760257 6397929
0.024305217 -0.020049386 1.1758639 6397929
0.033586208 -0.018384524 1.1756982 6003432
0.11514617 -0.023885161 1.1719077 5081042
0.12018251 -0.027172878 1.1663513 5081041
-0.07490427 -0.0092471018 1.171265 4160963
-0.066720158 -0.0084826797 1.1764017 4752075
-0.051582202 -0.0058312863 1.1769894 4949201
-0.04485178 -0.0065729544 1.1768854 5016022
-0.035315529 -0.0079525337 1.1760738 5213659
-0.025522716 -0.0091224462 1.1753589 5411552
-0.015694998 -0.010162473 1.1756374 5740773
-0.0055785794 -0.01043085 1.1762741 6003172
0.0045317728 -0.01070033 1.1757107 6331366
0.014583282 -0.010964766 1.1729478 6989552
0.024686925 -0.011234373 1.1731846 6792432
0.034758072 -0.011500463 1.1723719 5937640
0.04330311 -0.010793209 1.1744765 5806054
0.054064475 -0.0097678006 1.1752921 5674725
0.060839545 -0.0088229775 1.1751734 5674983
0.10658444 -0.012571819 1.1744553 5146841
0.11245161 -0.014840126 1.1686625 5080789
-0.07131137 -0.00084453821 1.1692702 4554184
-0.06779515 -8.5458159e-005 1.1722068 4751049
-0.052493244 -0.00019876659 1.1749576 4818129
-0.045067031 -0.00040102005 1.1740376 5015507
-0.035586376 -0.00066900998 1.1704841 5147609
-0.025504425 -0.00094408542 1.169021 5346018
-0.01583562 -0.0015611947 1.1714793 5937898
-0.0054074824 -0.0025834665 1.1715392 6462952
0.005049197 -0.0021214485 1.1704752 8303605
0.014399456 -0.0024821088 1.169309 8501495
0.024213066 -0.0037286058 1.1683453 7252467
0.035544835 -0.0034799799 1.168997 6069484
0.044731788 -0.0026290268 1.169701 6135528
0.054879788 -0.0032561421 1.1726365 5741031
0.064296104 -0.0032970607 1.1740712 5543655
0.073821478 -0.002244629 1.1749067 5477092
0.083916895 -0.0011862218 1.1747328 5739747
0.095277354 -0.0017385706 1.1745514 5280481
0.10436353 -0.004638426 1.1707335 5015513
0.10975999 -0.0067747086 1.1683546 4949463
-0.064434402 0.0056774393 1.1691039 4818122
-0.054979034 0.0064191297 1.168943 5147606
-0.04627464 0.0069324896 1.1687963 4818639
-0.037635949 0.0049642995 1.168671 5344472
0.0070429184 0.0043340847 1.1679447 12971007
0.011494547 0.0036568642 1.1678773 12905215
0.036059789 0.0030031502 1.1674806 5807584
0.049459018 0.0026465803 1.1672641 6004710
0.055545907 0.0034424588 1.1671579 5807083
0.064434111 0.005701147 1.1691275 5477863
0.072964072 0.0050605163 1.1715268 5542628
0.084745727 0.001792036 1.1746948 5673698
0.095336944 0.0034566298 1.1730074 5804766
0.1008227 0.0012797266 1.1664344 5147865
0.067620263 0.013338253 1.1668788 5412324
-0.0070918612 -0.19667113 1.1818303 3039650
-0.00066307001 -0.19748729 1.1817317 3039650
-0.027187269 -0.18823387 1.1820899 2842271
-0.020419121 -0.18841398 1.1819806 2973857
-0.010107005 -0.18976928 1.1830863 2973857
-0.00038525462 -0.19177048 1.1842068 3039395
0.010308489 -0.1901263 1.1832696 3171237
0.019636348 -0.18896201 1.1823962 3237030
0.029999435 -0.18868306 1.182696 3302569
0.038327448 -0.18904769 1.1823575 3237546
-0.046569839 -0.17723517 1.1823169 2908065
-0.039021548 -0.17840369 1.1822029 2973857
-0.030373931 -0.18038958 1.1830778 2973857
-0.020664137 -0.18254006 1.1840543 2973858
-0.012366563 -0.18357396 1.1858096 3105444
0.019324752 -0.18441731 1.1852976 3237030
0.031060308 -0.18321928 1.1850957 3302825
0.039994761 -0.18300441 1.1846399 3171754
0.049806006 -0.18379864 1.1827933 3171752
0.060146328 -0.18365529 1.1820344 3171753
0.068655834 -0.18076652 1.1814595 3237546
0.076919526 -0.17858607 1.1803062 3303592
-0.057492368 -0.167483 1.1824155 2908579
-0.049327202 -0.16985367 1.1843016 2908579
-0.039521217 -0.17157722 1.1850646 3105444
-0.030903287 -0.17356566 1.1860309 3105443
0.063705936 -0.17653644 1.1845063 3303339
0.071773879 -0.17448846 1.1830238 3303082
0.080188163 -0.17262131 1.1807752 3237545
0.086182646 -0.16980115 1.1800823 3303850
-0.066217937 -0.15596151 1.1824636 3302822
-0.059685729 -0.16042283 1.1846437 3040165
-0.052633107 -0.16437858 1.1863111 3040167
0.075263977 -0.16778208 1.1842451 3303598
0.081414096 -0.16395745 1.1831716 3238061
0.089997418 -0.16213958 1.1810682 3303596
0.097731665 -0.15994811 1.1798122 3369131
-0.075715423 -0.14517212 1.1825305 3171751
-0.069365911 -0.14896317 1.1838697 3368615
-0.06251996 -0.15278807 1.1863776 3171751
0.099744074 -0.15341136 1.1812258 3369134
-0.077502817 -0.13806874 1.1825014 3369130
-0.071389571 -0.14016616 1.185419 3434922
0.10115054 -0.14376679 1.1826713 3435183
-0.07897795 -0.1294166 1.1837879 3434923
0.10409173 -0.13674647 1.1827178 3501232
0.11092193 -0.13380004 1.18197 3435694
0.11765467 -0.13225508 1.1792583 3501232
-0.086907245 -0.11806111 1.1834911 3369646
-0.081263483 -0.12195218 1.1850976 3435182
0.1149149 -0.12466042 1.1832415 3567282
0.1189968 -0.12425312 1.1809891 3567027
-0.094974652 -0.10514709 1.1825168 3501231
-0.090450853 -0.10917563 1.1852263 3435439
0.11512466 -0.11673681 1.1831728 3829686
0.12027206 -0.11407549 1.1812887 3829431
-0.094885066 -0.10176268 1.1824876 3501231
-0.090387501 -0.098626606 1.1840551 3567024
0.12283393 -0.10475664 1.1816146 3830201
-0.09451177 -0.087661013 1.1823655 3632818
-0.091270134 -0.08845067 1.1843193 3698612
0.12522042 -0.094211765 1.1808221 3896507
-0.094257928 -0.078071877 1.1822826 3633333
-0.090374202 -0.078346863 1.1850216 3764919
0.12531799 -0.084006883 1.1802366 4093886
-0.094476208 -0.069260418 1.1822137 3633334
-0.090363182 -0.068408355 1.1853398 3830201
0.12258217 -0.074299917 1.1809239 4291523
-0.089692503 -0.058134023 1.1837108 3896506
0.12236001 -0.063811406 1.1802191 4619975
-0.086160362 -0.048673496 1.1836228 4028348
0.11683261 -0.052216124 1.1826146 5146320
0.12118389 -0.054562226 1.1815624 4883148
-0.084217623 -0.039319333 1.1820854 3962814
-0.079161286 -0.038072165 1.1845642 3963072
0.11604997 -0.043378104 1.1810545 5146577
0.11973581 -0.045116398 1.1790081 5080527
-0.082607917 -0.030289523 1.181699 4028607
-0.076350972 -0.028690219 1.1837171 4291526
-0.02637079 -0.028015979 1.1847602 5147865
-0.018894698 -0.027988382 1.1846377 5344731
-0.002572339 -0.027516544 1.1843665 5345501
0.0042186584 -0.027697265 1.1842568 5739743
0.014312848 -0.030209877 1.1827786 5936862
0.02336894 -0.030456245 1.1829658 5871068
0.033616342 -0.02961231 1.1837913 5739228
0.051755629 -0.028962284 1.183489 5213656
0.11440784 -0.034450497 1.180908 4949970
-0.074411951 -0.021306865 1.181491 4422856
-0.065827765 -0.016755566 1.1831316 4686797
-0.055429824 -0.015902117 1.1831361 4884690
-0.04505194 -0.017604098 1.1844804 4950486
-0.03463516 -0.01864782 1.183485 5213659
-0.026131146 -0.020062201 1.1814904 5279707
-0.015998665 -0.021466069 1.1817361 5345244
-0.0057965759 -0.020105511 1.1814691 5411808
0.0040253792 -0.021482795 1.1811175 5806052
0.013259636 -0.024862923 1.1800848 6068964
0.025281949 -0.02555915 1.1798937 6068963
0.035392269 -0.023438722 1.180634 6003173
0.043904833 -0.021938629 1.1813594 5608417
0.054109961 -0.022214301 1.1817946 5411038
0.060990077 -0.022411592 1.1832839 5279709
0.10569213 -0.021851823 1.1816242 5212630
0.11121194 -0.025605693 1.1798208 5015248
-0.062009454 -0.011194319 1.1812049 4949712
-0.055241302 -0.011374429 1.1810955 4949713
-0.045089081 -0.011644594 1.1809316 5016279
-0.035698827 -0.012270786 1.1807829 5213659
-0.027070537 -0.013253011 1.1806498 5345501
0.045702007 -0.014625117 1.1794696 5871590
0.054177128 -0.014286198 1.179328 5871847
0.064521253 -0.012310795 1.1811427 5543139
0.071837865 -0.01137355 1.181301 5280225
0.096376538 -0.012025878 1.1826191 5411294
0.10215635 -0.013615668 1.1799917 5279196
0.07414154 -0.0063505098 1.1789359 5411556
0.083774559 -0.0049134567 1.1787664 5412066
0.095054805 -0.0052136406 1.1785842 5477344
0.10176323 -0.0076500252 1.1784943 5213404
0.00081948377 -0.18716717 1.189624 3105189
-0.019301303 -0.17815475 1.1908795 3039906
-0.009654412 -0.18054296 1.1911699 3039908
-0.00012393855 -0.18194152 1.1929303 3105447
0.010458505 -0.18146849 1.1901695 3105702
0.01955869 -0.18046767 1.1892622 3171750
0.028551508 -0.18029369 1.1891135 3237289
0.040060349 -0.17874016 1.1889123 3237548
0.050281111 -0.17901215 1.1887472 3171752
0.059366237 -0.17925391 1.1886004 3171752
-0.046653099 -0.16597635 1.190227 3039909
-0.03881206 -0.1669088 1.1909953 3105701
-0.030702531 -0.16976094 1.1925428 3105443
-0.021226697 -0.175396 1.1938888 3040163
0.0095625333 -0.17530304 1.1933839 3105960
0.02098651 -0.17449202 1.1931902 3105958
0.030106908 -0.17322972 1.1922305 3237545
0.040510364 -0.17245471 1.1909589 3237547
0.050548702 -0.17241322 1.1902888 3237544
0.060615506 -0.17245306 1.1902086 3237545
0.069299906 -0.17070414 1.1890342 3303339
-0.057646409 -0.15625042 1.190327 3172009
-0.049272187 -0.1596178 1.192618 3105961
-0.039973088 -0.16206807 1.1940862 3171752
0.044023499 -0.16572878 1.192741 3303337
0.050860189 -0.16591071 1.1926306 3303593
0.060978301 -0.16520251 1.1924591 3303594
0.070230186 -0.16284394 1.191038 3303596
0.077044114 -0.16153952 1.1881653 3238062
-0.06480258 -0.14753586 1.1903726 3434409
-0.059064172 -0.14942767 1.1931182 3237547
-0.050772443 -0.15200986 1.1941803 3237805
0.071405292 -0.15556066 1.1922091 3238318
0.080757223 -0.15288532 1.1909139 3238572
0.090854868 -0.15295403 1.1890688 3434926
0.097348839 -0.15253285 1.1877589 3369134
-0.066883244 -0.13843483 1.1915629 3435179
-0.060957566 -0.1405835 1.1938087 3369388
0.085586615 -0.14630832 1.191901 3500977
0.091283076 -0.14292839 1.1907797 3435186
0.096688859 -0.1431198 1.1876923 3500720
-0.075114362 -0.12747177 1.1913767 3566511
-0.069463506 -0.13048771 1.1929759 3566767
-0.062300295 -0.13324995 1.1942148 3500977
0.09295658 -0.13533309 1.19119 3501234
0.10086153 -0.13312468 1.1882919 3501490
-0.084372222 -0.11405513 1.1904178 3566770
-0.077693738 -0.11879524 1.1929479 3632306
-0.071174562 -0.12389091 1.1942832 3632563
0.10292183 -0.12449659 1.1900258 3699127
0.11036151 -0.12342532 1.1877773 3633076
-0.085415967 -0.10842837 1.1913888 3566770
-0.07938835 -0.10946169 1.1942991 3763892
0.10407761 -0.11544046 1.1913445 3633335
0.11076976 -0.11344457 1.1887736 3764407
-0.085251503 -0.09833359 1.1931034 3698868
-0.080905966 -0.09905085 1.1942384 3699126
0.10496409 -0.10349026 1.1912317 3962811
0.11147932 -0.10376218 1.1899605 3830969
0.11914891 -0.10420886 1.1870048 3830714
-0.086191826 -0.088365555 1.1911597 3699126
-0.080894396 -0.089041322 1.1941559 3830712
0.11245032 -0.093839556 1.1904297 4028606
0.12055086 -0.094179571 1.1868993 3962300
-0.085349753 -0.07889349 1.191745 3830970
-0.080402993 -0.078682549 1.1940627 3962813
0.11297144 -0.08478678 1.1909468 4291522
0.12080098 -0.084613763 1.1871803 4094399
-0.085382812 -0.068819366 1.1917771 3962044
-0.080478601 -0.069231823 1.1939863 4093630
0.11483465 -0.074090615 1.1905618 4554438
0.11959755 -0.074995205 1.1867573 4357059
-0.084499769 -0.058799226 1.1912993 4093886
-0.079860009 -0.058170494 1.1938852 4291009
0.11327177 -0.06350641 1.189878 4686026
0.11924496 -0.063782692 1.1866709 4685769
-0.082718648 -0.051588878 1.1898773 4159935
-0.077607073 -0.049230821 1.1926318 4225985
0.10629139 -0.053349704 1.1907978 5015248
0.11229847 -0.054807432 1.1880444 5014991
-0.074344695 -0.039502617 1.1917589 4292037
-0.069002621 -0.04184274 1.1935732 4619977
-0.046032667 -0.035611838 1.193146 5279449
-0.03805653 -0.03582409 1.1930171 5016538
-0.025552768 -0.037297189 1.1928245 4950743
-0.016079377 -0.039226301 1.1926852 4950488
-0.006982008 -0.039311867 1.1925371 5147351
0.0034880741 -0.03864019 1.19236 5278422
0.013976208 -0.041242268 1.1913208 5212886
0.023327023 -0.040835705 1.1903031 5278423
0.033325635 -0.040259808 1.1906347 5147094
0.044231713 -0.040946241 1.1917119 4885460
0.053742211 -0.039701086 1.1908187 4950741
0.062874436 -0.039422285 1.1913942 5016279
0.10504004 -0.043471884 1.1893369 5212370
0.11235937 -0.044846378 1.186628 5212369
-0.072081313 -0.032594264 1.1915473 4423370
-0.069930978 -0.029458888 1.1910863 4554187
-0.045437694 -0.030605786 1.1928284 5147610
-0.03559297 -0.030153237 1.1909299 5081818
-0.026551381 -0.032669321 1.1908025 5016538
