# .PCD v0.7 - Point Cloud Data file format
VERSION 0.7
FIELDS x y z rgba
SIZE 4 4 4 4
TYPE F F F U
COUNT 1 1 1 1
WIDTH 1131
HEIGHT 1
VIEWPOINT 0 0 0 1 0 0 0
POINTS 1131
DATA ascii
-0.13380657 -0.1149259 1.1017497 2973083
0.15739301 -0.12683357 1.1013075 2121388
-0.1380793 -0.10121147 1.0972311 3301280
-0.13490945 -0.10627954 1.1008984 3039132
0.15845335 -0.1188184 1.099131 2646946
0.17488031 -0.11422744 1.1009789 13817039
-0.13782325 -0.0949196 1.0972021 3366820
-0.13530959 -0.095465824 1.1022103 3105183
0.15731665 -0.10649762 1.1026039 3631271
0.1760174 -0.11216723 1.1009716 13817037
-0.13736807 -0.083734065 1.0971504 3499424
-0.13472807 -0.084844045 1.1009616 3302563
0.15740092 -0.096244439 1.101797 3369127
-0.13430452 -0.075352907 1.1006178 3434147
0.15970227 -0.086741127 1.1027253 2908578
0.16556337 -0.084357679 1.1008177 8233160
-0.13847524 -0.064032644 1.0979123 3365295
-0.13321434 -0.065445527 1.1009196 3499689
0.16088352 -0.077204421 1.1024209 4024485
0.1659057 -0.075945675 1.1007788 11192030
-0.13658629 -0.055213168 1.1000179 2181536
-0.1313598 -0.05527823 1.1012297 3433908
0.16032769 -0.071731322 1.1047469 2708114
-0.134645 -0.047046006 1.1039838 8233201
-0.13086297 -0.04832761 1.1022838 3564980
0.018549038 0.11872987 1.099539 9935247
0.024293901 0.11939891 1.0995485 9934992
-0.12151606 -0.16516066 1.1132611 929696
-0.11735478 -0.16567299 1.1155803 1984411
0.14500105 -0.17207652 1.1161859 13424882
-0.12213387 -0.15557526 1.1109223 2512540
-0.11759935 -0.15764487 1.1142087 2906513
0.14656997 -0.16622365 1.1137173 8955594
0.15228294 -0.1651279 1.1101691 14080986
-0.12871037 -0.14120987 1.1114403 2381461
-0.1258142 -0.1465044 1.113409 2776212
0.14718243 -0.15664524 1.112438 3697834
-0.12891807 -0.13527146 1.1122452 2841752
-0.12697168 -0.13966082 1.1154368 2906774
0.14943729 -0.14680974 1.1128765 2646183
-0.13037837 -0.12463698 1.1132157 2907034
-0.12653796 -0.12900309 1.1153876 2775704
0.15036665 -0.13810061 1.1139376 3696546
0.15260521 -0.13365421 1.1133549 3761571
-0.13100895 -0.1151583 1.1117569 2973083
0.15453206 -0.12763038 1.1126641 3368880
-0.131686 -0.10491652 1.1111628 3039134
0.15530106 -0.11604559 1.1122173 3500454
-0.13143744 -0.094469577 1.1108142 3171232
0.15457129 -0.10756559 1.1131887 3631529
-0.1316362 -0.08568842 1.1100724 3302564
0.15349846 -0.097139783 1.1088516 3697839
0.15389843 -0.097393826 1.1118537 3763633
-0.13130167 -0.075134858 1.1108234 3368355
0.15492226 -0.086172096 1.1115174 3436468
0.16937114 -0.083131172 1.1118205 10992842
-0.1285408 -0.064821146 1.110781 3697068
0.15329774 -0.073133059 1.1157382 3765679
0.15640508 -0.075783692 1.1109393 3830452
0.16919002 -0.078868896 1.1118 11387079
-0.1271224 -0.057106864 1.1085477 3631022
-0.12481643 -0.053990841 1.1080381 3500456
0.15294966 -0.066209979 1.1128159 3830449
0.15964612 -0.066987634 1.1103547 5207985
0.16611218 -0.06824407 1.1144099 10334913
-0.12687553 -0.045073703 1.110563 3434161
0.15245396 -0.057252415 1.1125187 3893939
0.15952487 -0.05802805 1.1117362 8428221
-0.12673113 -0.035024833 1.1140875 6194370
-0.12210162 -0.033105187 1.1149458 4421311
0.15079205 -0.045339782 1.1145109 5734064
0.15693805 -0.049261559 1.1156337 10203587
-0.12049833 -0.026498303 1.1149181 6852289
0.14955352 -0.039372645 1.112371 8955077
0.024579309 0.095437005 1.1146622 9737616
-0.092491798 -0.20306684 1.1241444 7635861
-0.089135714 -0.20368415 1.1268214 8100012
-0.10234483 -0.19272588 1.1267408 10535920
-0.095426656 -0.1956971 1.1244171 5996227
-0.088989727 -0.2000967 1.1268048 6394567
-0.1118798 -0.18133065 1.1186662 8431615
-0.1049915 -0.18404408 1.1214633 1526185
-0.098919593 -0.18666722 1.125577 1262491
0.12475003 -0.1929815 1.1272401 11717846
-0.12008099 -0.17243382 1.1186063 7571711
-0.11319834 -0.1749776 1.120189 1917611
-0.10633668 -0.17776245 1.1239949 2379673
-0.099710561 -0.18097481 1.1266913 2644619
0.12661824 -0.18617868 1.1272122 5010097
0.13404441 -0.18352804 1.124073 10599906
0.14119288 -0.18261135 1.1232272 14081762
-0.11291037 -0.16613916 1.122803 2709143
0.12809134 -0.1756295 1.1271657 2909858
0.13476425 -0.17544314 1.1233612 4026283
0.14235613 -0.17596149 1.1196984 12307424
-0.11925472 -0.1521299 1.1185125 2775446
-0.11505306 -0.1565046 1.1214515 2775442
0.13637635 -0.16654992 1.1241411 3105445
0.14136216 -0.16594404 1.1191491 2578854
-0.1209977 -0.14484367 1.1206282 2775449
-0.11689213 -0.14739767 1.1251621 2906778
0.13910016 -0.1568456 1.1255014 3564451
0.14249942 -0.15602367 1.1215049 3433893
-0.12449737 -0.13601071 1.1217192 2840984
0.14092492 -0.14872196 1.1270671 3565217
0.14480163 -0.14678575 1.1217331 3499430
-0.12881041 -0.1239108 1.1183586 2841497
-0.12591492 -0.12578045 1.1243739 2907290
0.14750291 -0.13625351 1.1240228 3237547
-0.12860909 -0.11444732 1.1199145 2973083
-0.12590745 -0.11501959 1.1243232 3038877
0.15098435 -0.12669559 1.1251673 3827369
0.15370108 -0.12577094 1.118987 3564710
-0.12926361 -0.1044376 1.1211232 3039391
-0.12671162 -0.10643967 1.1249478 3170977
0.15166357 -0.11662725 1.1249396 3565735
0.15404898 -0.11722191 1.1189475 3500198
-0.12906133 -0.096237093 1.1232278 3170977
0.15229914 -0.10763009 1.1242319 3631790
0.15330794 -0.10933891 1.1269088 3434923
-0.12878489 -0.085690767 1.1221788 3302823
0.15242852 -0.096172526 1.1243449 3566513
-0.12834431 -0.07570488 1.1207994 3368614
0.15190059 -0.086886756 1.1243385 3632560
-0.12753053 -0.068019241 1.1220983 3565995
0.1511194 -0.076683953 1.123017 3895728
-0.12398906 -0.053094599 1.1236359 3697842
0.14919077 -0.066646427 1.1214987 4158132
-0.12198797 -0.044870701 1.1223651 3502262
0.14849184 -0.055935159 1.1226468 4027837
-0.11895625 -0.035474278 1.1217417 3698611
0.14409706 -0.044282828 1.1265823 4619197
0.14978442 -0.047642112 1.1210721 4946612
-0.12493999 -0.028802924 1.1179193 7180220
-0.11725217 -0.026081719 1.1251235 4815032
0.14427707 -0.037806034 1.1258855 5209534
0.14908543 -0.036281444 1.1185554 8425655
0.02552617 0.091382399 1.1176834 9474444
-0.066037014 -0.21446466 1.1339229 8300241
-0.083896972 -0.20555308 1.1302054 7642055
-0.076441363 -0.20650449 1.1323626 4815810
-0.06983117 -0.21021944 1.1338946 5210825
-0.092543572 -0.19327949 1.129765 932767
-0.08572305 -0.19699603 1.1314816 2382238
-0.077240318 -0.20037271 1.133832 2251168
0.10626474 -0.20458435 1.1342542 6518691
0.11214241 -0.20380312 1.1328349 11319227
-0.093999848 -0.18646453 1.1315963 2447513
-0.088755712 -0.19014195 1.1337585 2513045
0.11431867 -0.1956607 1.1331773 4617903
0.12136305 -0.19597718 1.1302468 10929103
-0.1030001 -0.17506418 1.1311109 2971544
-0.097246945 -0.17906404 1.1316878 2774929
0.11676782 -0.18648773 1.1325253 2909086
0.12171371 -0.18575037 1.1301994 3105187
-0.10998917 -0.16158444 1.1295775 2709911
-0.10558225 -0.16681674 1.1319648 2644371
0.12362886 -0.17600179 1.1307731 3368356
-0.11205333 -0.15487161 1.1313596 2775444
-0.10725716 -0.15918982 1.1322389 2709910
0.12844416 -0.16631877 1.1317227 3368613
0.13277161 -0.16353446 1.1301191 3499683
-0.11491516 -0.14617947 1.1309942 2841497
0.13053985 -0.15893009 1.1340925 3237027
0.13538146 -0.15642765 1.1314247 3302821
-0.12036806 -0.13436162 1.129998 2645144
-0.11696151 -0.13621622 1.1325538 2775964
0.1389008 -0.14662451 1.1322347 3237542
0.14313322 -0.14321801 1.1313795 3106215
-0.12185773 -0.12589107 1.1308379 2907291
0.14066051 -0.13713369 1.1326787 3499683
0.14384386 -0.13528794 1.1311532 3303338
-0.1224409 -0.11592899 1.1317352 3039134
0.14580201 -0.12686807 1.1313868 3499947
-0.12699778 -0.10144397 1.129257 3236770
-0.12502198 -0.10580261 1.1326152 3236770
0.14795856 -0.11643782 1.1317488 3500458
-0.1267343 -0.094969392 1.1292272 3237027
-0.1250335 -0.095382303 1.1332328 3302821
0.15075125 -0.1059918 1.1321733 3632048
-0.12633908 -0.08525753 1.1291822 3302824
-0.12465891 -0.08617764 1.1331903 3302569
0.14938655 -0.097040437 1.1320242 3632047
-0.12640186 -0.07617557 1.1291393 3434408
-0.12353961 -0.073904142 1.133135 3434665
0.14644645 -0.085866556 1.1316016 4026292
-0.12554863 -0.065833814 1.1290926 3631531
-0.12379956 -0.065061063 1.1330928 3631531
0.1468807 -0.077905722 1.1301912 4157366
-0.12528515 -0.059359249 1.1290627 4025255
-0.121934 -0.054358121 1.1313322 3632304
0.14682479 -0.066106245 1.1296911 4289211
-0.11810933 -0.045516904 1.1307274 3568048
0.14410761 -0.055215567 1.1303005 4094399
0.14625576 -0.059687689 1.1316596 4224702
-0.11655198 -0.039538078 1.1289884 3764911
-0.11294438 -0.035355017 1.1314766 3895729
0.14189368 -0.046693627 1.1310434 4487616
-0.11703566 -0.021384045 1.1319019 6458567
-0.11225601 -0.02535712 1.1313311 3895996
0.14227453 -0.035667554 1.1299378 5735616
0.14926521 -0.032698184 1.1295391 9477559
-0.11649005 -0.018716574 1.1328906 6852289
-0.11324133 -0.01884874 1.1328983 5933254
0.057484578 0.075881362 1.1288266 9474701
-0.029754426 -0.22634508 1.1460587 7248329
0.0030033691 -0.22927441 1.1453443 5801654
0.011066919 -0.2284746 1.1448249 5210039
0.023823202 -0.22962095 1.1461916 6328255
0.031483509 -0.22993261 1.1462098 7379645
0.043039717 -0.23028098 1.1462368 8430007
0.051065534 -0.22885096 1.1422476 8625323
-0.067281708 -0.21672289 1.1379309 9678537
-0.056479394 -0.21713403 1.144483 4422071
-0.04717974 -0.2181824 1.145982 2778029
-0.03749837 -0.22039272 1.1460136 2513574
-0.030000445 -0.22341202 1.1460443 2315684
-0.00011845399 -0.22535849 1.146119 2120102
0.011919172 -0.22584823 1.1461477 2185635
0.025095664 -0.22528818 1.146174 2186146
0.030522775 -0.2266051 1.1461921 2316696
0.045932464 -0.22503975 1.1462184 4486314
0.053507268 -0.22496191 1.1442347 5997746
0.064766057 -0.22245397 1.1451046 6063288
0.073486663 -0.2213378 1.1462615 6589614
0.081575781 -0.22188611 1.1462818 8757678
-0.072228827 -0.20454805 1.1378627 1855898
-0.065621801 -0.2073127 1.1411284 2249885
-0.058047302 -0.20991424 1.1451919 2381985
-0.05001229 -0.21236728 1.1459484 3039902
0.067694962 -0.21551189 1.1462213 2841504
0.073736042 -0.2152096 1.1462332 3302564
0.083389409 -0.21335112 1.1449122 4420011
0.093228154 -0.2129378 1.1405509 6984117
0.10277683 -0.21057948 1.1382749 6254993
-0.082940623 -0.19357996 1.1385876 2710418
-0.075361088 -0.19713849 1.142202 2775447
-0.068739735 -0.19962597 1.1450473 2906776
0.086154446 -0.20555982 1.1458149 3171492
0.094720639 -0.20454642 1.1430289 3237285
0.10310967 -0.20369197 1.1388147 3629215
-0.085552074 -0.18650061 1.1425486 2775191
-0.077569477 -0.19030833 1.1451174 2906012
0.097047657 -0.19542116 1.1445243 3040421
0.10406201 -0.1940378 1.1411473 3105703
0.10996048 -0.19454412 1.1382152 2777257
-0.10028771 -0.1718398 1.1376472 2710677
-0.093692176 -0.17597981 1.1412106 2709909
-0.087631553 -0.17982644 1.1437126 2709910
0.10554581 -0.18569544 1.1446902 3368100
0.11320675 -0.18419087 1.1403068 3302561
-0.10125577 -0.16523635 1.1407251 2710421
-0.096599355 -0.16826138 1.1448386 2644886
0.10791464 -0.17801626 1.1461329 3040936
0.11608193 -0.1752567 1.1440508 3237031
0.12260616 -0.17263216 1.1411397 3368615
-0.11035884 -0.15183693 1.1375309 2776209
-0.10512386 -0.15651305 1.1423144 2841240
0.11845354 -0.16685039 1.1461035 3237287
0.12500685 -0.16491242 1.1409658 3302822
-0.11109811 -0.14512804 1.1420311 2710683
-0.10654614 -0.14859542 1.1448574 2841499
0.12760454 -0.15658212 1.143487 3237541
0.13269159 -0.15408948 1.1396745 3237798
-0.11287868 -0.13649006 1.142596 2907293
0.12963891 -0.14787954 1.1460388 3237797
0.1344834 -0.14555433 1.1410383 3303334
-0.11869736 -0.12456485 1.138527 2907805
-0.11657999 -0.12626059 1.1445969 2907805
0.13669765 -0.13626173 1.1435549 3434407
-0.11882094 -0.11523785 1.1400067 3039392
-0.11626405 -0.11650065 1.1453516 3039391
0.13902934 -0.12677661 1.1433885 3500202
0.14330731 -0.12405933 1.1379564 3631274
-0.12159947 -0.10594104 1.1418235 3170979
0.14139266 -0.11658709 1.1454726 3631791
0.14481822 -0.11618379 1.1397004 3566510
-0.12158503 -0.09557768 1.1429558 3105957
0.14102556 -0.10545455 1.1441972 3632305
0.14622886 -0.10679168 1.1382148 3501227
-0.12155353 -0.085555479 1.1406229 3237546
0.14093921 -0.096376427 1.1432755 3698099
0.14554851 -0.09696725 1.1382338 3698094
-0.12053502 -0.075839557 1.1408175 3434923
0.14255048 -0.087157905 1.1437811 3895479
0.14472248 -0.089284673 1.1377958 3895477
-0.11973248 -0.065403394 1.1413891 3566256
0.14326583 -0.075868919 1.1450628 4027579
0.14578846 -0.075410604 1.1417328 4157882
-0.11837454 -0.056544885 1.1405941 3567024
0.14161664 -0.066258505 1.1445042 4159422
0.14594637 -0.066601984 1.1400917 4289724
-0.11565691 -0.046820503 1.1383581 3567791
-0.11248903 -0.044989198 1.1436899 3764403
0.14031968 -0.056166817 1.1429635 4356797
-0.1103723 -0.036160577 1.1375576 3830196
0.13805085 -0.046488136 1.1419797 4619718
-0.10846231 -0.025317006 1.1398485 3896507
0.1344458 -0.034436643 1.142404 4817095
0.13895334 -0.035212632 1.1391952 4948420
-0.11569384 -0.015836522 1.1408788 6916535
-0.10823165 -0.016672261 1.1405915 5210049
0.13385518 -0.028006308 1.1444834 5013440
0.1383345 -0.027781844 1.1421589 5998788
0.036634021 0.050066322 1.1397598 5859448
0.044832267 0.049801663 1.1379218 6122362
0.050386302 0.049718216 1.1409343 6319482
0.061532199 0.050550953 1.144955 5330522
0.037399661 0.054479018 1.1382169 5792108
0.04525448 0.055002868 1.1376983 5527648
0.050563816 0.054080278 1.1409142 5067354
-0.024020433 -0.22653697 1.1490721 4354997
-0.016713105 -0.22785336 1.1510943 4684224
-0.0068084169 -0.22796848 1.1496499 4289976
0.0042566685 -0.2261174 1.1491321 2054307
0.014657595 -0.22709006 1.1491594 2777510
0.020098869 -0.22841042 1.1491777 4026798
0.036556631 -0.22907999 1.1492169 5604271
0.040463753 -0.22759046 1.1492184 4881326
-0.042565066 -0.21542057 1.1489791 3039902
-0.034660317 -0.21665846 1.1495023 2710943
-0.026282106 -0.21889699 1.1523355 2645152
-0.016535513 -0.22213849 1.1557345 2514339
-0.0065968521 -0.22244161 1.1552244 2514851
0.0034184502 -0.22034845 1.1537032 2842787
0.013318132 -0.22033732 1.1515248 2908579
0.022996813 -0.22033355 1.1520349 3039651
0.033151902 -0.22144522 1.1531736 2908578
0.042530607 -0.22095533 1.1529418 2778020
0.052627243 -0.21971396 1.1506367 2646433
0.062089536 -0.22279216 1.1492432 5012145
0.073557876 -0.22454087 1.1492766 8955830
-0.055244252 -0.20647722 1.1491948 2841242
-0.045497891 -0.20893878 1.1512755 2775960
-0.036552545 -0.2105701 1.1532362 2841500
-0.027248789 -0.21310532 1.1570019 2907551
0.0044520348 -0.2136573 1.157074 3105184
0.013673663 -0.21366361 1.1570942 3170722
0.023616839 -0.21406813 1.157118 3302053
0.033766624 -0.21392778 1.1571395 3170723
0.044299662 -0.2134341 1.1571603 3105188
0.053660326 -0.2130287 1.1554646 3170467
0.063276544 -0.21322806 1.1516008 3236258
0.073558256 -0.21021034 1.1496537 3171236
-0.071385354 -0.19446617 1.1488172 2906776
-0.064953335 -0.19696075 1.1499859 2907033
-0.056558244 -0.19827114 1.1537011 2841497
-0.047482025 -0.20269147 1.1569084 2775704
0.054865871 -0.20759314 1.157156 3105443
0.063704252 -0.20795271 1.1571771 3105443
0.074644372 -0.20468274 1.1559225 3105956
0.083128758 -0.20217097 1.1523924 3105956
-0.0819107 -0.18304804 1.1487403 2644884
-0.074998721 -0.18688673 1.1517736 2775705
-0.066756882 -0.19008461 1.1544734 2841497
0.0785162 -0.19748916 1.1571603 3172006
0.086267009 -0.19542494 1.1561675 3040421
0.092226513 -0.19332713 1.1536707 2974628
-0.090330973 -0.17391354 1.1486789 2645144
-0.083772086 -0.17593601 1.1517617 2710425
-0.078587078 -0.17886369 1.1532995 2776216
0.096042126 -0.18483426 1.1538891 3171493
0.10111482 -0.18282272 1.1507407 3237026
-0.093047023 -0.16576697 1.1512228 2710424
-0.086781189 -0.16821483 1.1552054 2710937
0.099211819 -0.17841204 1.1571158 3302823
0.10571115 -0.17460239 1.1539543 3172005
0.11163197 -0.17170388 1.1531115 3172006
-0.10124546 -0.15405397 1.1485614 2841498
-0.096967332 -0.15672791 1.1535065 2907290
0.1084998 -0.16772375 1.1570859 3303592
0.11488353 -0.16460462 1.1557518 3237544
0.12122142 -0.16054052 1.1490798 3303337
-0.10266909 -0.14552364 1.1502324 2973342
-0.098222554 -0.14880057 1.1565434 3038879
0.11882659 -0.15699181 1.1563913 3237544
0.12331712 -0.15416357 1.1518544 3303336
-0.11021716 -0.13365722 1.1494458 2973342
-0.10429515 -0.13704459 1.1539748 2973600
0.12709218 -0.14517853 1.1530204 3368872
-0.11147747 -0.12573025 1.1507586 3039392
-0.10609891 -0.126743 1.1564223 3236259
0.12877208 -0.13579084 1.15473 3500460
0.1333095 -0.1335575 1.1489793 3434923
-0.11218582 -0.11604808 1.1512474 3170978
0.13017415 -0.12690718 1.1556078 3500719
0.134974 -0.12461534 1.1522743 3500718
-0.11828385 -0.10463881 1.1482913 3237029
-0.11454311 -0.10613488 1.1543068 3237286
0.13566563 -0.11576643 1.1550061 3697329
-0.11792666 -0.095861405 1.1482508 3237543
-0.1153685 -0.095495246 1.1557548 3172263
0.13725451 -0.1067145 1.1544616 3697843
-0.11784399 -0.086205907 1.1512057 3303340
-0.11573786 -0.085195236 1.1562055 3303852
0.1374528 -0.096266389 1.1548129 3764149
-0.1175036 -0.076463088 1.1481605 3500716
-0.11475024 -0.075170465 1.1561605 3501229
0.14081934 -0.08596462 1.1533432 3764661
-0.11681043 -0.068432018 1.1481241 3566512
-0.11351225 -0.065121174 1.1524794 3632306
0.13825542 -0.075643897 1.1531881 3896764
-0.11251982 -0.055532917 1.1524365 3698357
0.1326789 -0.065358147 1.1553235 4291265
0.13647413 -0.066707827 1.1498144 4225217
-0.11054301 -0.046599809 1.1520351 3764408
0.13385272 -0.055797976 1.1546144 4554434
0.13647962 -0.055658054 1.1486194 4488640
-0.1071559 -0.036012836 1.1527927 3895997
-0.10291507 -0.032968163 1.1559877 4027323
0.13390261 -0.044997942 1.1535637 4817354
-0.10521875 -0.026565887 1.1492858 3962044
-0.10120945 -0.025495656 1.1551563 4093118
0.12507777 -0.032284282 1.1564845 5014224
0.13036487 -0.035252325 1.15251 4751563
-0.10369541 -0.016213983 1.147907 4290235
-0.098822415 -0.016263001 1.1524514 4158908
-0.092560872 -0.014208049 1.1559221 4028609
0.12370533 -0.025192477 1.1546704 4817874
0.13040698 -0.025204107 1.1494627 5145287
-0.09616527 -0.0097275227 1.150293 4487616
-0.090690374 -0.0072652176 1.1545602 4356800
0.11536785 -0.012329184 1.1543692 5276623
0.12158987 -0.015613891 1.150684 5604813
0.13093975 -0.017219067 1.1493152 6720449
-0.088308737 -0.00036389381 1.1558663 5671109
0.11373325 -0.0066860914 1.1557677 5802961
0.12007324 -0.0077325031 1.1516912 6787017
0.038357496 0.012188695 1.1560849 12972031
-0.016442532 0.024330355 1.1539075 5869264
0.015779795 0.019378074 1.1560016 7515376
0.023252878 0.018705152 1.1560211 8764660
0.032834359 0.017872714 1.156046 10146554
0.039421175 0.016571879 1.1560665 10870005
-0.073771775 0.034953862 1.1477317 8028800
-0.068636693 0.035111293 1.1477422 7305855
-0.012013575 0.025304161 1.1559126 5671370
-0.0086991843 0.025169313 1.1559206 5869265
0.014501557 0.024225421 1.1559759 6988787
0.018920746 0.024045624 1.1559864 7185904
0.1054546 0.029378012 1.1561511 6314850
-0.067214198 0.040059924 1.147722 8028802
0.10250504 0.033039197 1.1561275 6117979
0.079011105 0.044490278 1.1480218 5593178
0.08120548 0.044401005 1.1480271 5658970
-0.021907456 -0.21627229 1.1610286 2973083
-0.016409548 -0.2176064 1.161047 2973595
-0.0069722869 -0.21755661 1.1617341 2973598
-0.04141118 -0.20437452 1.1609298 2842012
-0.035093099 -0.20601961 1.1609514 2776219
-0.025863722 -0.20887056 1.1625088 2907806
-0.016336244 -0.21063106 1.1641722 2907807
-0.0058089532 -0.21159956 1.1643752 2973599
0.0031652832 -0.20963573 1.161719 3039136
0.01393898 -0.20908001 1.1624067 3170723
0.023915749 -0.20936953 1.1617633 3236770
0.033726968 -0.20931064 1.1611178 3170979
0.04277502 -0.20946521 1.1611384 3170980
0.049494315 -0.20807292 1.1611465 3171236
-0.052136295 -0.19505472 1.1608624 2842012
-0.045527998 -0.19758433 1.1623434 2842011
-0.036015693 -0.20022745 1.1633836 2842012
-0.027796723 -0.20200542 1.1649485 2907805
0.018589802 -0.2052854 1.1650656 3302309
0.024646599 -0.20437942 1.1639318 3302308
0.033301029 -0.20461658 1.1625948 3171236
0.044041529 -0.20563021 1.1611232 3171236
0.054711096 -0.20468199 1.1628088 3105443
0.06460534 -0.20316321 1.1621566 3171492
0.071228079 -0.20155427 1.1611636 3040420
-0.072748624 -0.18311185 1.160761 2841497
-0.064092554 -0.18621302 1.1613278 2907291
-0.055771746 -0.18919823 1.1627092 2907549
-0.049155131 -0.190644 1.1648482 2907551
0.067988522 -0.1961527 1.165131 3040420
0.075078592 -0.1946069 1.1632445 3106213
0.083003737 -0.19233559 1.1611459 3106214
-0.073991574 -0.17655994 1.1627274 2907290
-0.067530259 -0.17969763 1.1642563 2973340
0.079474777 -0.18770608 1.1651164 3302823
0.085617721 -0.18558019 1.1627198 3237030
0.091890864 -0.18242499 1.1628965 3237031
-0.090782829 -0.16239041 1.1606239 2841497
-0.082535125 -0.16620608 1.1611933 2842012
-0.076516479 -0.16867757 1.1636847 2907547
0.097386375 -0.17496169 1.1620188 3368361
0.10260084 -0.17192367 1.1610929 3237285
-0.092020355 -0.15641776 1.160593 2973085
-0.085260205 -0.15690516 1.163347 3039135
0.099987224 -0.16793084 1.1610683 3368615
0.1066403 -0.16486503 1.1617957 3237799
0.11134394 -0.16173029 1.161064 3303337
-0.098884717 -0.14318347 1.1605157 2973857
-0.093607068 -0.14692393 1.1621004 3039137
-0.08771988 -0.14803378 1.1645629 3104930
0.10892995 -0.1574461 1.1630385 3172264
0.11526827 -0.15481719 1.1617067 3238059
-0.099743821 -0.13493483 1.1614749 3039650
-0.09591876 -0.13867486 1.164501 3105700
0.11889736 -0.1452063 1.1631566 3369132
0.12310668 -0.1455524 1.1610136 3434410
-0.10215124 -0.12626338 1.1621431 3171236
0.12111551 -0.13716277 1.1641698 3500719
0.12458136 -0.13500331 1.1629672 3435183
-0.10879778 -0.11390899 1.160356 3302823
-0.10423668 -0.11606347 1.1630429 3171495
0.12575369 -0.12494604 1.1627406 3566514
-0.11019523 -0.10520296 1.1617665 3368873
-0.10657055 -0.10651987 1.1635262 3368875
0.1288432 -0.11587571 1.1616864 3697588
-0.11073259 -0.096101753 1.1629347 3303850
0.13079417 -0.1063353 1.1642745 3763892
0.13405208 -0.10580014 1.1608504 3698099
-0.11165789 -0.085854955 1.1618177 3435181
-0.10583229 -0.086570673 1.1642338 3435438
0.13222343 -0.096255735 1.1648015 3829942
0.13509646 -0.095836535 1.1619487 3764149
-0.11023019 -0.076229833 1.1621755 3501229
0.13276665 -0.082906932 1.1647398 3896505
0.13704661 -0.085976087 1.1625818 3830455
-0.10923044 -0.066403419 1.1616699 3632563
-0.10488164 -0.063210264 1.1641259 3567542
0.13070601 -0.075670481 1.1621298 4027837
0.13579097 -0.07944265 1.1607301 3896505
-0.1080626 -0.05638494 1.1614201 3829940
-0.10461003 -0.056535851 1.164095 3699127
0.12959382 -0.065997928 1.1633199 4291009
-0.10723083 -0.046271715 1.160841 3895737
-0.10352812 -0.045596622 1.1640459 4027576
0.13029942 -0.055982471 1.1626077 4422849
-0.10577513 -0.039633162 1.160013 4158911
-0.10114501 -0.03611004 1.1620065 4093372
0.1306406 -0.046246178 1.1620625 4817355
-0.097016394 -0.026873246 1.1615106 4093630
-0.092127845 -0.023616403 1.1639675 4094397
0.12362931 -0.035200853 1.1627173 5080014
0.1280145 -0.038595591 1.1605208 4883149
-0.094586022 -0.019360356 1.159942 4028348
-0.089983173 -0.01698114 1.161441 4028864
0.11953384 -0.025384597 1.1622177 4949202
-0.086033963 -0.007539615 1.1617233 4029123
-0.081732467 -0.0054686293 1.1639048 3963586
0.11385278 -0.015276328 1.1630466 5146069
0.11711857 -0.019830205 1.1604085 5080276
-0.08490514 0.000233531 1.159871 5342665
-0.077709876 0.0021102801 1.163878 4882633
-0.014149297 0.00329566 1.1640117 6070261
-0.007474836 0.0030241162 1.1640277 6528744
-0.00080037583 0.0027525723 1.1640435 8827627
0.014773362 0.0021189675 1.1640807 10340848
0.023487858 0.0011277199 1.1641045 8895736
0.030960223 0.00012333691 1.1641256 6266608
0.10532488 -0.0021267682 1.1632993 5475287
0.10966384 -0.0058318153 1.1616596 5475028
-0.07399144 0.0079457164 1.1618587 5999306
-0.067290902 0.0087835342 1.1618694 5540557
-0.058592364 0.011764213 1.1612078 5803727
-0.045819934 0.013002872 1.1638966 4950220
-0.036910217 0.011514917 1.1639231 5016280
-0.027216364 0.010507062 1.1635492 5411294
-0.017172942 0.010076396 1.1617332 5806569
-0.0071952417 0.009690851 1.1633968 7120874
0.0024148738 0.010050051 1.1640162 12379901
0.012985362 0.0090836138 1.1615177 13891069
0.022785038 0.0084429607 1.1608685 12969723
0.032739967 0.0082792789 1.1617754 9946095
0.042793594 0.0076403543 1.1622031 10013177
0.052599423 0.0091224313 1.1619768 7449069
0.059321471 0.010706171 1.164138 5411552
0.10257777 0.001870282 1.1617744 6526426
-0.043641131 0.017866418 1.1638784 6264275
-0.036014277 0.018348813 1.1613929 5803990
-0.026415613 0.018581957 1.1599128 5345755
-0.016365139 0.019435897 1.1599309 5412839
-0.0067592878 0.01964099 1.1604509 5676266
0.0022286102 0.018364131 1.1628338 7253489
0.012050075 0.017774314 1.1610011 8436213
0.021933258 0.015134357 1.1600351 12051453
0.036525559 0.01898241 1.160049 10082302
0.044329617 0.017924622 1.1600711 10607102
0.052773423 0.016735055 1.1600952 7515119
0.059778616 0.015842006 1.1614481 6068200
-0.0043123122 0.025085568 1.1599307 6001365
0.00012209918 0.02490516 1.1599413 6396124
0.1127691 0.026096478 1.1601827 6447199
-0.012708945 -0.20693883 1.1690049 3039391
-0.0051516555 -0.20666675 1.1705202 3039135
0.0062667327 -0.20771083 1.1690502 3104930
-0.041276328 -0.19459605 1.1688842 2776478
-0.034945514 -0.19574082 1.1709034 2842271
-0.025121827 -0.19777125 1.1731164 2907807
-0.01597864 -0.20000178 1.1736609 2908063
-0.0060047079 -0.20125291 1.174793 2973600
0.004349228 -0.20069301 1.1743463 3105187
0.014286123 -0.20075008 1.1734488 3236773
0.024039669 -0.19980952 1.1727853 3237029
0.034975059 -0.20033981 1.1728785 3171237
0.044585675 -0.20169194 1.1706059 3171236
0.054163519 -0.20052338 1.1700444 3105444
0.063067183 -0.19940019 1.1691356 3171493
-0.053107217 -0.18522221 1.1720141 2841758
-0.045109309 -0.18785325 1.1728441 2907551
-0.036257077 -0.1893079 1.1756939 2842271
-0.025630347 -0.19092453 1.1769013 2908064
-0.018933106 -0.19232267 1.1769226 2973857
0.0024196459 -0.19319139 1.1769735 3105444
0.015321896 -0.1927157 1.1769996 3237030
0.025349179 -0.19354349 1.1762254 3302823
0.035035439 -0.19315606 1.1761218 3171495
0.044448514 -0.19213063 1.1756693 3105703
0.054140907 -0.19278477 1.175485 3105703
0.063964784 -0.19269454 1.173606 3105702
0.072400346 -0.19054411 1.1708287 3105958
-0.064061269 -0.17707919 1.1703988 2973598
-0.056151614 -0.17910327 1.1747787 2907551
-0.046347711 -0.18135765 1.1768109 2908065
0.066077799 -0.18435128 1.1770715 3237288
0.074925721 -0.18400821 1.1746448 3302823
0.08367262 -0.18233332 1.1716719 3237287
-0.073003024 -0.16543192 1.1715344 3105183
-0.0656901 -0.16909146 1.1748283 2974112
-0.057489648 -0.17161748 1.1767405 2842786
0.076686397 -0.17730144 1.1770616 3171750
0.085459217 -0.17405137 1.1757321 3172008
0.093600236 -0.1726456 1.17141 3303081
-0.080723248 -0.15543714 1.1692799 3104930
-0.074608982 -0.15798137 1.1753055 3170978
0.088282339 -0.16580883 1.1770328 3303337
0.096121147 -0.16461703 1.1747944 3368873
0.10311773 -0.16360882 1.1716003 3237543
-0.090033785 -0.14225042 1.1711974 3040164
-0.083471209 -0.1462723 1.1723536 3105701
-0.077285223 -0.1509251 1.1765997 3302822
0.098054774 -0.15565717 1.1770065 3303597
0.10556057 -0.15355317 1.1726493 3238059
0.1127565 -0.15079263 1.1710157 3303852
-0.092218414 -0.13581643 1.1722735 3106213
-0.084551483 -0.13815318 1.1765237 3172007
0.10681962 -0.14450796 1.1767732 3369387
0.11476995 -0.14460935 1.172991 3435181
-0.098944589 -0.12530783 1.1697648 3237030
-0.092413463 -0.12622787 1.1741168 3237800
-0.08618661 -0.12992547 1.1764814 3303594
0.10888267 -0.13853708 1.1769496 3500972
0.11746657 -0.13461927 1.1737 3500976
0.1222751 -0.13193054 1.1689478 3500977
-0.099710591 -0.11600331 1.1714971 3237545
-0.095127262 -0.11783807 1.1755159 3303852
0.11963308 -0.12516612 1.1769103 3566772
0.12294815 -0.12565051 1.1729196 3566515
-0.1018264 -0.10619882 1.1715852 3369389
0.12087697 -0.11567523 1.1768683 3763639
0.12428672 -0.11490005 1.1719831 3763639
-0.10803888 -0.092105955 1.1695886 3435181
-0.10282777 -0.095993638 1.1728565 3435438
0.12196996 -0.10462371 1.1768186 3895737
0.12696692 -0.10473076 1.1716535 3764149
-0.10727796 -0.085649997 1.1706264 3435438
-0.10194529 -0.086480185 1.1747037 3501231
0.12219863 -0.099004611 1.1767927 3961530
0.12774652 -0.095270358 1.1716107 3961528
0.13507254 -0.092201218 1.1687888 3895735
-0.1066219 -0.076414645 1.1711844 3501489
-0.10235471 -0.076352656 1.174076 3501490
0.12293037 -0.081023492 1.1767097 4159679
0.1284571 -0.085950449 1.1720176 3962041
0.1351634 -0.089968815 1.1687784 3895735
-0.10678985 -0.069065012 1.1701494 3501747
-0.10186125 -0.066060454 1.1728128 3567541
0.12244031 -0.074624695 1.1766784 4225473
0.12611923 -0.075295478 1.1726896 4159424
-0.099673457 -0.055994149 1.1717036 3764919
0.12255136 -0.065748848 1.1766369 4422597
0.12652946 -0.065215357 1.1726429 4357059
-0.098783493 -0.046250571 1.1714882 3896505
-0.094040595 -0.046305589 1.1760703 3962298
0.12285842 -0.055129915 1.1765876 4685767
0.12693965 -0.055135235 1.1725965 4422851
-0.09694837 -0.037200168 1.169621 4027836
-0.09187828 -0.035616033 1.1749338 4028094
0.12142036 -0.044478759 1.1744165 4948684
0.12724814 -0.046636116 1.1695571 4751818
-0.094920099 -0.029177547 1.1679877 4093632
-0.089225553 -0.025929578 1.1738311 4094399
0.1150961 -0.03380141 1.1764702 5080784
0.11937253 -0.035065606 1.1716853 5211343
-0.085633174 -0.017633036 1.1723174 4094402
-0.078991309 -0.014824688 1.1749551 4226244
-0.072439656 -0.013413988 1.1759628 4620744
-0.018450126 -0.014484823 1.1760863 5412064
0.0040264539 -0.015399247 1.1761398 6463211
0.011935546 -0.019561596 1.1761768 6397929
0.021641143 -0.019315183 1.1761969 6397929
0.030946083 -0.017780945 1.1762102 6003432
0.11247727 -0.024419747 1.1739202 5081042
0.11756982 -0.027759992 1.168447 5081041
-0.077303566 -0.0070986673 1.169789 4160963
-0.069206886 -0.0064666867 1.1750801 4752075
-0.054046787 -0.004031159 1.175959 4949201
-0.04732668 -0.0048674047 1.1759777 5016022
-0.037797261 -0.0063787773 1.175339 5213659
-0.028010208 -0.0076844469 1.1748025 5411552
-0.018204987 -0.0088639855 1.1752603 5740773
-0.008107001 -0.0092772171 1.1760844 6003172
0.0020073242 -0.0096875131 1.1757085 6331366
0.012103975 -0.010084733 1.1731325 6989552
0.022196643 -0.010497697 1.1735566 6792432
0.032276481 -0.010903254 1.1729306 5937640
0.040789813 -0.010323562 1.1751965 5806054
0.051547412 -0.0094528422 1.1762161 5674725
0.05833612 -0.0086033419 1.176227 5674983
0.10402926 -0.012995109 1.1763479 5146841
0.10997114 -0.015326999 1.1706575 5080789
-0.073556326 0.0012588352 1.1678911 4554184
-0.070085242 0.0019585788 1.1708955 4751049
-0.05484049 0.0016202927 1.1739306 4818129
-0.047401965 0.0013162568 1.1731483 5015507
-0.037861299 0.00092612952 1.1697711 5147609
-0.027758643 0.00051357597 1.1684952 5346018
-0.018147059 -0.00024799258 1.1711309 5937898
-0.0077372547 -0.00141754 1.1713815 6462952
0.0027429303 -0.0010996759 1.1705141 8303605
0.012107345 -0.0015884489 1.169521 8501495
0.021918759 -0.002970174 1.1687359 7252467
0.03323875 -0.0028836504 1.1695994 6069484
0.042422008 -0.0021647662 1.1704774 6135528
0.05250359 -0.0029446706 1.1735992 5741031
0.061889969 -0.0031231865 1.1752089 5543655
0.071411923 -0.0022080541 1.1762255 5477092
0.081522703 -0.0012916774 1.1762434 5739747
0.092875682 -0.0020037219 1.1762717 5280481
0.10198995 -0.0050190017 1.1726135 5015513
0.10739934 -0.0072234273 1.1703279 4949463
-0.066586487 0.0076836124 1.1678762 4818122
-0.057120278 0.008292295 1.1678941 5147606
-0.048408307 0.008683227 1.1679114 4818639
-0.039797295 0.0065937266 1.1679401 5344472
0.0048740748 0.0053353384 1.168044 12971007
0.0093162283 0.0045955777 1.1680572 12905215
0.033872984 0.0035965145 1.1681157 5807584
0.047267582 0.0030515641 1.1681477 6004710
0.053365976 0.0037617907 1.1681577 5807083
0.062246703 0.0058883354 1.1703005 5477863
0.070720516 0.00511951 1.1728561 5542628
0.08239387 0.0016746894 1.1762314 5673698
0.093037084 0.0031951666 1.1747475 5804766
0.09861353 0.00096260756 1.1682701 5147865
0.065581284 0.013487041 1.1681387 5412324
-0.012340473 -0.19549479 1.180952 3039650
-0.0059230644 -0.1964013 1.1809703 3039650
-0.032316688 -0.18677564 1.1808672 2842271
-0.02555088 -0.18705091 1.1808833 2973857
-0.015281273 -0.18855523 1.182176 2973857
-0.0056112278 -0.1906971 1.1834705 3039395
0.0051202029 -0.18920097 1.1827384 3171237
0.014478185 -0.18816559 1.182043 3237030
0.024836758 -0.18803392 1.1825368 3302569
0.033163697 -0.18851495 1.1823523 3237546
-0.051543653 -0.17550525 1.1807719 2908065
-0.044011723 -0.17677982 1.1807945 2973857
-0.03541071 -0.17889042 1.1818233 2973857
-0.025752027 -0.18118092 1.1829728 2973858
-0.017504027 -0.18233758 1.1848787 3105444
0.014176339 -0.18362647 1.1849543 3237030
0.025929295 -0.18259355 1.1849751 3302825
0.034872837 -0.18250331 1.1846867 3171754
0.044704735 -0.1834299 1.1830202 3171752
0.055058416 -0.18343 1.1824547 3171753
0.063616924 -0.18065977 1.1820487 3237546
0.071930543 -0.17859241 1.1810572 3303592
-0.062328018 -0.16560027 1.1807016 2908579
-0.054233626 -0.16809213 1.1827312 2908579
-0.044468779 -0.16995639 1.1836704 3105444
-0.035899196 -0.17206945 1.18479 3105443
0.058670908 -0.17637026 1.1850177 3303339
0.066793114 -0.1744315 1.1836931 3303082
0.075273335 -0.17267594 1.1816081 3237545
0.081318744 -0.16993842 1.1810371 3303850
-0.070890218 -0.15395699 1.1806281 3302822
-0.064463198 -0.15851718 1.1829135 3040165
-0.057499222 -0.16257754 1.184698 3040167
0.070353672 -0.1677791 1.1850028 3303598
0.076575905 -0.16403815 1.1840577 3238061
0.0852217 -0.16233473 1.1821209 3303596
0.093008094 -0.16024855 1.181017 3369131
-0.080234751 -0.14303489 1.1805561 3171751
-0.073965251 -0.14691956 1.1819999 3368615
-0.067221768 -0.15084893 1.1846215 3171751
0.095085405 -0.15374552 1.1824909 3369134
-0.081921309 -0.13590693 1.1805189 3369130
-0.075893693 -0.13809998 1.1835424 3434922
0.096600011 -0.14412655 1.1839967 3435183
-0.083298504 -0.12723911 1.1818084 3434923
0.099638157 -0.13714863 1.1841228 3501232
0.10652185 -0.13429646 1.1835127 3435694
0.11332511 -0.13283779 1.1809325 3501232
-0.091060534 -0.11577192 1.181404 3369646
-0.08550299 -0.11974751 1.1831015 3435182
0.11061841 -0.12521832 1.1848907 3567282
0.11474698 -0.1248613 1.1827163 3567027
-0.098926082 -0.1027422 1.1803254 3501231
-0.094510742 -0.10684305 1.1831044 3435439
0.11094072 -0.11729829 1.1848541 3829686
0.1161593 -0.11470371 1.1830755 3829431
-0.098788418 -0.099359311 1.1803098 3501231
-0.094277292 -0.096292183 1.1819719 3567024
0.11884532 -0.10542307 1.1834823 3830201
-0.098214805 -0.08526399 1.1802447 3632818
-0.095021643 -0.086105727 1.1822556 3698612
0.12139414 -0.094910391 1.1827717 3896507
-0.097824752 -0.075679168 1.1802003 3633333
-0.093997106 -0.076017924 1.1830103 3764919
0.12164598 -0.084706038 1.1822242 4093886
-0.097917877 -0.066865332 1.1801586 3633334
-0.093852386 -0.066081665 1.1833639 3830201
0.11903448 -0.074963726 1.1828948 4291523
-0.093007103 -0.05581253 1.181784 3896506
0.1189729 -0.064470872 1.1822231 4619975
-0.089341357 -0.046402562 1.1817954 4028348
0.1135652 -0.052806646 1.1845562 5146320
0.11790199 -0.055210467 1.1835771 4883148
-0.087238997 -0.037071768 1.1803275 3962814
-0.082212813 -0.035904221 1.1829045 3963072
0.11293609 -0.043953393 1.1830132 5146577
0.11663472 -0.04573682 1.1810297 5080527
-0.085495643 -0.028064355 1.1800032 4028607
-0.079255626 -0.02656015 1.1821431 4291526
-0.02929911 -0.026594847 1.1841196 5147865
-0.021822389 -0.026672378 1.1841363 5344731
-0.0054927897 -0.026430078 1.184171 5345501
0.0012958599 -0.026706271 1.1841872 5739743
0.011379594 -0.029356241 1.1828884 5936862
0.020426255 -0.02973102 1.1832434 5871068
0.030667299 -0.029034518 1.1842625 5739228
0.048816409 -0.0286396 1.1843004 5213656
0.11142259 -0.03500307 1.1828678 4949970
-0.077171817 -0.019197635 1.1799797 4422856
-0.068556674 -0.014773354 1.181796 4686797
-0.058149658 -0.014066778 1.1819973 4884690
-0.047823634 -0.015919462 1.1835287 4950486
-0.037405774 -0.017106831 1.1827238 5213659
-0.028886706 -0.018634558 1.1808829 5279707
-0.018781304 -0.020182095 1.1813124 5345244
-0.0085578971 -0.018964797 1.1812402 5411808
0.0012485851 -0.020479426 1.1810668 5806052
0.010452112 -0.023986146 1.1801944 6068964
0.022464925 -0.024851367 1.1802248 6068963
0.032588452 -0.0228763 1.1811608 6003173
0.04110622 -0.021498881 1.1820499 5608417
0.051296555 -0.021919996 1.1826743 5411038
0.058144204 -0.022219256 1.1842906 5279709
0.10287291 -0.022285052 1.183466 5212630
0.10837214 -0.026110515 1.1817524 5015248
-0.064625278 -0.009260267 1.1799605 4949712
-0.057859458 -0.0095355287 1.1799766 4949713
-0.047710743 -0.0099484175 1.1800008 5016279
-0.038329083 -0.010706596 1.1800249 5213659
-0.029714465 -0.011810072 1.1800489 5345501
0.043040957 -0.014205314 1.1802198 5871590
0.051521171 -0.013985574 1.1802374 5871847
0.061856329 -0.012162335 1.1822515 5543139
0.069181159 -0.011328973 1.1825494 5280225
0.093679331 -0.012331918 1.184322 5411294
0.099484302 -0.013994493 1.1817971 5279196
0.071598954 -0.0063312277 1.1802454 5411556
0.081252702 -0.0050297305 1.1802604 5412066
0.092529051 -0.0054885 1.1802874 5477344
0.09920308 -0.0080190226 1.1803138 5213404
-0.0044433121 -0.18612903 1.1889254 3105189
-0.024455417 -0.1768377 1.1898377 3039906
-0.014850141 -0.17936277 1.1902993 3039908
-0.0053748023 -0.18090147 1.192232 3105447
0.0052629597 -0.18056878 1.1896704 3105702
0.014391668 -0.17969356 1.1889364 3171750
0.02338725 -0.17964604 1.1889559 3237289
0.034918524 -0.17825444 1.1889746 3237548
0.045135763 -0.17867012 1.1889989 3171752
0.054217748 -0.17903961 1.1890206 3171752
-0.051616445 -0.16427237 1.188719 3039909
-0.043804992 -0.16531791 1.1896299 3105701
-0.035766657 -0.16828929 1.1913182 3105443
-0.026397727 -0.17406191 1.1928204 3040163
0.0043938262 -0.17440189 1.1928895 3105960
0.015829695 -0.17375156 1.1929115 3105958
0.024983265 -0.17261499 1.1921263 3237545
0.035418518 -0.17198274 1.1910514 3237547
0.045467205 -0.17208073 1.1905687 3237544
0.055532198 -0.17226239 1.1906757 3237545
0.064260736 -0.17063236 1.1896697 3303339
-0.062471956 -0.15439263 1.1886487 3172009
-0.054190122 -0.15788536 1.1910833 3105961
-0.044955418 -0.16047144 1.1927156 3171752
0.038991909 -0.16531292 1.1929226 3303337
0.045826238 -0.16559097 1.1929389 3303593
0.055954736 -0.1650251 1.1929585 3303594
0.065263778 -0.1627927 1.1917183 3303596
0.072147831 -0.16157517 1.1889777 3238062
-0.069504581 -0.14557813 1.1885917 3434409
-0.06384559 -0.14755975 1.191437 3237547
-0.055612251 -0.15026218 1.1926442 3237805
0.066519022 -0.1555306 1.1929369 3238318
0.075930178 -0.15298329 1.1918255 3238572
0.086058564 -0.15318847 1.1901687 3434926
0.092581138 -0.15285471 1.1889814 3369134
-0.071479015 -0.13645259 1.1897752 3435179
-0.065627098 -0.13869204 1.1921234 3369388
0.080832243 -0.14647838 1.1929257 3500977
0.086595573 -0.14317554 1.1919228 3435186
0.092054844 -0.14343311 1.1889359 3500720
-0.079550363 -0.1253739 1.1894746 3566511
-0.073973306 -0.12847452 1.1911681 3566767
-0.066874005 -0.13134164 1.1925305 3500977
0.088367678 -0.13560599 1.192391 3501234
0.096355624 -0.13349991 1.1896486 3501490
-0.08859928 -0.11182486 1.188391 3566770
-0.082036473 -0.11666702 1.1910281 3632306
-0.075615622 -0.12185855 1.1924666 3632563
0.098504201 -0.12490748 1.1914511 3699127
0.1059989 -0.12393396 1.1893452 3633076
-0.08958181 -0.10618713 1.1893622 3566770
-0.083624713 -0.10731496 1.1923805 3763892
0.099762298 -0.11587293 1.1928231 3633335
0.10652866 -0.11396328 1.1903845 3764407
-0.089307576 -0.096101351 1.1911154 3698868
-0.08499451 -0.096883588 1.1923285 3699126
0.10081854 -0.10393613 1.1927692 3962811
0.10735191 -0.10429581 1.1916186 3830969
0.11506833 -0.104841 1.1888046 3830714
-0.090071283 -0.08611472 1.1891897 3699126
-0.084840752 -0.086875007 1.1922817 3830712
0.1084533 -0.094389476 1.1921409 4028606
0.11661278 -0.094832212 1.1887609 3962300
-0.089107282 -0.076657459 1.1898242 3830970
-0.0842022 -0.076523952 1.1922344 3962813
0.10909183 -0.085346699 1.1926998 4291522
0.116992 -0.085271865 1.1890804 4094399
-0.088999376 -0.066584028 1.1898913 3962044
-0.084143564 -0.067072906 1.1921899 4093630
0.11111201 -0.074676692 1.1923873 4554438
0.11593194 -0.075635947 1.1886691 4357059
-0.087966859 -0.056575835 1.1894655 4093886
-0.083367839 -0.056021135 1.1921396 4291009
0.10971104 -0.064069301 1.191712 4686026
0.11573862 -0.064419344 1.1886158 4685769
-0.086058363 -0.049386725 1.1881025 4159935
-0.080966495 -0.047110088 1.19096 4225985
0.1028581 -0.053818151 1.1925377 5015248
0.10889448 -0.055351488 1.1898915 5014991
-0.077552013 -0.037426088 1.1901824 4292037
-0.072278172 -0.039847318 1.1920878 4619977
-0.049218953 -0.033939876 1.1921105 5279449
-0.041245583 -0.034264266 1.1921296 5016538
-0.028762337 -0.035913065 1.1921647 4950743
-0.01931604 -0.037975226 1.1921952 4950488
-0.010219587 -0.038188703 1.192216 5147351
0.00026037544 -0.037664294 1.1922365 5278422
0.010728494 -0.040410724 1.1913836 5212886
0.020101475 -0.040132843 1.1905417 5278423
0.03009925 -0.039699223 1.1910616 5147094
0.040972583 -0.040543053 1.1923394 4885460
0.050514661 -0.039429329 1.1916279 4950741
0.059637558 -0.039281346 1.1923745 5016279
0.10177317 -0.043918915 1.1910887 5212370
0.10912178 -0.045387693 1.1885117 5212369
-0.075188234 -0.03054972 1.1900376 4423370
-0.072985828 -0.027443513 1.1896279 4554187
-0.048547879 -0.028941706 1.1918218 5147610
-0.038664032 -0.028621934 1.1901087 5081818
-0.029657882 -0.031264953 1.1901408 5016538
-0.018457968 -0.030282184 1.1902941 5278938
-0.0093345698 -0.030046396 1.190313 5344730
0.0010935897 -0.031354763 1.1892754 5673948
0.011223101 -0.03401351 1.1882434 5805277
0.020305086 -0.034382999 1.1882651 5541848
0.030568518 -0.033663426 1.1882842 5475544
0.040878143 -0.031808637 1.1882981 5213397
0.051497392 -0.032860957 1.1890322 5082070
0.061208565 -0.03246589 1.1907458 5016536
0.070224687 -0.030649811 1.1923569 5213915
0.081004083 -0.030110434 1.192378 5279453
0.09192045 -0.031010911 1.1924063 5213659
0.10123476 -0.034319438 1.1908423 5212628
0.10785779 -0.034533646 1.1884578 5146833
-0.072415672 -0.021513805 1.1880012 4554443
-0.047139246 -0.020722769 1.1880529 5016281
-0.039910614 -0.021926545 1.1880744 5147611
-0.0088417754 -0.024100251 1.1881528 5411294
0.062106818 -0.022438265 1.1883005 5148123
0.070821553 -0.022796459 1.1885214 5213915
0.080836624 -0.023426786 1.1900854 5213917
0.091585658 -0.023795538 1.1906873 5213659
0.099518612 -0.025861576 1.188732 5212887
0.09265729 -0.016858459 1.1883413 5279708
0.097198285 -0.017043211 1.1883521 5411037
-0.020810235 -0.17500961 1.1978371 3106213
-0.015091173 -0.17524227 1.1978508 3105959
-0.0038430505 -0.17635459 1.1978807 3105706
0.0066412622 -0.17612644 1.1979026 3105960
-0.031397171 -0.1677047 1.1977795 3105700
-0.024026297 -0.1692526 1.198553 3105957
-0.01487104 -0.16962507 1.1985749 3106216
-0.004575707 -0.17016107 1.19945 3106217
0.0060786447 -0.17007953 1.1993015 3171752
0.013990887 -0.16990843 1.1989805 3303337
0.02531464 -0.16772056 1.197904 3369130
0.032177512 -0.16799977 1.1979203 3369132
-0.043534055 -0.15598722 1.1980311 3171753
-0.033970732 -0.15878297 1.200452 3171752
-0.023702484 -0.15947473 1.2025578 3172010
-0.014578892 -0.16112265 1.2035356 3172012
-0.0045339111 -0.16111229 1.204353 3237802
0.0061552906 -0.16084673 1.2038298 3303338
0.015350263 -0.1612481 1.2040517 3369133
0.025670242 -0.16144046 1.2023553 3369388
0.035812415 -0.16151965 1.2016873 3303853
0.045142926 -0.1607309 1.1996646 3369643
0.055278637 -0.16034307 1.1981703 3303851
-0.060777254 -0.14359547 1.1976016 3303598
-0.052793406 -0.14674406 1.1993482 3303341
-0.04431437 -0.14881992 1.2028053 3303340
-0.035042077 -0.15062948 1.2056912 3369132
-0.0269541 -0.15284579 1.2057195 3303600
0.0064372309 -0.15420428 1.2057991 3303598
0.019102909 -0.15471956 1.2058293 3435186
0.02658717 -0.15502405 1.2058471 3369391
0.036374286 -0.15542224 1.2058705 3369392
0.046299268 -0.15291014 1.205265 3369390
0.055911787 -0.15224241 1.2016983 3435184
0.065364949 -0.15101883 1.1979132 3369392
-0.061445832 -0.13655503 1.198367 3369646
-0.054425493 -0.13914838 1.2031947 3303853
-0.047304899 -0.14279124 1.2056274 3173034
0.048568644 -0.14484645 1.2058474 3566773
0.056802634 -0.14387299 1.2051942 3566516
0.066689342 -0.14239998 1.2022756 3500977
0.076577961 -0.14346431 1.1995865 3500975
-0.07111723 -0.12418896 1.1974876 3632562
-0.062377743 -0.12761271 1.2005229 3501236
-0.054887213 -0.12808155 1.2050972 3501494
0.069275185 -0.133406 1.2058389 3698612
0.07682734 -0.13405982 1.2034949 3567283
0.085787676 -0.1319886 1.2008017 3567283
0.093331449 -0.12924269 1.1978719 3501747
-0.077914581 -0.11425583 1.1974258 3895478
-0.072445683 -0.11701123 1.1999509 3698613
-0.063612342 -0.11831466 1.2041432 3633080
0.070983887 -0.12684393 1.2058117 3699128
0.077667922 -0.12392205 1.2058127 3830713
0.087159574 -0.12392407 1.2046335 3699126
0.094049647 -0.12285601 1.1978434 3633333
-0.078895971 -0.10619602 1.1973858 3961271
-0.072184235 -0.10691037 1.2024039 3896247
-0.065567128 -0.10975526 1.2054318 3764921
0.07784421 -0.1169738 1.2057804 3962300
0.088801831 -0.114907 1.2053241 3896506
0.096427023 -0.11334006 1.1998039 3764920
-0.079881907 -0.096823283 1.1988395 3830712
-0.073022954 -0.096658438 1.2040205 4093627
0.092204854 -0.10417951 1.2057517 4028352
0.097630672 -0.10381411 1.2004284 3962812
-0.07986325 -0.086496845 1.199291 3962556
-0.073490575 -0.087870695 1.204867 4028606
0.092101537 -0.093762457 1.2057023 4357317
0.098509446 -0.094228521 1.2017186 4225985
0.10406455 -0.09072566 1.1977141 4225985
-0.079005674 -0.077515662 1.1992506 4028606
-0.074265398 -0.077877246 1.2052627 4094655
0.092954569 -0.085756861 1.2056665 4554695
0.098883472 -0.083856791 1.2010705 4554182
0.10516843 -0.082368791 1.1976773 4619462
-0.079251073 -0.066850506 1.1976703 4159424
-0.071256727 -0.066162802 1.2039833 4160448
-0.064891137 -0.064803213 1.2052217 4554440
0.093958676 -0.072419181 1.2056059 4620747
0.099489555 -0.073672093 1.2033739 4686026
0.10586004 -0.074758954 1.1976429 4619977
-0.078237526 -0.057222247 1.1971565 4291265
-0.070192538 -0.057536844 1.2024258 4357573
-0.064609997 -0.05789471 1.2051898 4751563
0.0095743556 -0.058221746 1.205354 4818903
0.017281761 -0.057766426 1.2053688 4819160
0.092463136 -0.063823745 1.2055621 4752590
0.099861331 -0.064477801 1.2033315 4817869
0.10504204 -0.066705801 1.1976032 4752076
-0.075861804 -0.04772526 1.1971171 4291778
-0.069853038 -0.047251895 1.2007071 4554440
-0.064282 -0.049834803 1.2051525 4883149
-0.045410525 -0.043540988 1.2011642 5674209
-0.039672427 -0.043774437 1.201178 5082331
-0.028437462 -0.04706458 1.2030848 4950745
-0.01919087 -0.049189448 1.2006483 4884953
-0.01000987 -0.049554739 1.2004702 4753366
0.00035266764 -0.04887313 1.2016897 4884692
0.0108671 -0.050928857 1.200878 4884692
0.019648014 -0.050560139 1.2015505 4884692
0.029880216 -0.049773648 1.2040254 4950484
0.04077566 -0.051176179 1.2022781 4950488
0.049556661 -0.051268674 1.2032913 4950489
0.060211655 -0.050248642 1.2043608 5411037
0.0691946 -0.050363544 1.2054478 5542623
0.083381556 -0.048922416 1.2054721 5213404
0.091036536 -0.052117161 1.2055039 5081558
0.099252611 -0.054704901 1.2031341 5015248
-0.07020738 -0.037480365 1.1970812 4685772
-0.047982141 -0.037915241 1.198223 5542365
-0.039026681 -0.038459875 1.1982971 4951002
-0.03030815 -0.039847586 1.1971799 4884951
-0.021129832 -0.042095773 1.1972107 4753366
-0.0073575377 -0.041510396 1.1972381 4950484
0.0014953706 -0.042156983 1.1972605 5015763
0.031485539 -0.044236381 1.1973361 5015764
0.03834841 -0.044515587 1.1973524 4885461
0.050316643 -0.044020481 1.1973764 4884950
0.061136425 -0.043387659 1.1992433 5082072
0.070544966 -0.042616952 1.2022142 5542624
0.080065005 -0.044151962 1.2046423 5279197
0.09026549 -0.043330118 1.2018608 5213144
0.097476415 -0.046157353 1.1974899 5212627
0.065028474 -0.03643547 1.1973729 5016538
0.070817351 -0.034952432 1.1973786 5213917
0.080449969 -0.032861985 1.1973898 5345245
0.090696499 -0.035587508 1.1980919 5213917
0.18172127 -0.04139005 1.2056522 13158081
-0.01444654 -0.15616897 1.2097627 3303598
-0.0017389944 -0.15668596 1.209793 3303850
-0.042432729 -0.14438471 1.2096457 3303853
-0.032735933 -0.14637502 1.2100335 3304111
-0.02326322 -0.14887299 1.2118143 3303857
-0.014207162 -0.14956348 1.2124821 3303856
-0.0037890691 -0.15001762 1.2127571 3369903
0.0066767093 -0.14892839 1.2097749 3435441
