# .PCD v0.7 - Point Cloud Data file format
VERSION 0.7
FIELDS x y z rgba
SIZE 4 4 4 4
TYPE F F F U
COUNT 1 1 1 1
WIDTH 1126
HEIGHT 1
VIEWPOINT 0 0 0 1 0 0 0
POINTS 1126
DATA ascii
0.0528294 -0.23040754 1.1405886 8625323
-0.065609172 -0.21917439 1.1363561 9678537
-0.054808028 -0.21959117 1.1429096 4422071
-0.04550115 -0.22058564 1.1444007 2778029
-0.035802267 -0.22271806 1.1444082 2513574
-0.02828023 -0.22567689 1.1444017 2315684
0.0016164519 -0.22738317 1.144471 2120102
0.013657619 -0.22777617 1.1445018 2185635
0.026829142 -0.2271103 1.1445458 2186146
0.032266699 -0.22838351 1.1445493 2316696
0.047663219 -0.22669449 1.1446093 4486314
0.055238403 -0.22652745 1.1426325 5997746
0.066476017 -0.22394139 1.1435463 6063288
0.075186595 -0.22277141 1.1447252 6589614
0.08327987 -0.22325471 1.1447438 8757678
-0.0706544 -0.20704009 1.1364567 1855898
-0.064027317 -0.20979735 1.1396878 2249885
-0.056434624 -0.21239503 1.1437197 2381985
-0.048380539 -0.21479368 1.1444473 3039902
0.069348067 -0.21699244 1.1447634 2841504
0.075386494 -0.21664163 1.144784 3302564
0.08502537 -0.21468681 1.1434966 4420011
0.094863214 -0.2141324 1.1391488 6984117
0.10439397 -0.21166512 1.1369137 6254993
-0.081454866 -0.19617012 1.1373289 2710418
-0.073849112 -0.19971824 1.1408981 2775447
-0.067209691 -0.20219231 1.1437129 2906776
0.087726839 -0.20688704 1.1445117 3171492
0.096286327 -0.20576522 1.1417466 3237285
0.10467084 -0.2047835 1.1375512 3629215
-0.084125884 -0.1891689 1.1413877 2775191
-0.076114416 -0.19294813 1.1439084 2906012
0.098538645 -0.19664359 1.1433729 3040421
0.10554373 -0.19515601 1.140021 3105703
0.11144794 -0.19557314 1.1370864 2777257
-0.098976329 -0.17455941 1.1366835 2710677
-0.092349835 -0.17869619 1.1401929 2709909
-0.086259924 -0.18252887 1.1426446 2709910
0.10695788 -0.18685296 1.1436828 3368100
0.11460918 -0.18522471 1.1393269 3302561
-0.099999622 -0.16800827 1.139854 2710421
-0.095321529 -0.17105362 1.1439276 2644886
0.10926373 -0.17917615 1.145236 3040936
0.11740977 -0.17632158 1.1431992 3237031
0.12391443 -0.17360353 1.1403304 3368615
-0.10920858 -0.1546388 1.1368431 2776209
-0.10393901 -0.15933985 1.1415638 2841240
0.11971213 -0.16792636 1.1453725 3237287
0.12625282 -0.16586299 1.1402676 3302822
-0.11000483 -0.14800051 1.1414373 2710683
-0.10542678 -0.15147078 1.1442176 2841499
0.12878157 -0.15754858 1.1429085 3237541
0.13385072 -0.15496123 1.1391355 3237798
-0.11185545 -0.13938606 1.1421231 2907293
0.13074401 -0.14886691 1.1455847 3237797
0.13557269 -0.14643207 1.1406213 3303334
-0.11776765 -0.1274517 1.1382191 2907805
-0.1156405 -0.12921615 1.144266 2907805
0.13771026 -0.13715851 1.143271 3434407
-0.11796748 -0.11814791 1.1398306 3039392
-0.11540384 -0.11946563 1.1451591 3039391
0.13996539 -0.12765348 1.1432406 3500202
0.1442247 -0.12482511 1.1378508 3631274
-0.12082212 -0.10890048 1.1417769 3170979
0.14224504 -0.1174758 1.1454706 3631791
0.14567086 -0.11696314 1.1397072 3566510
-0.1208921 -0.098554425 1.1430558 3105957
0.14178887 -0.10632962 1.1443527 3632305
0.14700656 -0.10753985 1.1383559 3501227
-0.12094005 -0.088500254 1.1408651 3237546
0.14162979 -0.097240344 1.1435596 3698099
0.14624687 -0.097722486 1.1385134 3698094
-0.12000015 -0.078780159 1.141198 3434923
0.14316626 -0.088017218 1.1441969 3895479
0.14535913 -0.090041392 1.1381837 3895477
-0.11928228 -0.068347014 1.1419181 3566256
0.1437896 -0.076742128 1.1456389 4027579
0.14631055 -0.07621634 1.1423175 4157882
-0.1179954 -0.059467461 1.1412495 3567024
0.14206325 -0.067138374 1.1452152 4159422
0.14639838 -0.067384377 1.1408015 4289724
-0.11535498 -0.049690783 1.1391536 3567791
-0.11220533 -0.047909711 1.1445131 3764403
0.1406858 -0.057036661 1.1438167 4356797
-0.1101561 -0.038978308 1.1385081 3830196
0.1383395 -0.047363628 1.1429683 4619718
-0.10833518 -0.028153233 1.1409537 3896507
0.134637 -0.035348818 1.1435605 4817095
0.13915268 -0.036042891 1.1403445 4948420
-0.11564367 -0.018746935 1.1421129 6916535
-0.10817479 -0.019518301 1.1418192 5210049
0.13399316 -0.028953575 1.1457305 5013440
0.13847199 -0.028660081 1.1434126 5998788
0.036147758 0.048391528 1.1420406 5859448
0.044349026 0.048219062 1.1402051 6122362
0.049901657 0.048137747 1.1432204 6319482
0.061037928 0.049003296 1.1472608 5330522
0.036878712 0.052831672 1.1405609 5792108
0.044729371 0.053426154 1.1400557 5527648
0.050043955 0.052500941 1.1432621 5067354
-0.022277089 -0.22879609 1.1473893 4354997
-0.014960647 -0.23008204 1.1493982 4684224
-0.0050544441 -0.23009679 1.1479597 4289976
0.0059956601 -0.22814938 1.1474763 2054307
0.016404081 -0.22903842 1.1474978 2777510
0.021855827 -0.23031497 1.1475012 4026798
0.038318433 -0.23085228 1.1475432 5604271
0.042213395 -0.22933146 1.1475688 4881326
-0.040910818 -0.21782942 1.14744 3039902
-0.032996655 -0.2190108 1.1479515 2710943
-0.024602437 -0.22122161 1.150759 2645152
-0.014832128 -0.22443223 1.154119 2514339
-0.0048910249 -0.22464791 1.1536121 2514851
0.0051080063 -0.22245273 1.1521281 2842787
0.015008645 -0.22233088 1.1499574 2908579
0.024686657 -0.22225629 1.1504748 3039651
0.03484967 -0.22330204 1.1516051 2908578
0.044224262 -0.22273329 1.1513873 2778020
0.054311998 -0.221378 1.1491075 2646433
0.063799709 -0.22435975 1.1476777 5012145
0.075281769 -0.22601619 1.1476948 8955830
-0.053661935 -0.20899259 1.147773 2841242
-0.043897331 -0.21140471 1.1498258 2775960
-0.03494034 -0.21299143 1.1517699 2841500
-0.025618793 -0.21550462 1.1555061 2907551
0.0060854033 -0.21580189 1.1555941 3105184
0.015306768 -0.21573412 1.1556211 3170722
0.025252867 -0.21605873 1.1556464 3302053
0.035401173 -0.21583682 1.1556776 3170723
0.045929871 -0.21525857 1.1557132 3105188
0.055288017 -0.2147537 1.1540304 3170467
0.064907975 -0.21482074 1.1501714 3236258
0.075166203 -0.21169291 1.1482748 3171236
-0.069899254 -0.19710797 1.1475534 2906776
-0.063448042 -0.19956689 1.1486915 2907033
-0.055044994 -0.20086205 1.1523939 2841497
-0.0459354 -0.20525402 1.1555452 2775704
0.056448571 -0.20933312 1.1557995 3105443
0.06528955 -0.20962167 1.155822 3105443
0.076203689 -0.20624612 1.1546221 3105956
0.084669746 -0.20361623 1.1511341 3105956
-0.080516405 -0.18577513 1.1476305 2644884
-0.073575571 -0.18960053 1.1506143 2775705
-0.065309875 -0.1927698 1.1532747 2841497
0.080016539 -0.19903979 1.1559645 3172006
0.087751046 -0.19689928 1.1550069 3040421
0.093694977 -0.1947183 1.1525444 2974628
-0.089010127 -0.17670888 1.1476921 2645144
-0.082437068 -0.17872186 1.1507509 2710425
-0.077229567 -0.18162914 1.1522509 2776216
0.097441763 -0.18619889 1.1528859 3171493
0.10250002 -0.1841021 1.1497701 3237026
-0.09179347 -0.16862136 1.1503491 2710424
-0.085510597 -0.17107479 1.1543013 2710937
0.10055747 -0.17979766 1.1562057 3302823
0.1070278 -0.17589131 1.1531031 3172005
0.11292557 -0.1729335 1.1523058 3172006
-0.10008454 -0.15693833 1.1478478 2841498
-0.095788084 -0.15964746 1.1527578 2907290
0.10975885 -0.16903546 1.1563339 3303592
0.11611803 -0.16584638 1.155049 3237544
0.12242709 -0.16163716 1.1484399 3303337
-0.10157806 -0.14844428 1.1496384 2973342
-0.097109184 -0.15177433 1.1559057 3038879
0.11999908 -0.15821183 1.1557992 3237544
0.12446947 -0.15528348 1.1513062 3303336
-0.10922121 -0.13662916 1.1490142 2973342
-0.10327489 -0.1400325 1.1534992 2973600
0.12817115 -0.1462857 1.1526021 3368872
-0.11054631 -0.12873203 1.1504383 3039392
-0.1051633 -0.12978151 1.1560911 3236259
0.12977411 -0.13690993 1.1544456 3500460
0.13429695 -0.13455883 1.1487305 3434923
-0.11133311 -0.11906377 1.1510637 3170978
0.13110384 -0.1280286 1.1554503 3500719
0.13588712 -0.12565112 1.152153 3500718
-0.11752125 -0.10766333 1.148265 3237029
-0.11377233 -0.10921425 1.1542614 3237286
0.13650554 -0.1168365 1.1550105 3697329
-0.11723491 -0.098883629 1.148349 3237543
-0.1146845 -0.098603211 1.1558594 3172263
0.13802163 -0.10776526 1.1545955 3697843
-0.11723206 -0.089270614 1.1514404 3303340
-0.11513729 -0.08831393 1.1564556 3303852
0.13813534 -0.097321905 1.1550947 3764149
-0.11696843 -0.079483204 1.1485337 3500716
-0.11423063 -0.078281894 1.1565533 3501229
0.14141952 -0.086973533 1.1537737 3764661
-0.11634011 -0.071447097 1.1486117 3566512
-0.11307149 -0.068171799 1.1530159 3632306
0.13877244 -0.076672658 1.1537628 3896764
-0.11215647 -0.058576196 1.1531094 3698357
0.13311169 -0.066463515 1.1560396 4291265
0.13692118 -0.067704342 1.1505146 4225217
-0.11025163 -0.049622651 1.1528361 3764408
0.13420872 -0.056885097 1.1554668 4554434
0.1368382 -0.056639072 1.1494764 4488640
-0.1069506 -0.039020501 1.1537461 3895997
-0.10273651 -0.035987303 1.1569871 4027323
0.1341721 -0.046071213 1.1545691 4817354
-0.10508759 -0.029509492 1.1503748 3962044
-0.10109076 -0.028490253 1.1562628 4093118
0.12524302 -0.033471793 1.1576632 5014224
0.13055642 -0.036340497 1.153651 4751563
-0.10364702 -0.019127153 1.1491438 4290235
-0.098776653 -0.019201249 1.1536907 4158908
-0.092534088 -0.017145246 1.1571949 4028609
0.1238145 -0.026366308 1.1559486 4817874
0.13051932 -0.026250094 1.1507463 5145287
-0.096171007 -0.01261463 1.1516272 4487616
-0.090718858 -0.010168955 1.1559328 4356800
0.11537362 -0.013567686 1.1558236 5276623
0.12162428 -0.016749568 1.1520967 5604813
0.13098766 -0.018259734 1.1507124 6720449
-0.088393837 -0.003267847 1.1573383 5671109
0.11369262 -0.0079583377 1.1573005 5802961
0.12004343 -0.0088957325 1.1532143 6787017
0.038166739 0.01030153 1.1578289 12972031
-0.016728161 0.022030473 1.1557829 5869264
0.015531777 0.017309055 1.1578306 7515376
0.023010034 0.016696207 1.1578462 8764660
0.032597907 0.015940808 1.1578665 10146554
0.039195001 0.014692977 1.1578735 10870005
-0.074137405 0.032277726 1.1497155 8028800
-0.069003776 0.032476388 1.1497321 7305855
-0.012308476 0.023011453 1.157805 5671370
-0.0089931097 0.022903249 1.1578134 5869265
0.014214455 0.022145815 1.1578727 6988787
0.018634943 0.022001527 1.157884 7185904
0.1051228 0.028028764 1.1581886 6314850
-0.067621276 0.03743612 1.149783 8028802
0.10214379 0.031666003 1.1582144 6117979
0.078563273 0.043040924 1.1502545 5593178
0.080758289 0.042969279 1.1502601 5658970
-0.020254599 -0.21868515 1.1594917 2973083
-0.014746111 -0.21997501 1.1594952 2973595
-0.0053099953 -0.21985886 1.16019 2973598
-0.039853692 -0.20694485 1.1595469 2842012
-0.033522554 -0.20853908 1.1595498 2776219
-0.024271438 -0.2113373 1.1610737 2907806
-0.014731104 -0.21304429 1.1627189 2907807
-0.0041964632 -0.21393064 1.1629161 2973599
0.0047632949 -0.21185705 1.1602947 3039136
0.015531718 -0.21122426 1.1609981 3170723
0.025510903 -0.21142416 1.1603581 3236770
0.035321727 -0.21127701 1.1597209 3170979
0.044370726 -0.21135888 1.1597459 3170980
0.051078543 -0.20991269 1.1597788 3171236
-0.050653666 -0.19771186 1.1596035 2842012
-0.044026092 -0.20020881 1.1610533 2842011
-0.034493409 -0.2027896 1.1620632 2842012
-0.026261346 -0.20452321 1.1636088 2907805
0.020150069 -0.2074303 1.1637141 3302309
0.026200067 -0.20645955 1.1625977 3302308
0.034856971 -0.20660792 1.1612638 3171236
0.045606233 -0.20751396 1.159786 3171236
0.056266725 -0.20650369 1.1614928 3105443
0.066148788 -0.20489608 1.1608696 3171492
0.07275895 -0.20321986 1.1599044 3040420
-0.071361691 -0.18593536 1.1596558 2841497
-0.06268122 -0.18897434 1.1601852 2907291
-0.054337457 -0.19191162 1.1615303 2907549
-0.047710732 -0.19333413 1.1636535 2907551
0.069473386 -0.19790137 1.1639456 3040420
0.076551922 -0.19627187 1.1620864 3106213
0.084459797 -0.1939072 1.1600261 3106214
-0.072658747 -0.1794222 1.161714 2907290
-0.066173263 -0.18252905 1.1632031 2973340
0.080891065 -0.189363 1.1640592 3302823
0.087018155 -0.18715391 1.1616975 3237030
0.093265511 -0.18395105 1.1619235 3237031
-0.089562535 -0.16536018 1.1597987 2841497
-0.081284657 -0.16911688 1.1603202 2842012
-0.075247817 -0.1715748 1.1627809 2907547
0.098701127 -0.17643195 1.1611556 3368361
0.10389147 -0.17333919 1.1602767 3237285
-0.09084823 -0.15939787 1.1598516 2973085
-0.084086098 -0.1598697 1.1626034 3039135
0.10124571 -0.16936761 1.1603067 3368615
0.10787336 -0.16625887 1.1610825 3237799
0.11255199 -0.16307625 1.1603987 3303337
-0.097819179 -0.14621961 1.1599566 2973857
-0.092512503 -0.14993946 1.1614921 3039137
-0.086618096 -0.15103656 1.1639431 3104930
0.11010225 -0.15884006 1.162432 3172264
0.11641997 -0.1561415 1.1611422 3238059
-0.098745473 -0.13799258 1.161032 3039650
-0.094892241 -0.14174412 1.1640075 3105700
0.11997042 -0.14652318 1.1627307 3369132
0.12418376 -0.14680491 1.1605862 3434410
-0.10122326 -0.12935117 1.161821 3171236
0.12212291 -0.13847719 1.1638594 3500719
0.12557198 -0.13627303 1.16269 3435183
-0.1079682 -0.1170267 1.1602043 3302823
-0.10339155 -0.11918218 1.1628636 3171495
0.12666319 -0.12620443 1.1626068 3566514
-0.1094368 -0.10835308 1.1617368 3368873
-0.1058027 -0.10966552 1.1634803 3368875
0.12968002 -0.11709545 1.1616836 3697588
-0.11004836 -0.099273972 1.1630334 3303850
0.13155226 -0.10757723 1.1644078 3763892
0.13480791 -0.10696736 1.1609942 3698099
-0.11105566 -0.089020178 1.1620609 3435181
-0.105226 -0.089723043 1.164471 3435438
0.13289976 -0.097494952 1.1650786 3829942
0.1357711 -0.097012214 1.1622342 3764149
-0.10970595 -0.079389885 1.1625561 3501229
0.13333522 -0.084142663 1.1652064 3896505
0.13764116 -0.087146319 1.1630085 3830455
-0.10878527 -0.069549546 1.1621904 3632563
-0.10446394 -0.06635654 1.1646947 3567542
0.13121785 -0.076886825 1.1626977 4027837
0.13633399 -0.080597647 1.1612484 3896505
-0.10769821 -0.059519444 1.1620835 3829940
-0.10424621 -0.059680399 1.1647586 3699127
0.13002685 -0.067241386 1.1640239 4291009
-0.10694777 -0.049392652 1.1616483 3895737
-0.10325265 -0.048733201 1.1648651 4027576
0.130652 -0.05721147 1.1634539 4422849
-0.10554519 -0.042731512 1.1609154 4158911
-0.10094493 -0.039199762 1.1629621 4093372
0.13091488 -0.047466002 1.1630471 4817355
-0.096890718 -0.029923871 1.1626 4093630
-0.092030175 -0.026662849 1.1651065 4094397
0.12381423 -0.036487974 1.163853 5080014
0.1282281 -0.039815761 1.1616119 4883149
-0.094520107 -0.022370167 1.1611398 4028348
-0.08993756 -0.019975372 1.1626757 4028864
0.11963995 -0.026698977 1.1634895 4949202
-0.086064897 -0.010507248 1.1630948 4029123
-0.081781641 -0.0084327608 1.1653086 3963586
0.11387694 -0.016649604 1.1644571 5146069
0.11718105 -0.021139167 1.1617572 5080276
-0.084997699 -0.0026997998 1.1613536 5342665
-0.077820368 -0.00082203746 1.165392 4882633
-0.014271518 0.0008739084 1.1655899 6070261
-0.0075950939 0.00065600127 1.165607 6528744
-0.00091867242 0.00043810159 1.165624 8827627
0.014659648 -7.0340931e-005 1.1656638 10340848
0.023381846 -0.00099152327 1.1656801 8895736
0.030862067 -0.0019358024 1.1656924 6266608
0.10524298 -0.0035741627 1.1648897 5475287
0.10961273 -0.0072204843 1.163201 5475028
-0.074147888 0.0050712228 1.1634583 5999306
-0.067454331 0.0059628263 1.163486 5540557
-0.058779746 0.0090226308 1.1628731 5803727
-0.046019435 0.010326035 1.1655887 4950220
-0.037098005 0.0089097545 1.1656008 5016280
-0.027396096 0.0079855248 1.1652198 5411294
-0.017348384 0.0076616481 1.1634054 5806569
-0.0073689446 0.0073330402 1.1650709 7120874
0.002237563 0.0077609196 1.1657025 12379901
0.012817084 0.0069152713 1.1631984 13891069
0.022622023 0.0063629374 1.1625475 12969723
0.032577373 0.0062667131 1.1634593 9946095
0.04263556 0.0057028905 1.1638855 10013177
0.052429236 0.0072670579 1.1636875 7449069
0.05913692 0.0088741779 1.1658758 5411552
0.10246464 0.00042181462 1.1634196 6526426
-0.043879963 0.015206762 1.1656411 6264275
-0.036255687 0.015785821 1.1631683 5803990
-0.026658284 0.016117312 1.1616988 5345755
-0.016615046 0.017051943 1.1617365 5412839
-0.0070114918 0.017327115 1.1622666 5676266
0.0019849185 0.016089141 1.1646378 7253489
0.011811978 0.015604585 1.1628041 8436213
0.021716762 0.013058364 1.1618083 12051453
0.036277507 0.017023399 1.1618875 10082302
0.044089835 0.016028389 1.1619004 10607102
0.052542955 0.014906727 1.161914 7515119
0.059554279 0.014051124 1.1632593 6068200
-0.0046082344 0.022798069 1.1618253 6001365
-0.00017251726 0.022653304 1.1618366 6396124
0.11246102 0.024749525 1.1621788 6447199
-0.011136781 -0.20939174 1.1676062 3039391
-0.0035828911 -0.20908025 1.1691308 3039135
0.0078444788 -0.21001126 1.1676546 3104930
-0.039802819 -0.1972793 1.167639 2776478
-0.033464238 -0.19840148 1.1696466 2842271
-0.023625871 -0.20038375 1.1718379 2907807
-0.014465319 -0.20254794 1.1723574 2908063
-0.0044823214 -0.20373453 1.1734792 2973600
0.0058670333 -0.20308489 1.1730483 3105187
0.01580463 -0.20304908 1.1721574 3236773
0.025550678 -0.20202059 1.1715145 3237029
0.03648993 -0.20246392 1.1716083 3171237
0.046112582 -0.20370618 1.1693239 3171236
0.055681027 -0.20245256 1.1687863 3105444
0.064575903 -0.20124485 1.1679001 3171493
-0.051710978 -0.18804649 1.1708926 2841758
-0.043692611 -0.19062442 1.1716912 2907551
-0.034830719 -0.19204786 1.1745267 2842271
-0.024192048 -0.19359566 1.175719 2908064
-0.01748375 -0.19493993 1.1757255 2973857
0.0038752845 -0.19563705 1.1757799 3105444
0.016773256 -0.19505772 1.1758224 3237030
0.026807381 -0.19579355 1.1750441 3302823
0.036490262 -0.1953266 1.1749531 3171495
0.045895033 -0.19421896 1.1745223 3105703
0.055592507 -0.19479226 1.1743358 3105703
0.065416515 -0.1945962 1.1724657 3105702
0.073836192 -0.19233865 1.1697253 3105958
-0.062729418 -0.17997 1.1693846 2973598
-0.054806426 -0.18199207 1.1737412 2907551
-0.044985928 -0.18419588 1.1757486 2908065
0.067459904 -0.18628609 1.1760505 3237288
0.076306298 -0.18583733 1.1736355 3302823
0.085041255 -0.18404999 1.1706932 3237287
-0.071765639 -0.16841248 1.1706785 3105183
-0.064425483 -0.17205924 1.1739255 2974112
-0.0562061 -0.17454585 1.175808 2842786
0.078011237 -0.17915148 1.1761483 3171750
0.086758368 -0.17581226 1.1748716 3172008
0.09489049 -0.17427978 1.1705759 3303081
-0.079564884 -0.15844935 1.16856 3104930
-0.07343407 -0.16102929 1.1745534 3170978
0.089514017 -0.16756648 1.176291 3303337
0.097344354 -0.1662799 1.1740755 3368873
0.10433458 -0.16517015 1.1709013 3237543
-0.088982806 -0.14536664 1.1706572 3040164
-0.082388699 -0.14935143 1.171761 3105701
-0.076168023 -0.15401389 1.1759454 3302822
0.099204175 -0.15733698 1.1764157 3303597
0.10669548 -0.155111 1.1720943 3238059
0.11386991 -0.15226965 1.1705054 3303852
-0.091219991 -0.13896635 1.1718225 3106213
-0.083537124 -0.14130118 1.1760448 3172007
0.10787885 -0.14611527 1.1763469 3369387
0.11583213 -0.14609893 1.1725696 3435181
-0.098029219 -0.12847786 1.1694579 3237030
-0.091493629 -0.12940678 1.1738014 3237800
-0.085238606 -0.13308716 1.1761179 3303594
0.10989352 -0.14013104 1.1766094 3500972
0.11844755 -0.13609847 1.1734219 3500976
0.12323721 -0.133304 1.1687119 3500977
-0.098871417 -0.11920531 1.1713213 3237545
-0.094275959 -0.1210598 1.175317 3303852
0.12053562 -0.12667459 1.1767673 3566772
0.12385702 -0.12707564 1.1727729 3566515
-0.10106639 -0.10942043 1.1715466 3369389
0.12170287 -0.11717434 1.1768608 3763639
0.12510933 -0.11630255 1.1719897 3763639
-0.10739119 -0.095351256 1.1697451 3435181
-0.10215093 -0.099242695 1.1729615 3435438
0.12270661 -0.10611477 1.1769685 3895737
0.12770754 -0.10610832 1.1718061 3764149
-0.10668309 -0.088904724 1.170875 3435438
-0.10134647 -0.08974956 1.1749439 3501231
0.12288992 -0.10049421 1.1770222 3961530
0.12841074 -0.096642293 1.1718978 3961528
0.13571353 -0.093474492 1.1691251 3895735
-0.10610197 -0.079673216 1.1715641 3501489
-0.10183723 -0.079617791 1.1744593 3501490
0.1234765 -0.0825084 1.1771945 4159679
0.12904578 -0.087323651 1.1724372 3962041
0.13578635 -0.091241501 1.1691464 3895735
-0.10632862 -0.072311252 1.1706332 3501747
-0.10142612 -0.06930507 1.1733426 3567541
0.1229348 -0.076113969 1.1772535 4225473
0.12662154 -0.076698475 1.1732582 4159424
-0.099318981 -0.05920675 1.1723776 3764919
0.12297421 -0.067237809 1.1773378 4422597
0.12695038 -0.066615716 1.1733547 4357059
-0.098507576 -0.049454235 1.1723009 3896505
-0.093767285 -0.049535915 1.1768854 3962298
0.12319554 -0.056617111 1.177439 4685767
0.12727921 -0.056532975 1.1734512 4422851
-0.096744426 -0.040363777 1.1705635 4027836
-0.091690637 -0.038814247 1.175902 4028094
0.1216729 -0.045948219 1.175418 4948684
0.12752096 -0.047989435 1.1705328 4751818
-0.094779961 -0.032302722 1.1690454 4093632
-0.089115515 -0.029092059 1.1749386 4094399
0.11526133 -0.035352379 1.1776179 5080784
0.11955084 -0.036514133 1.1728189 5211343
-0.08558929 -0.020746201 1.1735451 4094402
-0.078971982 -0.017922036 1.1762273 4226244
-0.072432578 -0.016472958 1.1772598 4620744
-0.018436247 -0.017109968 1.1774082 5412064
0.0040469486 -0.017843768 1.1774657 6463211
0.011989366 -0.021942303 1.1774495 6397929
0.021692643 -0.021617927 1.1774803 6397929
0.030984884 -0.020009033 1.1775222 6003432
0.11256845 -0.025956966 1.175199 5081042
0.11769125 -0.02917815 1.169683 5081041
-0.077343427 -0.010110237 1.1711724 4160963
-0.069255449 -0.009487994 1.1764779 4752075
-0.054116063 -0.00694298 1.1774025 4949201
-0.04738944 -0.0077251866 1.1774144 5016022
-0.037847728 -0.0091504529 1.1767615 5213659
-0.028050115 -0.01036942 1.1762137 5411552
-0.018235983 -0.011476196 1.1766622 5740773
-0.0081355069 -0.011819623 1.1774879 6003172
0.001982036 -0.012142964 1.1771138 6331366
0.012083186 -0.012422204 1.1745398 6989552
0.02217859 -0.01275973 1.1749655 6792432
0.03226177 -0.013075061 1.1743413 5937640
0.040768709 -0.012458898 1.1766217 5806054
0.051518284 -0.011515975 1.1776614 5674725
0.058299899 -0.010611996 1.1776894 5674983
0.10402693 -0.014636375 1.1777821 5146841
0.10999103 -0.0168394 1.1720637 5080789
-0.073662594 -0.0016967207 1.1693959 4554184
-0.070199177 -0.0010116547 1.1724124 4751049
-0.054954097 -0.001269944 1.1754538 4818129
-0.047512867 -0.0015028641 1.1746728 5015507
-0.037967235 -0.0017681494 1.1712974 5147609
-0.027860781 -0.0020810887 1.1700233 5346018
-0.018245028 -0.0028023869 1.1726552 5937898
-0.0078262761 -0.0038913712 1.172897 6462952
0.0026515471 -0.0034767389 1.1720419 8303605
0.012020227 -0.0038758516 1.171049 8501495
0.021842971 -0.0051671341 1.1702517 7252467
0.03316135 -0.0050015673 1.1711248 6069484
0.042337947 -0.0042211488 1.1720197 6135528
0.052423529 -0.0049638897 1.1751378 5741031
0.061810032 -0.0050894842 1.1767517 5543655
0.071323633 -0.0041120723 1.1777883 5477092
0.081426673 -0.003114529 1.1778266 5739747
0.092785016 -0.0037353262 1.1778532 5280481
0.10192563 -0.0066248551 1.1741595 5015513
0.10735409 -0.0087529942 1.171847 4949463
-0.066744849 0.0047836229 1.1694771 4818122
-0.057283878 0.0054683164 1.1695107 5147606
-0.048575372 0.0059292093 1.16954 4818639
-0.039947785 0.0039090216 1.1695455 5344472
0.0047322167 0.0030096024 1.1696649 12971007
0.0091801891 0.0023055896 1.1696709 12905215
0.033744171 0.0015038699 1.1697335 5807584
0.047142707 0.001066573 1.1697677 6004710
0.053235166 0.0018257499 1.1697924 5807083
0.062097073 0.0039932728 1.1719717 5477863
0.070575207 0.0032566711 1.1745224 5542628
0.082273863 -0.00014135987 1.1778573 5673698
0.092905402 0.001485765 1.1764029 5804766
0.098503768 -0.00060974061 1.1698989 5147865
0.065371551 0.011648484 1.1699202 5412324
-0.010868255 -0.19811554 1.1797144 3039650
-0.0044437498 -0.19897044 1.1797247 3039650
-0.030914167 -0.18955746 1.1797382 2842271
-0.024146365 -0.18977836 1.1797554 2973857
-0.013865765 -0.19121796 1.1810344 2973857
-0.0041795596 -0.1932999 1.1823056 3039395
0.0065398999 -0.19170704 1.1816028 3171237
0.015889654 -0.19058648 1.1809291 3237030
0.026246512 -0.19037829 1.1814325 3302569
0.034577176 -0.19078949 1.1812472 3237546
-0.050231449 -0.1784423 1.1797882 2908065
-0.042689487 -0.17965627 1.1797984 2973857
-0.034072362 -0.18171179 1.1808035 2973857
-0.024396224 -0.18394037 1.1819278 2973858
-0.016140357 -0.18505737 1.1838232 3105444
0.015549331 -0.18609166 1.1839042 3237030
0.027293548 -0.18496439 1.1839484 3302825
0.036236249 -0.18479794 1.1836679 3171754
0.046076357 -0.18562147 1.1819959 3171752
0.056430057 -0.18553008 1.1814381 3171753
0.064966172 -0.18268545 1.1810777 3237546
0.073263444 -0.18053725 1.1801218 3303592
-0.061095394 -0.16862461 1.1798502 2908579
-0.05298242 -0.17107961 1.1818503 2908579
-0.043203436 -0.17287816 1.1827703 3105444
-0.034617774 -0.1749377 1.1838663 3105443
0.059983805 -0.17847845 1.1841034 3303339
0.068090923 -0.17645569 1.1828125 3303082
0.076558001 -0.17460242 1.1807588 3237545
0.082581468 -0.17180842 1.1802311 3303850
-0.069751292 -0.15705088 1.1799352 3302822
-0.063289091 -0.16159101 1.1821607 3040165
-0.056293681 -0.16561994 1.1838926 3040167
0.071596831 -0.16979399 1.184219 3303598
0.077789247 -0.16599 1.1833315 3238061
0.086422227 -0.16418961 1.1814255 3303596
0.094192207 -0.16202527 1.1803571 3369131
-0.079183668 -0.14620458 1.180011 3171751
-0.072883904 -0.15005863 1.1814044 3368615
-0.066110566 -0.15397021 1.183975 3171751
0.096216016 -0.15552723 1.1819246 3369134
-0.0809277 -0.13909063 1.1800734 3369130
-0.074884474 -0.14127763 1.1830701 3434922
0.097651944 -0.14591867 1.1835674 3435183
-0.082375646 -0.13045333 1.1814846 3434923
0.10063357 -0.13891897 1.1837946 3501232
0.1074944 -0.13600302 1.1832302 3435694
0.11428728 -0.1344531 1.180676 3501232
-0.090229757 -0.11904454 1.1812369 3369646
-0.084641375 -0.12299884 1.1828821 3435182
0.11151664 -0.12691256 1.1847396 3567282
0.11564358 -0.12649149 1.1825736 3567027
-0.098199591 -0.10606471 1.1803371 3501231
-0.093753017 -0.11016878 1.183061 3435439
0.11177502 -0.11899047 1.1848154 3829686
0.11697359 -0.11632895 1.1830777 3829431
-0.098089233 -0.10268094 1.1803694 3501231
-0.093604065 -0.099601388 1.1820781 3567024
0.11958433 -0.10703363 1.1836177 3830201
-0.09762942 -0.088581949 1.1805044 3632818
-0.094430827 -0.089426309 1.1825056 3698612
0.12204862 -0.096491732 1.183058 3896507
-0.097316742 -0.078994624 1.1805961 3633333
-0.093488246 -0.079342276 1.183404 3764919
0.12221842 -0.086278945 1.1826553 4093886
-0.097481005 -0.070182122 1.1806792 3633334
-0.093423985 -0.069411181 1.1838982 3830201
0.11952791 -0.076568499 1.1834619 4291523
-0.092660658 -0.059114218 1.1824646 3896506
0.11938203 -0.066068023 1.1829387 4619975
-0.08907102 -0.049676094 1.1826119 4028348
0.11387885 -0.054482009 1.1854329 5146320
0.11823552 -0.056836665 1.184423 4883148
-0.087043151 -0.040308788 1.181278 3962814
-0.08202818 -0.039137367 1.183875 3963072
0.11317925 -0.045613144 1.1840149 5146577
0.11689342 -0.047338396 1.1820091 5080527
-0.085372388 -0.031283922 1.1810825 4028607
-0.079146065 -0.029759906 1.1832482 4291526
-0.029192152 -0.029419713 1.1852611 5147865
-0.021715058 -0.029437155 1.1852823 5344731
-0.0053879749 -0.029063687 1.1853325 5345501
0.0014026733 -0.029285319 1.1853499 5739743
0.011508293 -0.031835213 1.1840212 5936862
0.020557459 -0.032142013 1.1843776 5871068
0.030791903 -0.03137745 1.1854142 5739228
0.048937201 -0.030836739 1.1854712 5213656
0.11159362 -0.036674153 1.1839951 4949970
-0.077120416 -0.022350922 1.1811908 4422856
-0.068542413 -0.017883472 1.1830759 4686797
-0.058141582 -0.017095909 1.183295 4884690
-0.047801889 -0.018886767 1.1848077 4950486
-0.03737428 -0.019978561 1.1839938 5213659
-0.028841997 -0.021411285 1.1821378 5279707
-0.018724704 -0.022883207 1.1825529 5345244
-0.0085114148 -0.021582603 1.1825056 5411808
0.0013070861 -0.023015469 1.1823181 5806052
0.010539177 -0.026435152 1.1814029 6068964
0.022558564 -0.027203806 1.18143 6068963
0.032665219 -0.025160603 1.1824014 6003173
0.041171029 -0.023727275 1.1833163 5608417
0.051364042 -0.024074994 1.1839422 5411038
0.058212854 -0.024341889 1.1855593 5279709
0.10294114 -0.02403526 1.1847671 5212630
0.10847218 -0.027791589 1.1830037 5015248
-0.064654514 -0.012313418 1.1813216 4949712
-0.057886705 -0.012534305 1.1813389 4949713
-0.047734998 -0.012865633 1.1813648 5016279
-0.038347535 -0.013548389 1.1813852 5213659
-0.029724309 -0.014582574 1.1814001 5345501
0.043047965 -0.016393155 1.1815912 5871590
0.051526107 -0.016105302 1.1816181 5871847
0.061844938 -0.014227487 1.1836655 5543139
0.069162607 -0.013339378 1.1839806 5280225
0.093666963 -0.014169723 1.1857572 5411294
0.099486753 -0.015749492 1.1832132 5279196
0.071541421 -0.0082901493 1.1817495 5411556
0.081184328 -0.0069111884 1.1817901 5412066
0.092464 -0.007279329 1.1818188 5477344
0.099158227 -0.0097560659 1.1818146 5213404
-0.0030520018 -0.18880031 1.1878254 3105189
-0.023139054 -0.17968452 1.1888545 3039906
-0.013513993 -0.18213834 1.1892873 3039908
-0.0040277578 -0.18362781 1.1912051 3105447
0.0066085821 -0.18317306 1.1886564 3105702
0.015730387 -0.18221393 1.1879417 3171750
0.024725277 -0.18209416 1.1879685 3237289
0.036244929 -0.18061 1.1880156 3237548
0.046465166 -0.18094358 1.1880417 3171752
0.055549823 -0.18124008 1.1880648 3171752
-0.050399944 -0.16732407 1.1878936 3039909
-0.04258088 -0.16831939 1.1887954 3105701
-0.034519874 -0.17124945 1.1904473 3105443
-0.025105594 -0.17696704 1.1918747 3040163
0.0056876531 -0.17705962 1.1919619 3105960
0.017117882 -0.17631745 1.1920017 3105958
0.026262468 -0.17509609 1.1912394 3237545
0.036692947 -0.17436452 1.1901814 3237547
0.046742409 -0.17437461 1.1897048 3237544
0.056808464 -0.17447661 1.1898168 3237545
0.065524183 -0.17276216 1.1888404 3303339
-0.061334834 -0.1575322 1.1879551 3172009
-0.053026594 -0.16099218 1.1903461 3105961
-0.043772347 -0.16352656 1.1919487 3171752
0.04021119 -0.16769329 1.1921495 3303337
0.047047526 -0.16791642 1.1921669 3303593
0.057171114 -0.1672692 1.192202 3303594
0.066462599 -0.16494446 1.1910006 3303596
0.073338322 -0.16363275 1.1882826 3238062
-0.068438366 -0.14877479 1.1880177 3434409
-0.06276536 -0.1507508 1.1908389 3237547
-0.054511227 -0.15340358 1.1920139 3237805
0.067658402 -0.15769047 1.1923229 3238318
0.077049382 -0.15505186 1.1912546 3238572
0.08718013 -0.15515184 1.1896026 3434926
0.09370055 -0.15474871 1.1884251 3369134
-0.070487179 -0.13968314 1.1893289 3435179
-0.064618848 -0.14190838 1.1916494 3369388
0.081898063 -0.14852387 1.1924504 3500977
0.087635167 -0.14516076 1.1914986 3435186
0.093098223 -0.14533195 1.1885126 3500720
-0.078647532 -0.12866676 1.1891792 3566511
-0.073046669 -0.13174599 1.1908327 3566767
-0.065925315 -0.13457477 1.1921597 3500977
0.08934579 -0.13758457 1.1920754 3501234
0.09731821 -0.13537548 1.1893691 3501490
-0.087804861 -0.11517715 1.1882808 3566770
-0.081204839 -0.1200031 1.1908541 3632306
-0.074743174 -0.12516254 1.1922237 3632563
0.099396199 -0.1267924 1.1912947 3699127
0.10688412 -0.12572874 1.1892085 3633076
-0.088833496 -0.10956186 1.1893312 3566770
-0.082869396 -0.11068427 1.1923376 3763892
0.10058043 -0.11776835 1.1927954 3633335
0.10733269 -0.11576983 1.1903892 3764407
-0.088641815 -0.099500053 1.1912271 3698868
-0.084323339 -0.10026459 1.1924323 3699126
0.1015403 -0.10582386 1.1929114 3962811
0.10807708 -0.1061145 1.1917607 3830969
0.11579941 -0.10655752 1.1889451 3830714
-0.089484923 -0.089493625 1.1894425 3699126
-0.084250376 -0.090255439 1.1925273 3830712
0.10909811 -0.096207999 1.1924241 4028606
0.11726303 -0.096536987 1.1890442 3962300
-0.088597715 -0.080038831 1.1902117 3830970
-0.083695389 -0.079899937 1.1926271 3962813
0.10966324 -0.087169193 1.1931114 4291522
0.11756483 -0.086979374 1.1894994 4094399
-0.088571198 -0.069966823 1.1904215 3962044
-0.083713047 -0.070449047 1.1927166 4093630
0.1115974 -0.076479882 1.1929516 4554438
0.11642727 -0.077347457 1.1892238 4357059
-0.087619253 -0.059945602 1.1901382 4093886
-0.083026543 -0.059391771 1.1928234 4291009
0.11011125 -0.065875635 1.1924256 4686026
0.1161434 -0.066133156 1.1893291 4685769
-0.085768014 -0.052722745 1.1888787 4159935
-0.080696501 -0.050445836 1.191772 4225985
0.10317524 -0.055692811 1.1933912 5015248
0.10922547 -0.057139773 1.1907281 5014991
-0.077359825 -0.040724564 1.1911341 4292037
-0.072067812 -0.043129932 1.1930089 4619977
-0.049057074 -0.03703763 1.1931325 5279449
-0.041081354 -0.037297938 1.1931528 5016538
-0.028585223 -0.038846336 1.1931739 4950743
-0.019122606 -0.040832467 1.1931821 4950488
-0.010024738 -0.040972855 1.1932068 5147351
0.00045063347 -0.040364284 1.1932425 5278422
0.010941124 -0.043013845 1.1923586 5212886
0.020312082 -0.042648479 1.1915277 5278423
0.030305702 -0.04214165 1.1920611 5147094
0.041184686 -0.042915776 1.1933349 4885460
0.050717905 -0.041715167 1.1926463 4950741
0.059838839 -0.041504201 1.1934017 5016279
0.10201132 -0.045783117 1.1920817 5212370
0.10937317 -0.047155924 1.1894897 5212369
-0.075051561 -0.03382799 1.1910884 4423370
-0.072874054 -0.030698627 1.1907244 4554187
-0.048426196 -0.03203062 1.1929151 5147610
-0.038544163 -0.031606905 1.191214 5081818
-0.029516993 -0.0341774 1.1912154 5016538
-0.018325476 -0.033106603 1.1913909 5278938
-0.0092042983 -0.03279753 1.19142 5344730
0.0012347391 -0.034006916 1.1903716 5673948
0.011386038 -0.036569003 1.1893097 5805277
0.020470694 -0.036865506 1.1893328 5541848
0.030727968 -0.036063518 1.1893698 5475544
0.041022271 -0.034126028 1.1894176 5213397
0.051649205 -0.035102956 1.1901447 5082070
0.061355785 -0.034653902 1.1918709 5016536
0.070355937 -0.03278818 1.1935143 5213915
0.081130601 -0.032162242 1.1935512 5279453
0.092053868 -0.032974966 1.1935747 5213659
0.10139558 -0.036185768 1.1919709 5212628
0.10802162 -0.036312755 1.1895887 5146833
-0.07235077 -0.024742067 1.1891822 4554443
-0.047081597 -0.023748003 1.1892639 5016281
-0.0398435 -0.024893634 1.1892738 5147611
-0.0087581705 -0.02681759 1.1893445 5411294
0.062174581 -0.024585724 1.1895686 5148123
0.070891783 -0.024876714 1.1897907 5213915
0.080910623 -0.025448352 1.1913532 5213917
0.091661915 -0.025738887 1.191958 5213659
0.099612519 -0.027712971 1.1899794 5212887
0.092678972 -0.018760845 1.1897111 5279708
0.0972213 -0.018909097 1.1897227 5411037
-0.019513791 -0.17794061 1.1968817 3106213
-0.013793048 -0.17812732 1.1968963 3105959
-0.0025363322 -0.17914918 1.1969188 3105706
0.0079457816 -0.17883682 1.1969517 3105960
-0.03015933 -0.17072125 1.1969197 3105700
-0.022776684 -0.17222047 1.1976767 3105957
-0.013618737 -0.17251936 1.1977 3106216
-0.0033199657 -0.17298464 1.1985751 3106217
0.0073334738 -0.17281508 1.1984358 3171752
0.015244277 -0.17257565 1.198123 3303337
0.026550669 -0.1702815 1.1970861 3369130
0.033415563 -0.17050555 1.1971036 3369132
-0.042390592 -0.15910676 1.1973281 3171753
-0.032806531 -0.16185933 1.1997162 3171752
-0.022534357 -0.16249801 1.2018197 3172010
-0.013398379 -0.16408601 1.2027808 3172012
-0.003354324 -0.1640062 1.2036058 3237802
0.0073327119 -0.16364706 1.2030944 3303338
0.016530484 -0.16397735 1.2033175 3369133
0.026852746 -0.16406241 1.2016262 3369388
0.036995646 -0.16405036 1.2009647 3303853
0.046320759 -0.16315779 1.1989603 3369643
0.056453951 -0.1626671 1.1974791 3303851
-0.059733011 -0.14684966 1.1970613 3303598
-0.051725104 -0.14995819 1.1987692 3303341
-0.043231763 -0.15201437 1.2022027 3303340
-0.033946976 -0.15378979 1.2050698 3369132
-0.025841387 -0.15594098 1.2050725 3303600
0.0075597661 -0.15703112 1.2051578 3303598
0.020229168 -0.15744463 1.2051901 3435186
0.027715635 -0.15768896 1.2052093 3369391
0.037505627 -0.15800849 1.2052342 3369392
0.047410376 -0.15540811 1.2046717 3369390
0.057019442 -0.15461239 1.201122 3435184
0.066464804 -0.15325911 1.1973616 3369392
-0.060458899 -0.13982639 1.1979259 3369646
-0.053420901 -0.14243118 1.2027216 3303853
-0.04627265 -0.1460506 1.2051078 3173034
0.049614206 -0.14733544 1.2053699 3566773
0.057840481 -0.14628643 1.2047368 3566516
0.0677168 -0.14469254 1.2018467 3500977
0.077615388 -0.14563887 1.1991501 3500975
-0.070229277 -0.12752751 1.1972145 3632562
-0.061464339 -0.13092333 1.2002075 3501236
-0.053973161 -0.13139649 1.2047802 3501494
0.070227697 -0.13572939 1.205539 3698612
0.077786356 -0.136289 1.2031915 3567283
0.086731374 -0.13410762 1.2005347 3567283
0.094254576 -0.13125974 1.1976497 3501747
-0.077106573 -0.11764964 1.1972884 3895478
-0.071617201 -0.12039635 1.1997782 3698613
-0.062776268 -0.12168775 1.2039582 3633080
0.071883373 -0.12915403 1.205606 3699128
0.078543596 -0.12617864 1.2056533 3830713
0.088035695 -0.1260874 1.2044812 3699126
0.094921194 -0.1248677 1.1977122 3633333
-0.078152992 -0.10959825 1.1973617 3961271
-0.071438864 -0.11032947 1.2023742 3896247
-0.064800918 -0.11316352 1.2053665 3764921
0.078663789 -0.11922943 1.2057195 3962300
0.089604639 -0.11706807 1.2053007 3896506
0.097220421 -0.11536162 1.199809 3764920
-0.079215482 -0.1002553 1.1989473 3830712
-0.072361365 -0.10010857 1.2041353 4093627
0.092920676 -0.10632062 1.2058827 4028352
0.098346718 -0.10583608 1.2005692 3962812
-0.079280503 -0.089936487 1.199545 3962556
-0.072900459 -0.091337763 1.2051058 4028606
0.092733279 -0.09590508 1.2059808 4357317
0.099147238 -0.096262962 1.2019956 4225985
0.1046764 -0.092659026 1.1980454 4225985
-0.07849545 -0.080949016 1.1996324 4028606
-0.073756196 -0.081357494 1.2056423 4094655
0.093521655 -0.087893166 1.206059 4554695
0.099437922 -0.085880414 1.2014948 4554182
0.10571279 -0.084293842 1.1981276 4619462
-0.078825966 -0.070264861 1.1982032 4159424
-0.070841417 -0.069602221 1.2045313 4160448
-0.064487785 -0.068209015 1.2057935 4554440
0.094418064 -0.074548297 1.2061881 4620747
0.099960305 -0.07572481 1.2039427 4686026
0.10634296 -0.076678954 1.1982015 4619977
-0.077889867 -0.060622428 1.1978266 4291265
-0.06984593 -0.060946763 1.2030969 4357573
-0.06426242 -0.061298717 1.2058597 4751563
0.0099220388 -0.06102974 1.2060745 4818903
0.017625505 -0.060512535 1.2061014 4819160
0.092853211 -0.065965451 1.206265 4752590
0.10025785 -0.066528141 1.2040306 4817869
0.10545997 -0.068632908 1.1982753 4752076
-0.075590894 -0.051106986 1.1979234 4291778
-0.0695884 -0.05063609 1.2015243 4554440
-0.063999489 -0.053236708 1.2059368 4883149
-0.045176938 -0.046735022 1.2020521 5674209
-0.03943716 -0.046922356 1.2020668 5082331
-0.028177192 -0.050148468 1.2039351 4950745
-0.018912213 -0.052163962 1.2014757 4884953
-0.0097284522 -0.052452635 1.2012993 4753366
0.000627473 -0.051704828 1.2025361 4884692
0.011158673 -0.053663976 1.2017032 4884692
0.019935898 -0.053234018 1.2023873 4884692
0.030159853 -0.052400175 1.2048807 4950484
0.041067366 -0.053689893 1.2031219 4950488
0.049848191 -0.053725909 1.2041402 4950489
0.060493924 -0.052635238 1.205232 5411037
0.069476821 -0.052693076 1.2063239 5542623
0.083651654 -0.051138066 1.2063792 5213404
0.09133216 -0.054271102 1.2063714 5081558
0.099570349 -0.056758661 1.2039713 5015248
-0.070019349 -0.040817343 1.1980369 4685772
-0.047792055 -0.041089091 1.1991889 5542365
-0.03883253 -0.041562479 1.199262 4951002
-0.030102374 -0.042863861 1.1981317 4884951
-0.020906223 -0.04503816 1.1981374 4753366
-0.007139124 -0.044342175 1.1981834 4950484
0.0017186999 -0.044917598 1.1982033 5015763
0.031724624 -0.046755917 1.1982718 5015764
0.038589519 -0.046979975 1.1982893 4885461
0.050553344 -0.046388745 1.1983291 4884950
0.061366484 -0.045695201 1.2002128 5082072
0.070766628 -0.044890814 1.2032014 5542624
0.080297209 -0.046383243 1.2056146 5279197
0.090492472 -0.045439828 1.2028526 5213144
0.097728759 -0.048146602 1.1984473 5212627
0.065203458 -0.038686041 1.198444 5016538
0.070980161 -0.037156601 1.198475 5213917
0.080595575 -0.034988903 1.198523 5345245
0.090863325 -0.037641365 1.1991941 5213917
0.18192722 -0.042816155 1.2067392 13158081
-0.013309954 -0.15922013 1.2090776 3303598
-0.00059866905 -0.15963499 1.20911 3303850
-0.041390307 -0.14766151 1.2091068 3303853
-0.031677999 -0.14957882 1.2094736 3304111
-0.022186542 -0.15202528 1.2112257 3303857
-0.013125634 -0.15265211 1.2118905 3303856
-0.0027043894 -0.15302607 1.2121668 3369903
0.0077541303 -0.15181033 1.209208 3435441
0.016786491 -0.15301836 1.2092224 3435187
0.027279817 -0.15272301 1.2092552 3500978
0.037798986 -0.15279092 1.2092848 3369649
0.044554058 -0.15139195 1.2093173 3435441
-0.049312651 -0.13992262 1.2091575 3370159
-0.042789534 -0.14090669 1.2091668 3370416
-0.032454364 -0.14152852 1.2114406 3436469
-0.02210355 -0.14221567 1.2142138 3502005
-0.012820901 -0.14251864 1.2142375 3501749
-0.0024914481 -0.14634031 1.2142308 3501493
0.0080628088 -0.14303821 1.2130423 3567542
0.017345652 -0.1434627 1.2140024 3567541
0.027760811 -0.14365013 1.2128428 3633333
0.038124636 -0.1436637 1.2103097 3567541
0.04674311 -0.14320597 1.2094011 3633079
0.056846224 -0.14134932 1.2094476 3632566
-0.049421474 -0.1314362 1.2092376 3501750
-0.042584337 -0.13195424 1.2117524 3567798
-0.034216166 -0.13279626 1.2142684 3633848
-0.020754015 -0.13645214 1.2142723 3633591
-0.013792029 -0.13667937 1.21429 3699128
0.0082920976 -0.13623862 1.2143574 3830714
0.018735075 -0.13657947 1.2143841 3764921
0.028259652 -0.13593999 1.2144175 3830712
0.038841099 -0.13536686 1.214096 3830713
0.047557727 -0.1353481 1.2138115 3830458
0.057895541 -0.13540037 1.2118756 3764409
0.066071048 -0.13411348 1.2100983 3764407
-0.058080688 -0.1202801 1.2093185 3698874
-0.051497556 -0.12120121 1.2115787 3764923
-0.042973861 -0.12219867 1.2143438 3765435
-0.03669592 -0.12663969 1.2143197 3699641
0.0569041 -0.12969458 1.2145586 3896252
0.067180797 -0.12553409 1.2120082 3831226
0.074563846 -0.12507203 1.2096527 3830458
-0.060414232 -0.11076181 1.2101916 3896508
-0.051288292 -0.1110637 1.2144256 4028352
-0.043420747 -0.11201739 1.214439 4094143
0.068776749 -0.11566603 1.2111539 4159936
0.078141131 -0.11470089 1.2097611 4028352
0.086216941 -0.11359564 1.2097948 3962559
-0.068086363 -0.10075144 1.209475 4093628
-0.061191455 -0.10104796 1.210242 4028352
-0.050970152 -0.10175335 1.2142022 4094401
-0.04420267 -0.1003767 1.2145472 4225986
0.070534565 -0.10656533 1.2134531 4357317
0.078837529 -0.10580946 1.2126601 4225732
0.087692216 -0.10560436 1.2098747 4159938
-0.068759218 -0.090979695 1.2095658 4028609
-0.060589589 -0.091331989 1.2109494 3963330
-0.051272646 -0.091728359 1.2146089 4160708
-0.044956863 -0.095009096 1.2145959 4292035
0.073586084 -0.093070492 1.2149534 4620236
0.078950167 -0.09596514 1.2135524 4488649
0.087408565 -0.096839368 1.209957 4357318
-0.069581009 -0.080707349 1.2096608 4160449
-0.061000183 -0.081200331 1.2133764 4160708
-0.051719531 -0.081547081 1.2147042 4489161
0.080360197 -0.08673311 1.2139614 4555212
0.08868707 -0.085740678 1.2100658 4620489
-0.16143131 -0.069138795 1.2145078 14082013
-0.067964852 -0.073378906 1.2097348 4226242
-0.05979792 -0.071378753 1.2122773 4620234
-0.052646078 -0.069591925 1.2148148 5079759
-0.018597083 -0.070316039 1.2149054 6791922
-0.010436933 -0.069420852 1.2149372 5608162
6.0433522e-006 -0.069761693 1.2149638 5016279
0.010059822 -0.07211066 1.2136066 5608413
0.018552417 -0.070947766 1.2150056 4950485
0.025533322 -0.070594847 1.215029 5016277
0.08343634 -0.075969227 1.2151437 4752847
0.089345716 -0.07614217 1.2119235 4620747
-0.060176656 -0.062438872 1.2108608 4948687
-0.049812496 -0.065812685 1.2148588 5408980
-0.028150937 -0.063366704 1.2130207 6134248
-0.019478654 -0.063167989 1.2124704 5344990
-0.01055531 -0.063647293 1.2128485 4884696
0.00060567074 -0.064055815 1.2129607 4818902
0.011027701 -0.065623388 1.2100344 4818646
0.020185046 -0.064844877 1.2107823 4818646
0.030300526 -0.064744994 1.2118479 4884696
0.040397935 -0.0645805 1.2119141 5344733
0.049645506 -0.064859852 1.2115808 5936870
0.059374817 -0.064680986 1.2143484 5608416
0.068490818 -0.064098567 1.2152134 5082072
0.081267118 -0.065261692 1.2122388 5016278
0.087564223 -0.066964626 1.2102406 4884178
-0.028482767 -0.056930635 1.2100037 5082331
0.00040651578 -0.057873521 1.2100774 4687574
0.023517948 -0.058627825 1.2101364 4687574
0.0314634 -0.058226146 1.2101629 4819159
0.038540371 -0.059118126 1.2101747 4950233
0.051251665 -0.059532996 1.2102071 5542369
0.060024522 -0.058534041 1.2102417 5805540
0.072935387 -0.056770444 1.2102954 5213659
0.080254003 -0.057009313 1.210314 5147866
0.089050576 -0.05922433 1.2103182 5081557
-0.0023666769 -0.1422016 1.2182705 3633335
-0.029537538 -0.1307209 1.2183017 3699641
-0.022031942 -0.13141455 1.2183166 3765177
-0.012330472 -0.13192183 1.2199867 3830714
-0.0020812657 -0.13322502 1.2212367 3962299
0.0084904749 -0.13097893 1.2190747 4028092
0.017279847 -0.1320546 1.2187086 3962300
0.026799258 -0.13200717 1.219178 3962299
0.036391903 -0.13103166 1.2207097 3962299
0.048830144 -0.13035473 1.2185293 3896509
0.058624089 -0.13020825 1.2185588 3830714
-0.038935736 -0.12003214 1.218376 3962813
-0.032441467 -0.1219919 1.2201539 3962813
-0.021539668 -0.12358544 1.2223924 4028350
-0.012371533 -0.12601036 1.2223957 4093886
-0.0053638592 -0.12623908 1.2224135 4093886
0.0087657562 -0.12319283 1.2224828 4291263
0.018109323 -0.12349778 1.2225066 4291265
0.027452886 -0.12380274 1.2225305 4291265
0.0379644 -0.12414581 1.2225573 4225471
0.048385583 -0.12421092 1.2200863 4159424
0.057649776 -0.12434981 1.2186115 4028351
-0.039796144 -0.11068143 1.2184622 4159681
-0.034328699 -0.11264044 1.2213686 4159937
0.0090323798 -0.11501755 1.2225611 4685507
0.018640008 -0.11439581 1.2225945 4685766
0.027516395 -0.11468552 1.2226171 4685768
0.039532848 -0.11516274 1.222647 4685254
0.048771173 -0.11511919 1.2224238 4553924
0.057963468 -0.11506221 1.2189504 4357059
0.063850127 -0.11289889 1.2187377 4291524
-0.040518813 -0.10272463 1.218869 4291267
-0.034715354 -0.10205664 1.2217587 4291525
0.019772427 -0.10835324 1.2226551 5080013
0.026780102 -0.10858195 1.2226729 5013964
0.042115755 -0.10440592 1.2227564 5014215
0.049123436 -0.10463464 1.2227743 4948424
0.058431573 -0.10486103 1.2219987 4686025
0.066070884 -0.10449437 1.2204239 4554696
-0.047261745 -0.089461856 1.218642 4423366
-0.041810006 -0.091817304 1.220502 4489158
-0.035908081 -0.09484455 1.2226237 4554697
0.042458553 -0.093894847 1.222857 6725605
0.049692206 -0.094364762 1.2228732 5541334
0.058809794 -0.094428517 1.2228987 4949456
0.068754457 -0.095898472 1.2213893 4752076
-0.048122168 -0.080111139 1.2187282 4751821
-0.042441793 -0.081667796 1.2213964 4817612
-0.016687699 -0.079103902 1.2228279 6133729
-0.014351808 -0.079180136 1.2228339 5804510
0.010149661 -0.080759242 1.2228889 6726116
0.018350676 -0.080247477 1.2229173 6791913
0.031198077 -0.080666788 1.2229501 5673696
0.039791211 -0.08406496 1.2229425 5344728
0.050938889 -0.084818505 1.2229673 5475805
0.059114508 -0.08508534 1.2229881 5147095
0.069560096 -0.085334733 1.2218156 4949712
0.078243777 -0.082487457 1.2190672 4621777
0.18653485 -0.085736647 1.2233465 11781308
-0.050260618 -0.074214704 1.2187779 4883150
-0.04127229 -0.072565854 1.2188193 6001884
-0.030356376 -0.071368352 1.2188618 6133474
-0.018836806 -0.074657053 1.2204638 6067939
-0.010968287 -0.074198961 1.2199814 6594284
9.1989525e-005 -0.073288672 1.2200217 6002915
0.010950273 -0.076911688 1.2189275 6857704
0.020028796 -0.075197555 1.2196364 6397928
0.029238012 -0.074845508 1.2208662 6397674
0.038264506 -0.075333118 1.2214208 6002659
0.050268084 -0.075450242 1.2219874 5476060
0.059343286 -0.075621456 1.2213284 5213402
0.069849357 -0.077193752 1.2222936 5081814
0.079957083 -0.076445818 1.2197448 4818898
0.18961659 -0.080868378 1.2234014 12896707
0.043136194 -0.06910567 1.2190936 6331369
0.052449301 -0.069409631 1.2191174 5805025
0.059434131 -0.069637604 1.2191352 5213658
0.07046251 -0.068961702 1.2191732 5213658
0.078789204 -0.069337048 1.2191935 5082070
-0.028633839 -0.11899857 1.2274158 4160192
-0.021847451 -0.11968963 1.2274287 4159936
-0.012292463 -0.12187973 1.2274354 4225472
-0.001372708 -0.12301873 1.2274557 4225471
-0.028971603 -0.11135717 1.2274873 4160194
-0.021368144 -0.11219229 1.2275012 4291265
-0.011986505 -0.11249848 1.2275251 4422851
-0.0014441749 -0.11303321 1.2294703 4685254
0.0092369206 -0.10966945 1.2276126 4882628
0.015100447 -0.10986083 1.2276276 4817092
0.031518318 -0.11039667 1.2276695 4948684
0.036699876 -0.11350055 1.2276549 4816582
-0.029421957 -0.10116864 1.2275826 4291525
-0.02102864 -0.10166063 1.227852 4422855
-0.011668565 -0.10212579 1.2296244 4619977
-0.0011083242 -0.10262012 1.2312499 4883149
0.0094663873 -0.10263352 1.22768 5146063
0.018848028 -0.10293972 1.2277039 5211603
0.028229669 -0.10324591 1.2277279 5145806
0.036438599 -0.10351384 1.2277488 5014214
-0.036847778 -0.090087228 1.2276664 4555210
-0.030099632 -0.091950938 1.227668 4686540
-0.021103078 -0.092894748 1.2293992 4883407
-0.011430239 -0.094077364 1.2317014 5014738
-0.0008416269 -0.094422951 1.2317284 5541336
0.0097766696 -0.093357757 1.2290188 5672923
0.019155994 -0.093579508 1.2280436 5935587
0.028535623 -0.093864664 1.2278177 6132702
0.036744557 -0.094132587 1.2278386 7120103
0.046240933 -0.090920821 1.2278962 8699647
