# .PCD v0.7 - Point Cloud Data file format
VERSION 0.7
FIELDS x y z rgba
SIZE 4 4 4 4
TYPE F F F U
COUNT 1 1 1 1
WIDTH 1129
HEIGHT 1
VIEWPOINT 0 0 0 1 0 0 0
POINTS 1129
DATA ascii
-0.10858227 -0.16627832 1.1236758 2775446
-0.10389832 -0.1701892 1.1265385 2775442
0.1473202 -0.15652138 1.1213098 3105445
0.15207142 -0.15553324 1.1161526 2578854
-0.11093996 -0.15915376 1.1257459 2775449
-0.10647474 -0.16123462 1.1301806 2906778
0.1491558 -0.14658271 1.1224484 3564451
0.15233837 -0.14551193 1.1183343 3433893
-0.11522305 -0.15067168 1.1268269 2840984
0.15025234 -0.13829854 1.1238432 3565217
0.15376385 -0.13609606 1.1183615 3499430
-0.12076023 -0.13908835 1.1234401 2841497
-0.11751842 -0.14057691 1.1293848 2907290
0.15552728 -0.12531984 1.1204185 3237547
-0.12140591 -0.12962314 1.1248586 2973083
-0.11852871 -0.12986532 1.1291859 3038877
0.15812398 -0.11545932 1.1213193 3827369
0.16055086 -0.11438691 1.115043 3564710
-0.12296547 -0.11970039 1.1259497 3039391
-0.12012 -0.12138967 1.1297178 3170977
0.15784213 -0.10537691 1.1209315 3565735
0.16008855 -0.10584487 1.1148748 3500198
-0.12347415 -0.11148314 1.127934 3170977
0.15760329 -0.096372932 1.1200802 3631790
0.15885039 -0.097934447 1.1227467 3434923
-0.12422708 -0.1009765 1.1267316 3302823
0.15665355 -0.084953614 1.1200315 3566513
-0.12477386 -0.091017842 1.1252017 3368614
0.1552512 -0.075759917 1.1199143 3632560
-0.12465009 -0.083269119 1.126368 3565995
0.15346996 -0.06569916 1.1184783 3895728
-0.12248839 -0.068054162 1.127586 3697842
0.15055655 -0.055913992 1.1168848 4158132
-0.12131268 -0.059701014 1.1261389 3502262
0.14888474 -0.045298096 1.1179073 4027837
-0.1192023 -0.050073054 1.1252894 3698611
0.14353175 -0.034046084 1.1218209 4619197
0.14933965 -0.036947757 1.116178 4946612
-0.12590346 -0.044058181 1.1215694 7180220
-0.11829011 -0.040506743 1.1284854 4815032
0.14307794 -0.027593568 1.1210299 5209534
0.1474943 -0.025746644 1.1135292 8425655
0.012463246 0.089711361 1.1148607 9474444
-0.049269572 -0.22307122 1.138229 8300241
-0.067996599 -0.21594042 1.1349634 7642055
-0.060421959 -0.21615097 1.1368935 4815810
-0.053446732 -0.21920234 1.1382639 5210825
-0.07777296 -0.20454255 1.1346315 932767
-0.070582658 -0.20757264 1.1361798 2382238
-0.061751045 -0.21009769 1.1383033 2251168
0.12125836 -0.19704235 1.1329044 6518691
0.1269898 -0.19573617 1.1312869 11319227
-0.079809554 -0.19786492 1.1364148 2447513
-0.074177898 -0.20099674 1.1384581 2513045
0.1283969 -0.18742071 1.1314473 4617903
0.13534671 -0.18712288 1.1282973 10929103
-0.089856744 -0.1873703 1.1360611 2971544
-0.083736651 -0.19080174 1.1365083 2774929
0.1299478 -0.1780704 1.1305913 2909086
0.13472846 -0.17691056 1.1280981 3105187
-0.09813112 -0.17463434 1.1345673 2709911
-0.093178838 -0.17938882 1.1368837 2644371
0.13573115 -0.16701698 1.128476 3368356
-0.10076446 -0.1681163 1.136322 2775444
-0.095557302 -0.17194948 1.1371065 2709910
0.13963735 -0.15690987 1.1291376 3368613
0.14363143 -0.1537585 1.1273581 3499683
-0.10444415 -0.15973881 1.135929 2841497
0.14109747 -0.14931843 1.1313373 3237027
0.14559723 -0.1464171 1.1284815 3302821
-0.11101657 -0.14850384 1.1349456 2645144
-0.10737349 -0.14998722 1.1374164 2775964
0.14819826 -0.13631451 1.1290436 3237542
0.15206195 -0.1325402 1.1280065 3106215
-0.11327304 -0.14019787 1.1357163 2907291
0.14906664 -0.12669423 1.1293005 3499683
0.1520133 -0.12458332 1.1276485 3303338
-0.1147666 -0.13032104 1.1364948 3039134
0.15317383 -0.11601399 1.1277034 3499947
-0.12074462 -0.11637165 1.1339649 3236770
-0.11826424 -0.12046867 1.1373177 3236770
0.15434588 -0.10542269 1.1278527 3500458
-0.12109475 -0.10990237 1.1338376 3237027
-0.11924078 -0.11008668 1.137792 3302821
0.15615134 -0.09475486 1.1280438 3632048
-0.12161994 -0.10019845 1.1336465 3302824
-0.11973855 -0.10088953 1.1376109 3302569
0.15394355 -0.085975058 1.1278155 3632047
-0.12254134 -0.091164544 1.1334808 3434408
-0.11978547 -0.088567816 1.137351 3434665
0.14994988 -0.075135462 1.1273336 4026292
-0.12267032 -0.080790609 1.1332644 3631531
-0.12088048 -0.079790212 1.1371956 3631531
0.14958709 -0.067193717 1.1258008 4157366
-0.12302046 -0.07432133 1.1331371 4025255
-0.12008868 -0.06899026 1.1352291 3632304
0.14840193 -0.055461694 1.1251405 4289211
-0.11713627 -0.059840154 1.1343807 3568048
0.14468838 -0.044865813 1.1256869 4094399
0.14728984 -0.049093004 1.1270379 4224702
-0.11620441 -0.053771351 1.1325107 3764911
-0.11293353 -0.049226861 1.1348243 3895729
0.14170341 -0.036578357 1.1263831 4487616
-0.11831085 -0.035696924 1.1351882 6458567
-0.11319709 -0.039212342 1.1345192 3895996
0.14100735 -0.025585286 1.1251143 5735616
0.14767091 -0.021979347 1.1244512 9477559
-0.1179896 -0.032973856 1.1361221 6852289
-0.1147442 -0.032800071 1.1360276 5933254
0.046068549 0.077469818 1.1251864 9474701
-0.011672974 -0.23128581 1.1493584 7248329
0.021177799 -0.23113605 1.1476352 5801654
0.029110104 -0.22959101 1.1468468 5210039
0.041953456 -0.22951081 1.1478199 6328255
0.049605917 -0.22910103 1.147597 7379645
0.061138779 -0.22836161 1.1472585 8430007
0.068867855 -0.22625074 1.1429949 8625323
-0.05017224 -0.22536913 1.1423055 9678537
-0.039183967 -0.22465402 1.1485132 4422071
-0.029785374 -0.22479886 1.1497278 2778029
-0.019942129 -0.22608897 1.1494796 2513574
-0.012195183 -0.2283895 1.1493115 2315684
0.017725317 -0.22751838 1.1484557 2120102
0.029750617 -0.22687444 1.1481055 2185635
0.042809948 -0.22507855 1.1477019 2186146
0.048335172 -0.22587925 1.1475642 2316696
0.063521743 -0.22287285 1.1470754 4486314
0.070991084 -0.22211684 1.1448491 5997746
0.081984065 -0.21854803 1.1453234 6063288
0.090591595 -0.2165983 1.1461848 6589614
0.09869317 -0.21638379 1.1459534 8757678
-0.05624669 -0.21371579 1.1422285 1855898
-0.049311303 -0.21579251 1.1453185 2249885
-0.041404203 -0.21760264 1.1491727 2381985
-0.033154085 -0.21927695 1.1497051 3039902
0.084277131 -0.2113438 1.1462501 2841504
0.090260193 -0.21047512 1.1460642 3302564
0.099649951 -0.20774022 1.1444093 4420011
0.10926764 -0.20647727 1.1397296 6984117
0.11847682 -0.20327063 1.1371168 6254993
-0.067919128 -0.20379202 1.1431452 2710418
-0.059930384 -0.20656182 1.1465635 2775447
-0.053019792 -0.20836833 1.1492292 2906776
0.10169323 -0.19970962 1.1451157 3171492
0.11003618 -0.19794257 1.142043 3237285
0.11817414 -0.19637427 1.1375508 3629215
-0.071064986 -0.19692416 1.1470902 2775191
-0.062683642 -0.19992161 1.149454 2906012
0.11153577 -0.18861535 1.1433376 3040421
0.11828151 -0.1866357 1.1397188 3105703
0.12410894 -0.18663453 1.1366065 2777257
-0.087262236 -0.18379658 1.1424623 2710677
-0.080199301 -0.18723851 1.1458691 2709909
-0.073728822 -0.19045636 1.1482283 2709910
0.11907861 -0.1781328 1.1430973 3368100
0.12642552 -0.17598858 1.1384505 3302561
-0.0887549 -0.17726281 1.1454785 2710421
-0.083709978 -0.17976782 1.1494818 2644886
0.12075474 -0.17024201 1.1443577 3040936
0.1285574 -0.16676249 1.1419773 3237031
0.1347125 -0.1635856 1.1388228 3368615
-0.099176072 -0.16483316 1.1423936 2776209
-0.093379006 -0.16891617 1.1470709 2841240
0.1301863 -0.15813744 1.1438371 3237287
0.13636702 -0.15567845 1.138466 3302822
-0.10040751 -0.15814914 1.1468225 2710683
-0.09546411 -0.16112581 1.149549 2841499
0.13824241 -0.14709999 1.1407878 3237541
0.14295229 -0.14420448 1.1367805 3237798
-0.1029777 -0.14970845 1.1473254 2907293
0.13952303 -0.13820335 1.1431532 3237797
0.143971 -0.13551714 1.1379687 3303334
-0.11001822 -0.13845231 1.1432813 2907805
-0.10756546 -0.13983998 1.149303 2907805
0.14537382 -0.12601687 1.1402851 3434407
-0.11097668 -0.12915476 1.1446358 3039392
-0.10814963 -0.13008226 1.149913 3039391
0.1467932 -0.11635874 1.1399136 3500202
0.15062726 -0.1133427 1.1343104 3631274
-0.11456379 -0.12013107 1.1464127 3170979
0.14824644 -0.10595887 1.1417807 3631791
0.15144037 -0.10533201 1.1358967 3566510
-0.11549339 -0.10979473 1.1474012 3105957
0.14679089 -0.094932921 1.1403646 3632305
0.15191169 -0.09587504 1.1342376 3501227
-0.11647986 -0.099854283 1.144931 3237546
0.14581949 -0.085919745 1.1393214 3698099
0.15030754 -0.08615905 1.1341432 3698094
-0.11637788 -0.090083756 1.1449592 3434923
0.14656778 -0.07658346 1.1396483 3895479
0.14874673 -0.078596458 1.1336263 3895477
-0.1165473 -0.079610258 1.1453613 3566256
0.14625278 -0.06525737 1.1407512 4027579
0.14861777 -0.06461978 1.137336 4157882
-0.11605692 -0.070677876 1.1444014 3567024
0.14368713 -0.055855092 1.1401136 4159422
0.14789289 -0.055863936 1.1355697 4289724
-0.1143394 -0.060779907 1.1419461 3567791
-0.11119695 -0.058570243 1.1471479 3764403
0.14139648 -0.045957047 1.1384767 4356797
-0.110112 -0.049685497 1.1408303 3830196
0.13819477 -0.036552139 1.1374329 4619718
-0.10916533 -0.038673688 1.1429093 3896507
0.13348249 -0.024887249 1.1378068 4817095
0.13794287 -0.025289819 1.1344663 4948420
-0.11722484 -0.029898673 1.1440405 6916535
-0.10972939 -0.030034304 1.1435257 5210049
0.1323512 -0.018507019 1.1398156 5013440
0.13671607 -0.01790157 1.1373458 5998788
0.028093234 0.049996279 1.1371359 5859448
0.036219738 0.050472356 1.13504 6122362
0.041846402 0.050961457 1.137874 6319482
0.052981645 0.052904747 1.1415236 5330522
0.028391186 0.054434992 1.1355087 5792108
0.036141872 0.055685766 1.1347315 5527648
0.041610513 0.055319943 1.1377882 5067354
-0.0058569685 -0.2308878 1.1521889 4354997
0.0016004499 -0.23147783 1.153994 4684224
0.011422896 -0.23068604 1.1522347 4289976
0.022242693 -0.22781244 1.1513373 2054307
0.032684937 -0.22780299 1.1510447 2777510
0.038224578 -0.22860584 1.1509068 4026798
0.054665484 -0.22772545 1.1504279 5604271
0.058412693 -0.22587559 1.1502838 4881326
-0.02536259 -0.22156599 1.1525372 3039902
-0.017363971 -0.22204682 1.1528238 2710943
-0.0087290667 -0.22344065 1.1554178 2645152
0.0013794936 -0.22569484 1.158547 2514339
0.011282083 -0.22507134 1.1577231 2514851
0.021003718 -0.22207218 1.155853 2842787
0.030786801 -0.22116742 1.1533587 2908579
0.040432934 -0.22024581 1.1535584 3039651
0.050677679 -0.22037928 1.1543863 2908578
0.059956715 -0.21901435 1.1538475 2778020
0.069815733 -0.21686855 1.1512032 2646433
0.079479329 -0.21906698 1.1495498 5012145
0.091057189 -0.21972969 1.1492399 8955830
-0.03881707 -0.21385109 1.1530361 2841242
-0.028822741 -0.21535096 1.1548371 2775960
-0.019707529 -0.21610165 1.1565324 2841500
-0.010095099 -0.21768826 1.1600326 2907551
0.021503489 -0.21525815 1.1590967 3105184
0.030680791 -0.2143977 1.1588216 3170722
0.040613782 -0.21386579 1.1585324 3302053
0.050700843 -0.21277213 1.1582268 3170723
0.061135888 -0.21129076 1.1579033 3105188
0.070360146 -0.21003607 1.1559032 3170467
0.079829484 -0.20939562 1.1517365 3236258
0.089715868 -0.20545822 1.1494195 3171236
-0.056024216 -0.20341766 1.1530106 2906776
-0.049352638 -0.20527701 1.1540068 2907033
-0.040761605 -0.20573062 1.1574688 2841497
-0.031214649 -0.20922446 1.1604443 2775704
0.071098216 -0.20448381 1.1574802 3105443
0.079927541 -0.20401101 1.1572231 3105443
0.090466455 -0.19974907 1.1555738 3105956
0.098563746 -0.19651061 1.1517395 3105956
-0.067578152 -0.19304179 1.153114 2644884
-0.060245015 -0.19616286 1.1559768 2775705
-0.051659293 -0.19852673 1.1584549 2841497
0.093677752 -0.19220386 1.1565878 3172006
0.10116497 -0.18943745 1.1553191 3040421
0.10682054 -0.186831 1.152604 2974628
-0.076821305 -0.18474111 1.1531967 2645144
-0.070009492 -0.1860866 1.1560954 2710425
-0.064526588 -0.1884881 1.1575063 2776216
0.10982202 -0.17801476 1.1525832 3171493
0.11458337 -0.17558843 1.1492466 3237026
-0.08021538 -0.17684437 1.1557142 2710424
-0.073627487 -0.17862587 1.1595272 2710937
0.11246833 -0.17127013 1.1556182 3302823
0.11847907 -0.16692007 1.1521978 3172005
0.12407116 -0.16349259 1.151126 3172006
-0.089560829 -0.16599956 1.1531559 2841498
-0.084900007 -0.16817674 1.1579977 2907290
0.12070022 -0.15975849 1.1551437 3303592
0.12671708 -0.15607613 1.153563 3237544
0.13243572 -0.15154658 1.1466362 3303337
-0.091731809 -0.15761399 1.1547543 2973342
-0.086804688 -0.16035277 1.160964 3038879
0.12994134 -0.14811692 1.1539712 3237544
0.13400379 -0.14495549 1.1492543 3303336
-0.10038723 -0.14652403 1.1540467 2973342
-0.09403602 -0.14926389 1.1584297 2973600
0.13694744 -0.13563728 1.1501751 3368872
-0.1023497 -0.13872971 1.1552901 3039392
-0.09672875 -0.13913789 1.160792 3236259
0.13778487 -0.12610605 1.1517007 3500460
0.14191301 -0.12355269 1.1457775 3434923
-0.10395387 -0.12915009 1.1556683 3170978
0.13836798 -0.11711654 1.152411 3500719
0.14282571 -0.1144399 1.1488941 3500718
-0.11118963 -0.11841521 1.1527524 3237029
-0.10714205 -0.11945251 1.1586649 3237286
0.1427619 -0.10552074 1.1514804 3697329
-0.1116643 -0.10964498 1.1525798 3237543
-0.10892372 -0.10891478 1.1599922 3172263
0.14347149 -0.096369945 1.150761 3697843
-0.11240339 -0.099976406 1.1553974 3303340
-0.11025009 -0.098688938 1.1603129 3303852
0.14269294 -0.085945003 1.150962 3764149
-0.11307786 -0.090296954 1.1522092 3500716
-0.11021538 -0.088617884 1.1600984 3501229
0.14502507 -0.075398512 1.1492437 3764661
-0.11314762 -0.082238011 1.1520402 3566512
-0.11004508 -0.078559637 1.1562418 3632306
0.1414945 -0.065368354 1.1490289 3896764
-0.1099643 -0.068922609 1.1560352 3698357
0.13503955 -0.055617806 1.1512003 4291265
0.13877493 -0.056696791 1.1455914 4225217
-0.1088531 -0.059851252 1.155448 3764408
0.13528311 -0.046002816 1.1503226 4554434
0.13770041 -0.045716897 1.1442451 4488640
-0.10645926 -0.048981704 1.155951 3895997
-0.10242914 -0.045499112 1.1589663 4027323
0.13428077 -0.035264943 1.1491224 4817354
-0.10553108 -0.039454453 1.1522542 3962044
-0.10146301 -0.037914354 1.1579779 4093118
0.12438831 -0.023389615 1.1521493 5014224
0.12980796 -0.025913782 1.1480486 4751563
-0.10503498 -0.029029712 1.1506851 4290235
-0.10004238 -0.028544746 1.1550713 4158908
-0.093899608 -0.025852904 1.158311 4028609
0.12229747 -0.016489424 1.1502826 4817874
0.12880778 -0.015958361 1.1448637 5145287
-0.098081537 -0.021825507 1.1527393 4487616
-0.092735633 -0.01878877 1.1567945 4356800
0.11277726 -0.004473187 1.150072 5276623
0.11916597 -0.0072199032 1.1462349 5604813
0.12857935 -0.0079621896 1.1445894 6720449
-0.090977482 -0.011673361 1.1579286 5671109
0.11066063 0.001013957 1.1514443 5802961
0.1169434 0.00049985945 1.1471816 6787017
0.033884518 0.012726173 1.1539166 12972031
-0.021858035 0.019627467 1.1533293 5869264
0.010736873 0.017760128 1.1544578 7515376
0.01823719 0.017792717 1.1542472 8764660
0.027850719 0.017864689 1.1539766 10146554
0.034528472 0.017188989 1.1538041 10870005
-0.08009629 0.024713106 1.1488477 8028800
-0.075001113 0.025352441 1.1486915 7305855
-0.017481552 0.02104643 1.155178 5671370
-0.014170555 0.021223731 1.1550815 5869265
0.0090064257 0.022464834 1.1544064 6988787
0.013421089 0.022701226 1.1542779 7185904
0.099029072 0.036142074 1.1515969 6314850
-0.074053563 0.030411787 1.1485578 8028802
0.095747627 0.039509036 1.1516174 6117979
0.071040377 0.048565127 1.144112 5593178
0.073232502 0.048682518 1.1440481 5658970
-0.0043578763 -0.22027168 1.1639293 2973083
0.001239419 -0.22108285 1.1637899 2973595
0.010646394 -0.22013515 1.1641736 2973598
-0.02489181 -0.21026227 1.1642919 2842012
-0.018448928 -0.21130589 1.1641337 2776219
-0.0089482572 -0.2132507 1.1654338 2907806
0.00074930303 -0.21408024 1.1668149 2907807
0.011322274 -0.21405187 1.1666939 2973599
0.019985467 -0.21129824 1.1637249 3039136
0.030674519 -0.20972134 1.1640593 3170723
0.040609665 -0.20908295 1.1631006 3236770
0.050347116 -0.20811333 1.1621405 3170979
0.059365712 -0.20741676 1.1618733 3170980
0.065920591 -0.20539939 1.1616471 3171236
-0.036446095 -0.20199379 1.1644399 2842012
-0.029586243 -0.20386623 1.1657431 2842011
-0.019839494 -0.20558622 1.1665143 2842012
-0.011445343 -0.20655772 1.1678394 2907805
0.035025403 -0.20546266 1.1665155 3302309
0.040932044 -0.20401073 1.1651759 3302308
0.049525216 -0.20345603 1.1635656 3171236
0.060263351 -0.20348053 1.1617647 3171236
0.070842266 -0.20150603 1.1630944 3105443
0.080524266 -0.19907549 1.1621048 3171492
0.086931981 -0.19686827 1.1608781 3040420
-0.05808749 -0.19204366 1.1648347 2841497
-0.049163982 -0.19430795 1.1651666 2907291
-0.040560111 -0.19647473 1.1663215 2907549
-0.033774197 -0.19725651 1.1682671 2907551
0.083319753 -0.19172944 1.1648726 3040420
0.090171106 -0.18955609 1.1627389 3106213
0.097778417 -0.18658561 1.1603565 3106214
-0.059882827 -0.18560559 1.1667496 2907290
-0.053110354 -0.18809637 1.1681138 2973340
0.09395121 -0.18224245 1.164374 3302823
0.099789739 -0.17958915 1.1617528 3237030
0.10573936 -0.17585602 1.1616851 3237031
-0.077993557 -0.17311344 1.1649905 2841497
-0.069408856 -0.17612728 1.1653478 2842012
-0.063110314 -0.17798039 1.167679 2907547
0.11047611 -0.16792512 1.1605291 3368361
0.11534959 -0.16442654 1.159395 3237285
-0.079789914 -0.16728485 1.1649172 2973085
-0.072932862 -0.16708887 1.1674596 3039135
0.11237109 -0.16069788 1.1593993 3368615
0.11872408 -0.15700884 1.159871 3237799
0.12308608 -0.15345871 1.1589459 3303337
-0.087872468 -0.15475716 1.1648778 2973857
-0.082219183 -0.15795822 1.1663439 3039137
-0.076180905 -0.15846874 1.1686317 3104930
0.12033988 -0.14938788 1.1609377 3172264
0.12635788 -0.14619772 1.1593674 3238059
-0.089476906 -0.14661083 1.1657506 3039650
-0.085224971 -0.14992386 1.1687037 3105700
0.12910585 -0.13626552 1.160568 3369132
0.1332615 -0.13625036 1.1582962 3434410
-0.092670828 -0.13819398 1.1663762 3171236
0.13058451 -0.12803337 1.1613989 3500719
0.13379253 -0.12557822 1.1600564 3435183
-0.10050586 -0.12655029 1.1646334 3302823
-0.095681623 -0.12822151 1.1672021 3171495
0.13400242 -0.1154605 1.159654 3566514
-0.10267536 -0.11799171 1.1659681 3368873
-0.098890372 -0.11893266 1.1676286 3368875
0.13618791 -0.1061589 1.1583768 3697588
-0.10403376 -0.10896301 1.1670275 3303850
0.13730751 -0.096435487 1.1607696 3763892
0.14039403 -0.095653884 1.157236 3698099
-0.10595627 -0.098868564 1.1658 3435181
-0.10001793 -0.098993324 1.1680379 3435438
0.13779403 -0.086258836 1.161112 3829942
0.14052598 -0.085619278 1.1581631 3764149
-0.10543357 -0.089147255 1.1659795 3501229
0.13707215 -0.072920933 1.1608493 3896505
0.14155474 -0.075610027 1.1585978 3830455
-0.10538214 -0.079280198 1.165307 3632563
-0.1012812 -0.075651996 1.1675783 3567542
0.13425848 -0.065954722 1.1582074 4027837
0.1396317 -0.069255315 1.1566976 3896505
-0.10517377 -0.069201887 1.1648823 3829940
-0.10164214 -0.068983041 1.1674471 3699127
0.13227481 -0.056410912 1.1592995 4291009
-0.10531881 -0.059066344 1.1641378 3895737
-0.10160008 -0.057992913 1.167213 4027576
0.13200937 -0.046386763 1.1584274 4422849
-0.10452252 -0.052335154 1.1631724 4158911
-0.10018696 -0.048359793 1.1649679 4093372
0.13141277 -0.036671959 1.1577377 4817355
-0.09696614 -0.038785543 1.1642129 4093630
-0.092334107 -0.035043228 1.1664671 4094397
0.12341315 -0.026324823 1.1584649 5080014
0.12803005 -0.029328771 1.1561759 4883149
-0.095305219 -0.031104811 1.1624643 4028348
-0.090903908 -0.028278954 1.1637821 4028864
0.11839566 -0.016946495 1.1579618 4949202
-0.08785712 -0.018504761 1.163808 4029123
-0.083705693 -0.016002648 1.1658218 3963586
0.11181349 -0.0074042454 1.1588331 5146069
0.11541245 -0.01167459 1.1561546 5080276
-0.087524571 -0.010691978 1.1618137 5342665
-0.080419473 -0.0080808401 1.1655619 4882633
-0.017280636 -0.00092697889 1.1636431 6070261
-0.010613009 -0.00056993216 1.1634489 6528744
-0.0039453842 -0.00021289289 1.1632547 8827627
0.011612403 0.00062020123 1.1628016 10340848
0.020378191 0.00045261532 1.1625599 8895736
0.027909145 0.0001552254 1.1623553 6266608
0.10209372 0.0048883036 1.1591781 5475287
0.10671094 0.0015804321 1.1574514 5475028
-0.077332214 -0.0019564107 1.1633445 5999306
-0.070743553 -0.00049269944 1.163129 5540557
-0.062389702 0.0032805651 1.1621481 5803727
-0.04971505 0.0057584792 1.1644092 4950220
-0.040708005 0.0051148534 1.1641707 5016280
-0.030978302 0.0050161183 1.1635002 5411294
-0.020999378 0.0055006742 1.1613696 5806569
-0.01098364 0.0060821101 1.1627179 7120874
-0.001435956 0.0073529035 1.1630241 12379901
0.0090971347 0.0073422641 1.1602017 13891069
0.018889047 0.0076143891 1.1592478 12969723
0.028838012 0.0084018931 1.1598374 9946095
0.038915411 0.0087175816 1.1599516 10013177
0.048525933 0.011110403 1.1593909 7449069
0.055131353 0.01335457 1.1613137 5411552
0.098936066 0.0085835457 1.1576872 6526426
-0.048006818 0.010804236 1.1642543 6264275
-0.040539235 0.011959463 1.1615194 5803990
-0.031055285 0.013068639 1.1597295 5345755
-0.021134535 0.014863245 1.1594138 5412839
-0.011579575 0.01597859 1.159623 5676266
-0.0024425797 0.015591785 1.161734 7253489
0.007329992 0.015896805 1.1595958 8436213
0.017384103 0.014181294 1.1583501 12051453
0.031541385 0.019382998 1.1578436 10082302
0.039407462 0.019063622 1.1576302 10607102
0.047922637 0.018673204 1.1574003 7515119
0.055018961 0.018464983 1.1585401 6068200
-0.0096747391 0.021619521 1.1589499 6001365
-0.005244866 0.021856733 1.1588207 6396124
0.10674068 0.033630081 1.1554369 6447199
0.0041579036 -0.20998332 1.1714778 3039391
0.011698544 -0.20897715 1.1727463 3039135
0.02311415 -0.20896825 1.1709257 3104930
-0.025437621 -0.20038286 1.1721026 2776478
-0.018968185 -0.20089388 1.1739336 2842271
-0.0089335646 -0.20195511 1.1758584 2907807
0.00039174967 -0.20330733 1.1761402 2908063
0.010469212 -0.20359677 1.1769694 2973600
0.020705475 -0.20207411 1.1761836 3105187
0.030571219 -0.20121232 1.1749691 3236773
0.040167473 -0.19937077 1.1739806 3237029
0.051101781 -0.19886968 1.1737306 3171237
0.060723081 -0.19935067 1.1711701 3171236
0.070126086 -0.19729696 1.1702862 3105444
0.078851908 -0.19535756 1.1690772 3171493
-0.037999481 -0.19211105 1.1754808 2841758
-0.029767225 -0.19396478 1.1760901 2907551
-0.020734152 -0.1945335 1.1786747 2842271
-0.0099703018 -0.19512418 1.1795632 2908064
-0.0031734593 -0.19588637 1.1793891 2973857
0.018157428 -0.19474414 1.1787679 3105444
0.030951835 -0.19305798 1.1783741 3237030
0.040984076 -0.19295284 1.1772904 3302823
0.050582737 -0.19165885 1.1768713 3171495
0.059838653 -0.18976128 1.1761035 3105703
0.069539301 -0.18950491 1.1756177 3105703
0.079248652 -0.1885235 1.1734239 3105702
0.087354511 -0.18563674 1.1703484 3105958
-0.049717814 -0.18506132 1.1741054 2973598
-0.041522063 -0.18625987 1.1782571 2907551
-0.031491518 -0.18754891 1.180005 2908065
0.080669403 -0.17996189 1.1767049 3237288
0.089366987 -0.17882967 1.1739914 3302823
0.097821549 -0.17639029 1.1707171 3237287
-0.059680521 -0.17428833 1.1753666 3105183
-0.051957346 -0.17718908 1.1784745 2974112
-0.043500349 -0.17890117 1.1801577 2842786
0.090559587 -0.17194769 1.1762581 3171750
0.098941498 -0.16791043 1.1746038 3172008
0.10677731 -0.16581842 1.1700041 3303081
-0.068375394 -0.16510215 1.1732235 3104930
-0.061866701 -0.16695964 1.1790844 3170978
0.10101213 -0.15941854 1.1756999 3303337
0.10863119 -0.15753309 1.1731954 3368873
0.11540028 -0.15592551 1.1697652 3237543
-0.078826509 -0.15281834 1.1752567 3040164
-0.071881182 -0.15618595 1.1762573 3105701
-0.06515646 -0.1601654 1.1803666 3302822
0.10977687 -0.14839551 1.175221 3303597
0.11691359 -0.14566872 1.170597 3238059
0.12376332 -0.142272 1.1686959 3303852
-0.081574991 -0.14660096 1.1763136 3106213
-0.073595211 -0.14813572 1.1803477 3172007
0.11743847 -0.13647759 1.1745538 3369387
0.12524338 -0.13589476 1.1705205 3435181
-0.089337036 -0.13681418 1.1738775 3237030
-0.082618117 -0.1370437 1.1780303 3237800
-0.076000512 -0.1400999 1.1802447 3303594
0.1189329 -0.13033719 1.1745818 3500972
0.12700501 -0.12568508 1.1710052 3500976
0.13139048 -0.12263624 1.166065 3500977
-0.090924874 -0.12759516 1.1755053 3237545
-0.086067952 -0.12892377 1.1794001 3303852
0.12836638 -0.11601786 1.1740142 3566772
0.13158873 -0.11625527 1.1699265 3566515
-0.093953393 -0.11803271 1.1755264 3369389
0.12870662 -0.10645413 1.1738019 3763639
0.13187684 -0.10544375 1.1687999 3763639
-0.10152707 -0.10462119 1.1735362 3435181
-0.0958746 -0.10794695 1.1766886 3435438
0.12874909 -0.095351182 1.1735654 3895737
0.13357344 -0.095074564 1.1682447 3764149
-0.10134779 -0.09810587 1.1744603 3435438
-0.095838316 -0.098363131 1.1783756 3501231
0.12844522 -0.08973667 1.1734548 3961530
0.13345452 -0.085584804 1.168047 3961528
0.14036821 -0.081888519 1.1649498 3895735
-0.10154999 -0.088841707 1.1748699 3501489
-0.097221248 -0.088330775 1.1776221 3501490
0.12747285 -0.071770251 1.1731011 4159679
0.13329396 -0.076233864 1.1683027 3962041
0.14024748 -0.079657942 1.1649059 3895735
-0.10244282 -0.081558675 1.1737399 3501747
-0.097740784 -0.078060269 1.1762024 3567541
0.12638001 -0.065447219 1.1729976 4225473
0.12998205 -0.065835938 1.1689025 4159424
-0.096548304 -0.067852899 1.1748853 3764919
0.12565109 -0.056602135 1.1728305 4422597
0.12943695 -0.055764057 1.1687043 4357059
-0.096589409 -0.058073767 1.1745076 3896505
-0.09172453 -0.057606373 1.1789358 3962298
0.12495238 -0.046003636 1.1726254 4685767
0.12889184 -0.045692176 1.168506 4422851
-0.095675118 -0.04892344 1.1724583 4027836
-0.090617098 -0.046781436 1.1775837 4028094
0.1224492 -0.035572469 1.1703553 4948684
0.12830321 -0.037253637 1.1653417 4751818
-0.094464414 -0.040774163 1.1706507 4093632
-0.088925898 -0.036908373 1.1762635 4094399
0.11521073 -0.02550371 1.1724634 5080784
0.11943901 -0.026440293 1.1675619 5211343
-0.086181022 -0.028337471 1.1745214 4094402
-0.079756446 -0.02487386 1.1769062 4226244
-0.073339537 -0.022837214 1.1776841 4620744
-0.01951175 -0.018828653 1.1760925 5412064
0.0029418152 -0.017626293 1.1754386 6463211
0.011206027 -0.021025956 1.1752794 6397929
0.020841038 -0.019868471 1.1749852 6397929
0.029955549 -0.017466791 1.1746792 6003432
0.1116409 -0.016453512 1.1698699 5081042
0.11685625 -0.019391499 1.1642828 5081041
-0.078964688 -0.017110832 1.1715829 4160963
-0.070805773 -0.015632629 1.1766027 4752075
-0.055923641 -0.011769213 1.176962 4949201
-0.049157187 -0.011969961 1.1767769 5016022
-0.039551653 -0.01258979 1.1758541 5213659
-0.029706059 -0.012978956 1.1750224 5411552
-0.019823877 -0.013224229 1.175182 5740773
-0.009711517 -0.012673087 1.1756878 6003172
0.00038009696 -0.012137532 1.1749938 6331366
0.010385569 -0.011627369 1.1721013 6989552
0.020480365 -0.011083134 1.1722074 6792432
0.030529562 -0.010550268 1.1712644 5937640
0.039015442 -0.0091355294 1.1732483 5806054
0.049668886 -0.0072410479 1.1739106 5674725
0.056344181 -0.0057574362 1.1736923 5674983
0.10223006 -0.0058341622 1.1724097 5146841
0.10818868 -0.0076922104 1.1665645 5080789
-0.076083228 -0.008471109 1.1694514 4554184
-0.072603442 -0.0073982552 1.172333 4751049
-0.057309166 -0.0062520057 1.1748825 4818129
-0.049902603 -0.0058688521 1.1738666 5015507
-0.040475547 -0.005417265 1.170191 5147609
-0.030422876 -0.0049000829 1.1685979 5346018
-0.020706197 -0.0047111064 1.1709347 5937898
-0.010229697 -0.0048931092 1.1708677 6462952
0.0001421757 -0.0036065578 1.1696607 8303605
0.0094761103 -0.0032298788 1.168375 8501495
0.01934552 -0.0036966056 1.167295 7252467
0.030627858 -0.0025325119 1.1677942 6069484
0.039724741 -0.00093945861 1.1683676 6135528
0.049925707 -0.00071645528 1.1711752 5741031
0.059331834 1.4603138e-005 1.1724857 5543655
0.068751447 0.0018371493 1.173184 5477092
0.078726307 0.0036995858 1.1728654 5739747
0.090091325 0.0040578917 1.1725397 5280481
0.099333361 0.0018515661 1.1686332 5015513
0.10485427 0.00012723356 1.1662061 4949463
-0.069754958 -0.0014210716 1.1691247 4818122
-0.060392432 7.4513257e-005 1.168831 5147606
-0.051759884 0.0012824535 1.1685638 4818639
-0.042993203 1.1980534e-005 1.1683453 5344472
0.0015795529 0.0029580519 1.1670353 12971007
0.0060700271 0.0026392415 1.1669165 12905215
0.030601637 0.0039528757 1.1662021 5807584
0.043982521 0.0046693981 1.1658124 6004710
0.049984038 0.0059495121 1.1656172 5807083
0.058685653 0.0089365244 1.1674449 5477863
0.067268416 0.0090100244 1.1697381 5542628
0.079312682 0.0067340583 1.1727847 5673698
0.089714363 0.0092227533 1.1709398 5804766
0.095275886 0.0074160844 1.1643184 5147865
0.061220072 0.016777724 1.1650732 5412324
0.003809453 -0.19835728 1.1832484 3039650
0.010281329 -0.19865641 1.1830736 3039650
-0.016894056 -0.19155616 1.1836838 2842271
-0.01013517 -0.19119424 1.1834869 2973857
0.00026532449 -0.19170524 1.1844705 2973857
0.010129477 -0.19290718 1.1854838 3039395
0.020644227 -0.19042188 1.1843879 3171237
0.029836942 -0.18852364 1.1833788 3237030
0.040147033 -0.18741111 1.1835388 3302569
0.048472621 -0.18711069 1.1830941 3237546
-0.037093244 -0.18214521 1.1840496 2908065
-0.02947746 -0.18270594 1.1838483 2973857
-0.020688141 -0.18398166 1.1846299 2973857
-0.010825692 -0.18533503 1.1855009 2973858
-0.002450889 -0.18567964 1.1871573 3105444
0.029197037 -0.18398495 1.1862355 3237030
0.040795047 -0.18185218 1.1858658 3302825
0.04967707 -0.18092692 1.1852897 3171754
0.059496917 -0.18095335 1.1833221 3171752
0.069782168 -0.17999019 1.1824251 3171753
0.078024395 -0.17643529 1.1817071 3237546
0.086071387 -0.17361283 1.1804215 3303592
-0.04876183 -0.17329982 1.1841886 2908579
-0.040410005 -0.1749859 1.1859918 2908579
-0.030488605 -0.17590854 1.1866434 3105444
-0.021727541 -0.17718811 1.1875168 3105443
0.072788589 -0.17258042 1.1847738 3303339
0.080647074 -0.16990957 1.183163 3303082
0.088855825 -0.16740009 1.1807836 3237545
0.094595402 -0.16411662 1.1799816 3303850
-0.058383472 -0.16251534 1.1842293 3302822
-0.051487632 -0.16641271 1.1863703 3040165
-0.044120036 -0.16977042 1.1879863 3040167
0.083601937 -0.16293108 1.1842666 3303598
0.089411259 -0.15863842 1.1830711 3238061
0.097794242 -0.15616283 1.1808351 3303596
0.1053114 -0.15337306 1.1794538 3369131
-0.068715438 -0.15252222 1.1843065 3171751
-0.062065892 -0.15577601 1.1856021 3368615
-0.054904446 -0.15901008 1.1880599 3171751
0.10680947 -0.14667992 1.180771 3369134
-0.071067899 -0.14558586 1.1842253 3369130
-0.064770453 -0.1471521 1.1870841 3434922
0.10745434 -0.13693739 1.1820949 3435183
-0.07321734 -0.13706544 1.185439 3434923
0.10982241 -0.12970376 1.1820277 3501232
0.11638411 -0.12622806 1.1811583 3435694
0.12293708 -0.12417998 1.1783416 3501232
-0.082036257 -0.1263866 1.1851258 3369646
-0.076078802 -0.12979355 1.186699 3435182
0.11964533 -0.11678346 1.1822793 3567282
0.12365328 -0.1160765 1.1799691 3567027
-0.091126375 -0.11417335 1.1841208 3501231
-0.08626055 -0.11779422 1.186813 3435439
0.11921705 -0.1088699 1.1821235 3829686
0.12411044 -0.10582658 1.1801432 3829431
-0.091309316 -0.11079323 1.1840543 3501231
-0.08705923 -0.10728849 1.1855286 3567024
0.12591925 -0.09632913 1.180336 3830201
-0.092071556 -0.09670943 1.183777 3632818
-0.088753141 -0.097213715 1.185696 3698612
0.12744103 -0.085636832 1.1793996 3896507
-0.092589878 -0.087132439 1.1835884 3633333
-0.088663161 -0.087063082 1.1862787 3764919
0.12671128 -0.075464532 1.178704 4093886
-0.093516111 -0.078368269 1.1834285 3633334
-0.089446619 -0.077152655 1.1864908 3830201
0.12321322 -0.066000834 1.179324 4291523
-0.08962357 -0.066877373 1.1847436 3896506
0.12214055 -0.055572871 1.1785103 4619975
-0.086864173 -0.057165749 1.1845082 4028348
0.11572948 -0.044430953 1.180855 5146320
0.12024189 -0.046432715 1.1797706 4883148
-0.085698217 -0.047704536 1.1828455 3962814
-0.080728263 -0.046027042 1.1852438 3963072
0.11422026 -0.035702985 1.1792113 5146577
0.11800835 -0.037163917 1.177135 5080527
-0.084823973 -0.038579863 1.1823417 4028607
-0.078691341 -0.036460493 1.1842598 4291526
-0.028917791 -0.031768493 1.1846349 5147865
-0.021470161 -0.03114292 1.1844133 5344731
-0.0052430369 -0.029366955 1.1839215 5345501
0.0015386641 -0.029003799 1.1837239 5739743
0.011783097 -0.030716002 1.1821394 5936862
0.020831328 -0.030233182 1.1822094 5871068
0.030987209 -0.028560661 1.1828903 5739228
0.049010552 -0.02646175 1.1823413 5213656
0.1118646 -0.026938133 1.1789913 4949970
-0.077379271 -0.028971955 1.1819296 4422856
-0.069168873 -0.023728102 1.1834079 4686797
-0.058873832 -0.022043623 1.183266 4884690
-0.048376992 -0.02289211 1.1844912 4950486
-0.037923083 -0.023108736 1.1833693 5213659
-0.029358154 -0.023859851 1.1812778 5279707
-0.019143386 -0.024443731 1.1814045 5345244
-0.0090876296 -0.022272684 1.1809881 5411808
0.00080814213 -0.022861943 1.1805214 5806052
0.010270663 -0.025502555 1.1794029 6068964
0.022306781 -0.025234692 1.1790603 6068963
0.032222442 -0.02230186 1.1796442 6003173
0.040595278 -0.020115621 1.180241 5608417
0.050794154 -0.019566968 1.1805444 5411038
0.05768571 -0.019194506 1.1819445 5279709
0.10217448 -0.015071422 1.1796883 5212630
0.10795537 -0.018391393 1.1778523 5015248
-0.065833658 -0.017901473 1.1813718 4949712
-0.059074774 -0.017539546 1.181175 4949713
-0.048936449 -0.016996652 1.1808797 5016279
-0.039528787 -0.016869545 1.1806136 5213659
-0.030851783 -0.01715821 1.1803769 5345501
0.041775733 -0.012704134 1.1782498 5871590
0.050193846 -0.011688367 1.1779926 5871847
0.06036742 -0.0088687912 1.1796494 5543139
0.067586489 -0.0073460788 1.1797009 5280225
0.092112623 -0.006013155 1.1807015 5411294
0.097968668 -0.0071649477 1.178015 5279196
0.069449909 -0.0021824688 1.1772522 5411556
0.078933537 2.0325184e-005 1.17694 5412066
0.090198345 0.00062353909 1.1766119 5477344
0.09707918 -0.0012679398 1.1764594 5213404
0.011027171 -0.18815911 1.1908352 3105189
-0.0097355694 -0.18077511 1.1922604 3039906
7.4837357e-005 -0.1823785 1.1924486 3039908
0.0097078187 -0.18298766 1.1940978 3105447
0.020183247 -0.18169986 1.1911924 3105702
0.029161759 -0.17998323 1.1901543 3171750
0.038109023 -0.17909044 1.1898849 3237289
0.049452517 -0.1766215 1.1895151 3237548
0.059659287 -0.17607494 1.1892178 3171752
0.068731971 -0.17558911 1.1889536 3171752
-0.037983231 -0.17083764 1.1918397 3039909
-0.030083755 -0.1711293 1.1925142 3105701
-0.021752873 -0.17330369 1.1939846 3105443
-0.01183914 -0.17814463 1.1952653 3040163
0.018834561 -0.17558898 1.1943526 3105960
0.030153213 -0.17386682 1.1939993 3105958
0.039130218 -0.17188856 1.1929055 3237545
0.04942134 -0.17029673 1.1914884 3237547
0.059414878 -0.16945824 1.1906854 3237544
0.069450602 -0.16869166 1.1904725 3237545
0.07795132 -0.16626582 1.189165 3303339
-0.049720235 -0.16202408 1.1919813 3172009
-0.041074976 -0.16468209 1.1941972 3105961
-0.031591736 -0.16636148 1.1955683 3171752
0.052404508 -0.16329035 1.1931523 3303337
0.05923184 -0.16292477 1.1929535 3303593
0.069257475 -0.16140956 1.1926407 3303594
0.078271791 -0.15833345 1.1910725 3303596
0.084923014 -0.15652052 1.1880962 3238062
-0.057552218 -0.15391149 1.1920285 3434409
-0.051646993 -0.15530483 1.194718 3237547
-0.043162189 -0.15720123 1.1956979 3237805
0.07887236 -0.15096621 1.1921502 3238318
0.087962493 -0.1475649 1.1907029 3238572
0.098009527 -0.14684524 1.1887255 3434926
0.10443205 -0.14592002 1.1873254 3369134
-0.060342431 -0.14499331 1.1931491 3435179
-0.054236084 -0.14663351 1.1953391 3369388
0.092259735 -0.14061074 1.191556 3500977
0.097652026 -0.13679823 1.1903236 3435186
0.10301728 -0.13659161 1.1871673 3500720
-0.069429278 -0.13472852 1.1929549 3566511
-0.063535146 -0.13726273 1.1945113 3566767
-0.056158483 -0.13942701 1.1956848 3500977
0.09871491 -0.12908892 1.1906307 3501234
0.10638062 -0.12628777 1.1876051 3501490
-0.079746097 -0.12210958 1.1919755 3566770
-0.072677769 -0.12626898 1.1944674 3632306
-0.065754369 -0.13080955 1.1957707 3632563
0.10776235 -0.11750258 1.1892195 3699127
0.11506367 -0.11586454 1.1868615 3633076
-0.081226423 -0.11657366 1.1929002 3566770
-0.0750999 -0.11708624 1.1957413 3763892
0.10820307 -0.10836814 1.1904261 3633335
0.11468108 -0.10587223 1.187746 3764407
-0.081852317 -0.10647886 1.1945047 3698868
-0.07744956 -0.10683203 1.1955897 3699126
0.10812527 -0.096387476 1.1901743 3962811
0.11462512 -0.096150912 1.18882 3830969
0.12226882 -0.096015655 1.1857681 3830714
-0.083614208 -0.096641727 1.1924675 3699126
-0.078243107 -0.096855462 1.1954004 3830712
0.11480161 -0.086177573 1.1891706 4028606
0.12285917 -0.085908167 1.1855373 3962300
-0.083528601 -0.087126441 1.1929406 3830970
-0.078586608 -0.086492442 1.1951903 3962813
0.11460015 -0.077106744 1.1895843 4291522
0.1223435 -0.07635048 1.1857131 4094399
-0.084370419 -0.07708773 1.1928657 3962044
-0.079422094 -0.077079758 1.1950141 4093630
0.11559322 -0.066300839 1.1890606 4554438
0.12036617 -0.066864997 1.1852034 4357059
-0.084301099 -0.06703531 1.1922694 4093886
-0.079695351 -0.066006377 1.194787 4291009
0.11317686 -0.05588476 1.1882848 4686026
0.11911298 -0.055718638 1.1850021 4685769
-0.083122604 -0.059722476 1.1907473 4159935
-0.078183442 -0.056930095 1.1934087 4225985
0.105415 -0.046310455 1.1891885 5015248
0.1114854 -0.047313865 1.1863716 5014991
-0.075724073 -0.046982478 1.192389 4292037
-0.070189342 -0.048865337 1.1941575 4619977
-0.047801167 -0.040818006 1.1933603 5279449
-0.039835945 -0.040391482 1.1931283 5016538
-0.027257575 -0.040859342 1.1927862 4950743
-0.01766227 -0.042024083 1.1925423 4950488
-0.0085899476 -0.041381601 1.1922748 5147351
0.001789365 -0.039874628 1.1919523 5278422
0.012439029 -0.041639272 1.1908022 5212886
0.021713719 -0.040496118 1.1896569 5278423
0.031637076 -0.039116472 1.1898501 5147094
0.042575493 -0.038913529 1.1907904 4885460
0.051943503 -0.036920279 1.1897583 4950741
0.061030209 -0.035903379 1.1902101 5016279
0.10335629 -0.03658253 1.187639 5212370
0.11072847 -0.037397243 1.1848484 5212369
-0.074025728 -0.039917823 1.1920739 4423370
-0.072140068 -0.036625713 1.1915512 4554187
-0.047614209 -0.035784416 1.1929815 5147610
-0.037861779 -0.034566112 1.1909484 5081818
-0.028649548 -0.036350392 1.1907283 5016538
-0.017593065 -0.034317292 1.1905092 5278938
-0.0085364133 -0.033225097 1.1902325 5344730
0.0019320436 -0.033565089 1.1888795 5673948
0.012231019 -0.035277247 1.1875602 5805277
0.021303704 -0.034791417 1.187296 5541848
0.031449083 -0.033110537 1.1869764 5475544
0.041533068 -0.030295365 1.1866344 5213397
0.052221701 -0.030332915 1.1870425 5082070
0.061900035 -0.028998636 1.1884384 5016536
0.070749439 -0.026316836 1.1897348 5213915
0.081425309 -0.024766818 1.1894032 5279453
0.092373654 -0.024637111 1.1890939 5213659
0.10190654 -0.027081564 1.187278 5212628
0.10844412 -0.02671238 1.1846858 5146833
-0.072182447 -0.030696683 1.1898257 4554443
-0.047103964 -0.027533606 1.1890568 5016281
-0.03979671 -0.02805239 1.1888632 5147611
-0.0086736493 -0.02729588 1.1879761 5411294
0.061772123 -0.018973231 1.185828 5148123
0.070484392 -0.018507332 1.1857743 5213915
0.080557384 -0.018167712 1.1870253 5213917
0.091306582 -0.017514825 1.1872876 5213659
0.099335611 -0.018858798 1.1851077 5212887
0.09164606 -0.010547921 1.1848133 5279708
0.096182406 -0.010305002 1.1846811 5411037
-0.0060362499 -0.17847922 1.2001131 3106213
-0.00032304041 -0.1781733 1.1999466 3105959
0.010975479 -0.17822324 1.1996315 3105706
0.021387139 -0.17701074 1.1993144 3105960
-0.017262464 -0.1722033 1.2002941 3105700
-0.0097581577 -0.17303871 1.2008523 3105957
-0.00061227567 -0.17254895 1.200586 3106216
0.0097096022 -0.1721006 1.2011381 3106217
0.020299094 -0.17102093 1.2006472 3171752
0.028146278 -0.17011259 1.2000705 3303337
0.039174564 -0.1668888 1.198602 3369130
0.04603041 -0.16652168 1.1984023 3369132
-0.030438198 -0.16167536 1.2007732 3171753
-0.020584026 -0.16351941 1.2029247 3171752
-0.010236731 -0.1632081 1.2047098 3172010
-0.00097266957 -0.163975 1.2054174 3172012
0.009046739 -0.16300729 1.2059124 3237802
0.019642061 -0.1617474 1.2050433 3303338
0.028836317 -0.16127934 1.2049762 3369133
0.039071582 -0.16052957 1.2029527 3369388
0.049150705 -0.15966669 1.2019614 3303853
0.058298759 -0.15803872 1.1996301 3369643
0.068302065 -0.15672533 1.1978066 3303851
-0.04877954 -0.15096739 1.200726 3303598
-0.040484346 -0.15332232 1.2022592 3303341
-0.031745382 -0.15453433 1.205471 3303340
-0.022259703 -0.15541625 1.208083 3369132
-0.014001517 -0.15686209 1.2078826 3303600
0.019355617 -0.15507588 1.2069111 3303598
0.032008324 -0.15439834 1.2065426 3435186
0.039484926 -0.15399797 1.2063248 3369391
0.049262013 -0.15347442 1.2060401 3369392
0.058882236 -0.15005144 1.2050825 3369390
0.068275087 -0.14854321 1.2012008 3435184
0.077450201 -0.14650032 1.1970984 3369392
-0.050086223 -0.1440091 1.2014157 3369646
-0.04270795 -0.14585039 1.2060511 3303853
-0.035204075 -0.14876699 1.2083044 3173034
0.060396768 -0.1418016 1.2054811 3566773
0.068478182 -0.14006989 1.204551 3566516
0.078087658 -0.13772349 1.2012972 3500977
0.087945655 -0.13789883 1.1983075 3500975
-0.060904503 -0.13262281 1.2006764 3632562
-0.051791988 -0.13515912 1.2034771 3501236
-0.044154212 -0.13484564 1.2078151 3501494
0.079920463 -0.12846807 1.2046518 3698612
0.087425329 -0.12844853 1.2020763 3567283
0.096063428 -0.12558991 1.1990693 3567283
0.10322099 -0.12219673 1.1958618 3501747
-0.06860815 -0.12337466 1.200696 3895478
-0.062828809 -0.12556149 1.2030822 3698613
-0.053787746 -0.12595901 1.2070068 3633080
0.081000231 -0.12177587 1.2044798 3699128
0.087375365 -0.11823932 1.2042264 3830713
0.096784256 -0.11736927 1.2027439 3699126
0.10333167 -0.11577218 1.1957226 3633333
-0.070347019 -0.1154445 1.2005765 3961271
-0.063447416 -0.11544117 1.2053865 3896247
-0.056501709 -0.1176008 1.2082397 3764921
0.08689367 -0.11130676 1.2040929 3962300
0.097588047 -0.10822752 1.2032574 3896506
0.1048587 -0.10604355 1.1974748 3764920
-0.072168663 -0.10618287 1.2019322 3830712
-0.065200634 -0.10528781 1.206888 4093627
0.099974342 -0.09722212 1.2034281 4028352
0.10517598 -0.096437551 1.1979294 3962812
-0.07311143 -0.09589427 1.2022407 3962556
-0.066469863 -0.096569963 1.2076281 4028606
0.098886341 -0.08686313 1.203239 4357317
0.1051847 -0.08679159 1.1990588 4225985
0.11025907 -0.082849704 1.1948307 4225985
-0.073107414 -0.08687418 1.2020494 4028606
-0.06817244 -0.086688302 1.207911 4094655
0.098978087 -0.078814521 1.2030658 4554695
0.10455766 -0.076442882 1.1982565 4554182
0.11056723 -0.074427873 1.1946435 4619462
-0.074407063 -0.076307148 1.2003313 4159424
-0.066323973 -0.074766025 1.206375 4160448
-0.060080327 -0.072793886 1.20739 4554440
0.098715894 -0.06544438 1.2027897 4620747
0.10426948 -0.066209227 1.200399 4686026
0.11053577 -0.06678836 1.1944823 4619977
-0.074323446 -0.066636182 1.199653 4291265
-0.066127256 -0.06610547 1.2046657 4357573
-0.060453922 -0.065891027 1.2072541 4751563
0.013399964 -0.05924404 1.2050461 4818903
0.02102676 -0.058066428 1.2048076 4819160
0.096414737 -0.057029415 1.2026757 4752590
0.10376991 -0.057022665 1.2002183 4817869
0.10896014 -0.058849469 1.1943581 4752076
-0.072857477 -0.056959994 1.1994069 4291778
-0.066813223 -0.055864267 1.2027957 4554440
-0.060889781 -0.05783771 1.2070955 4883149
-0.042827867 -0.049866229 1.2024186 5674209
-0.037095644 -0.049559273 1.2022516 5082331
-0.02554713 -0.051746998 1.2038425 4950745
-0.016220102 -0.053034138 1.2011406 4884953
-0.0070554055 -0.052538164 1.2006735 4753366
0.0032289047 -0.05086571 1.2015508 4884692
0.013860696 -0.051937759 1.2004311 4884692
0.022584002 -0.050734501 1.2008168 4884692
0.032767124 -0.048948914 1.2029516 4950484
0.043687738 -0.049350582 1.2008756 4950488
0.052465104 -0.048600741 1.2016081 4950489
0.063003883 -0.046566427 1.2023216 5411037
0.071986571 -0.045818675 1.2031217 5542623
0.085968122 -0.043050826 1.2026716 5213404
0.093887947 -0.045511257 1.2025021 5081558
0.10223529 -0.047354866 1.1999061 5015248
-0.0681995 -0.046231195 1.1990491 4685772
-0.046008028 -0.044556905 1.1994841 5542365
-0.037043095 -0.044256426 1.1992787 4951002
-0.028270764 -0.044837344 1.197902 4884951
-0.01892454 -0.046212442 1.1976695 4753366
-0.0052747 -0.044335335 1.1972477 4950484
0.0035962295 -0.044146847 1.1969954 5015763
0.03363695 -0.043397851 1.1961387 5015764
0.040492795 -0.043030731 1.1959391 4885461
0.052355893 -0.041413035 1.1955727 4884950
0.063119613 -0.039735373 1.1970832 5082072
0.072499819 -0.038034592 1.1997403 5542624
0.082192078 -0.038627602 1.2018831 5279197
0.09217947 -0.036897622 1.1987652 5213144
0.09948802 -0.039107494 1.1942047 5212627
0.066278711 -0.032480486 1.1949937 5016538
0.071899138 -0.030460253 1.1947936 5213917
0.081287123 -0.02747415 1.1944675 5345245
0.09176188 -0.029212818 1.1948783 5213917
0.18311638 -0.026310585 1.1995977 13158081
-0.0011182092 -0.15892744 1.2115684 3303598
0.011576325 -0.15824768 1.2111986 3303850
-0.030082548 -0.1498283 1.2121861 3303853
-0.02023383 -0.150892 1.2122904 3304111
-0.010517528 -0.15245883 1.2138008 3303857
-0.0014205612 -0.15228418 1.2141876 3303856
0.0089973779 -0.15175284 1.2141349 3369903
0.019217361 -0.14973514 1.2108043 3435441
0.028316852 -0.15016179 1.2105587 3435187
0.038741153 -0.14896528 1.2102416 3500978
0.049222626 -0.14812839 1.2099304 3369649
0.055828646 -0.14615399 1.2097037 3435441
-0.03864181 -0.14280069 1.2122767 3370159
-0.032060549 -0.14322002 1.2121013 3370416
-0.021646881 -0.14288126 1.2140541 3436469
-0.011196977 -0.14259079 1.2165072 3502005
-0.00192656 -0.14209437 1.2162372 3501749
0.0086908396 -0.14501299 1.2160019 3501493
0.018878106 -0.14085475 1.2143778 3567542
0.028187357 -0.14045042 1.2150468 3567541
0.038539968 -0.1397782 1.2135545 3633333
0.048785165 -0.13897966 1.2106868 3567541
0.057300188 -0.13781154 1.2094857 3633079
0.06720078 -0.13509335 1.2091509 3632566
-0.03948462 -0.13435657 1.2121212 3501750
-0.032555968 -0.1342075 1.2144257 3567798
-0.02407459 -0.13424948 1.2166908 3633848
-0.010351824 -0.13673358 1.2163593 3633591
-0.003399007 -0.13636127 1.2161568 3699128
0.018555496 -0.13402325 1.2154927 3830714
0.028984711 -0.13346478 1.215189 3764921
0.038414493 -0.13200876 1.2148943 3830712
0.04889179 -0.130539 1.2142125 3830713
0.057561398 -0.12978034 1.213644 3830458
0.067801975 -0.12900414 1.2113749 3764409
0.075777851 -0.12707521 1.2092967 3764407
-0.049073435 -0.12398838 1.2121698 3698874
-0.042370349 -0.12427036 1.2142395 3764923
-0.033713147 -0.1244461 1.2167526 3765435
-0.027076872 -0.12833005 1.2166493 3699641
0.066399798 -0.12332451 1.2139269 3896252
0.076195292 -0.11837734 1.2109271 3831226
0.083436333 -0.11735573 1.2083204 3830458
-0.05219736 -0.11468332 1.2128499 3896508
-0.042956777 -0.11406931 1.2167914 4028352
-0.035039283 -0.11434278 1.2165755 4094143
0.076902062 -0.10843976 1.2097437 4159936
0.086101264 -0.10671724 1.2080203 4028352
0.094047979 -0.10492185 1.2077599 3962559
-0.060727708 -0.10539591 1.2121018 4093628
-0.053813197 -0.10507524 1.212652 4028352
-0.043455072 -0.10477739 1.2162956 4094401
-0.036825374 -0.10281451 1.2163812 4225986
0.077931233 -0.099155076 1.2117273 4357317
0.086109675 -0.097713605 1.2106434 4225732
0.094825551 -0.096834727 1.2075666 4159938
-0.062243439 -0.095719963 1.2119391 4028609
-0.054036252 -0.095326282 1.2130655 3963330
-0.044614509 -0.094807684 1.2164294 4160708
-0.038040966 -0.0975326 1.2163032 4292035
0.079843156 -0.085408121 1.2127467 4620236
0.085393861 -0.087873153 1.2112539 4488649
0.093784548 -0.088128157 1.2074112 4357318
-0.063950814 -0.085558154 1.2117714 4160449
-0.055252001 -0.085197262 1.2152182 4160708
-0.045940652 -0.084704362 1.2162523 4489161
0.086008623 -0.078545921 1.2113566 4555212
0.094097242 -0.076962613 1.2071657 4620489
-0.15627179 -0.081778266 1.2192782 14082013
-0.062975571 -0.078119189 1.2115864 4226242
-0.054940559 -0.075347349 1.2138042 4620234
-0.04789798 -0.072875291 1.2160563 5079759
-0.013927368 -0.070668742 1.2150587 6791922
-0.0058784876 -0.069075346 1.2147996 5608162
0.0045507271 -0.06851688 1.2144959 5016279
0.014725234 -0.070034325 1.2128788 5608413
0.023122918 -0.068103567 1.2139673 4950485
0.030044364 -0.067151733 1.2137535 5016277
0.088172637 -0.067526221 1.2121345 4752847
0.093975447 -0.067290246 1.2087297 4620747
-0.056136407 -0.066521049 1.2121497 4948687
-0.045403197 -0.068867058 1.2159015 5408980
-0.024100738 -0.06462729 1.2132912 6134248
-0.01549889 -0.063701436 1.2124535 5344990
-0.0065603163 -0.063400544 1.2125542 4884696
0.0045923069 -0.062845163 1.2123145 4818902
0.015018592 -0.063601285 1.2090957 4818646
0.024092058 -0.062016308 1.2095228 4818646
0.034188062 -0.061015014 1.2102554 4884696
0.04423048 -0.059981793 1.2099881 5344733
0.053453207 -0.059475891 1.2093619 5936870
0.063208878 -0.058376566 1.2118053 5608416
0.072261713 -0.056986798 1.2123563 5082072
0.084995747 -0.057139412 1.2090013 5016278
0.091354139 -0.058356002 1.2068479 4884178
-0.025080496 -0.058339745 1.2101064 5082331
0.0037707156 -0.056794804 1.2092662 4687574
0.026851688 -0.055558849 1.208594 4687574
0.034729466 -0.054475501 1.2083505 4819159
0.041854318 -0.054755479 1.2081571 4950233
0.054548852 -0.054075707 1.2077873 5542369
