# .PCD v0.7 - Point Cloud Data file format
VERSION 0.7
FIELDS x y z rgba
SIZE 4 4 4 4
TYPE F F F U
COUNT 1 1 1 1
WIDTH 174
HEIGHT 1
VIEWPOINT 0 0 0 1 0 0 0
POINTS 174
DATA ascii
-0.35765007 0.093031593 1.0851083 5134174
-0.35083395 0.092024706 1.0858629 5134176
-0.3585332 0.097649381 1.0849398 4871515
-0.36500034 0.074859142 1.0916395 4936281
-0.35444209 0.073241822 1.0928093 5199967
-0.34960824 0.073668189 1.0933264 5397348
-0.37368217 0.080831878 1.0903027 4673880
-0.3657712 0.080954045 1.0892293 4870232
-0.35638574 0.081875786 1.0909537 5068382
-0.34675658 0.083114602 1.0925266 5068384
-0.33923203 0.085353628 1.0942671 4476504
-0.37473643 0.090196289 1.0886662 4607822
-0.36758628 0.090813614 1.0880901 4673623
-0.35663381 0.091027379 1.0892738 5134174
-0.34637433 0.09283042 1.0903573 4739419
-0.3387717 0.093291648 1.0924674 4081746
-0.37581295 0.098550305 1.0900946 4410445
-0.36730653 0.10030341 1.087971 4213839
-0.35713169 0.1017151 1.0890516 4345429
-0.34711355 0.10218419 1.09013 4016211
-0.33914036 0.10256895 1.0921488 3621193
-0.36716124 0.10577779 1.0879006 3884109
-0.35794163 0.1075764 1.0888715 3752784
-0.34760633 0.10842006 1.0899783 3621192
-0.3402895 0.1079713 1.0907785 3686459
-0.37340799 0.062155042 1.1014192 4673626
-0.36497465 0.061911825 1.0994797 4870741
-0.35581994 0.061552551 1.1006632 5265754
-0.34592938 0.063147061 1.1019789 5397604
-0.33801922 0.066666633 1.1057585 4608350
-0.37473136 0.070988357 1.0971845 4673629
-0.36607388 0.070151612 1.0959564 4870744
-0.35753283 0.069322474 1.0965599 5134174
-0.34554195 0.072400413 1.0984671 5397606
-0.3378455 0.073971912 1.1034675 4476760
-0.33221841 0.078581557 1.1061996 4015442
-0.3827948 0.078690618 1.1007164 3883351
-0.37878546 0.078926712 1.095916 4475995
-0.3451049 0.078969106 1.097755 5068641
-0.33651268 0.082977794 1.100688 4082513
-0.3311823 0.084707193 1.1057125 3752531
-0.38069582 0.088759102 1.094347 4079443
-0.33525032 0.092216372 1.1001234 3621705
-0.33090407 0.090298168 1.1037433 3751503
-0.33731416 0.099606395 1.0982745 3490378
-0.36171049 0.0451237 1.1145957 5002588
-0.35853907 0.045382578 1.1149353 5528419
-0.37303776 0.053828143 1.1132309 4739163
-0.36530572 0.051505499 1.1111435 5002333
-0.35586166 0.051968198 1.1121039 5397092
-0.34703758 0.054756802 1.1143817 5332066
-0.34132403 0.056416899 1.1166275 4740695
-0.37419951 0.057597037 1.1077644 4082256
-0.36702901 0.056982748 1.1067907 5068120
-0.34457755 0.059396602 1.1111979 5200736
-0.33693114 0.063445486 1.1141121 4345175
-0.33029705 0.065980129 1.1170971 4278096
-0.33466417 0.073066555 1.1109076 4147028
-0.33029228 0.073051654 1.1154901 3819087
-0.33067113 0.0804784 1.1115686 3687502
-0.35483205 0.033991754 1.1265823 5528423
-0.35060444 0.034877051 1.1270264 5397348
-0.36509997 0.040914327 1.1199951 4804702
-0.3556211 0.041468345 1.1204306 5462626
-0.34662676 0.042908225 1.1239779 5003105
-0.33898774 0.047118068 1.1256785 4804440
-0.37512055 0.050225973 1.1201038 3817824
-0.36848024 0.046916042 1.1168517 4673622
-0.35258088 0.048213892 1.1185545 5660265
-0.34538007 0.050362069 1.1193011 5069150
-0.33686164 0.053928684 1.1221801 4475986
-0.33180442 0.058644008 1.1226541 4014924
-0.334344 0.060430173 1.1203387 4606547
-0.32890508 0.063326836 1.1213856 3620428
-0.36153844 0.026766649 1.133011 4079956
-0.35466957 0.026282916 1.1314636 5266270
-0.34914345 0.02723489 1.134347 5002845
-0.3646608 0.032651573 1.1305679 4079963
-0.35669526 0.030647987 1.1294509 5330781
-0.34661514 0.033739816 1.1321516 5002331
-0.34364137 0.039946426 1.1307193 5001816
-0.33985695 0.043144736 1.1322863 4540755
-0.33584419 0.050332338 1.1314008 4213074
-0.35602885 0.016822211 1.1458365 5265766
-0.35735676 0.021135088 1.1427504 5068639
-0.34880736 0.023482759 1.1431609 4214103
-0.36540157 0.026648432 1.1366181 1580089
-0.3446179 0.030197294 1.1394855 4145996
-0.3422876 0.036171593 1.1389734 4212054
-0.36263642 0.015300604 1.1481621 3618132
-0.35710856 0.014650412 1.1487715 5199718
-0.35066542 0.016277784 1.1494442 4214875
-0.34920993 -0.043285109 1.1666353 528927
-0.34408182 -0.043536536 1.1671951 1517876
-0.34546936 -0.053287026 1.17927 4419983
-0.36078179 -0.047740418 1.1755111 1651559
-0.3551048 -0.046583075 1.1729465 1782104
-0.34268036 -0.048140481 1.1721979 4154236
-0.33824915 -0.044268679 1.1764615 3028033
-0.35330915 -0.039260793 1.1781995 2369321
-0.34516343 -0.038785696 1.1754533 2040105
-0.35430357 -0.020192105 1.1737676 4146252
-0.3611739 -0.05246862 1.1856028 5077683
-0.35407111 -0.054510504 1.1850635 4617364
-0.34469932 -0.054124102 1.1860731 4549258
-0.33958626 -0.048364472 1.183854 6582660
-0.36266685 -0.041192602 1.1812396 7695014
-0.35540515 -0.036833175 1.1826286 2040625
-0.34739926 -0.034965575 1.1827962 2172202
-0.34029731 -0.039366603 1.1836352 2760198
-0.35563311 -0.063606843 1.1944265 4683677
-0.34998411 -0.063145719 1.1950315 3831442
-0.36361292 -0.057374146 1.1923138 3299734
-0.3563017 -0.059026171 1.1917213 4683420
-0.34786826 -0.058817741 1.1935831 3960460
-0.35813218 -0.13654603 1.2083817 3829135
-0.35011333 -0.1354081 1.2092328 4223637
-0.3439078 -0.13535188 1.2099046 3960467
-0.35967904 -0.12726529 1.2080679 3498881
-0.35132137 -0.12613368 1.2085534 3895695
-0.34368718 -0.12416546 1.2097523 3631246
-0.36012524 -0.11615404 1.2048267 3499128
-0.35288021 -0.11636716 1.2056153 4025235
-0.34443057 -0.11467441 1.2083726 3499655
-0.36004633 -0.10678808 1.2026758 3826560
-0.35341784 -0.10628017 1.2038893 4156303
-0.34574836 -0.1061444 1.2072333 3630985
-0.36088014 -0.097238757 1.205453 3893387
-0.35419872 -0.096416146 1.2045994 4157333
-0.34717372 -0.095286652 1.2074108 3762828
-0.36008039 -0.088620827 1.2074161 3762325
-0.35424015 -0.085658327 1.2043138 4420507
-0.34831744 -0.085285954 1.2072971 3828877
-0.36231157 -0.074932508 1.2069587 4222878
-0.35464931 -0.076241456 1.2040541 4552347
-0.34879568 -0.076109312 1.2076373 3631755
-0.36406556 -0.067275077 1.2010146 3627913
-0.35513961 -0.06831634 1.1999193 4683676
-0.34846035 -0.066407815 1.2035702 3892613
-0.34778735 -0.058518745 1.2002267 3563127
-0.35953578 -0.1463988 1.2138457 3033484
-0.35145894 -0.14667571 1.2171347 2897991
-0.34148592 -0.14506832 1.2176971 3891064
-0.33424458 -0.14368013 1.2201368 2638186
-0.3640902 -0.13768598 1.2117778 666715
-0.35310957 -0.13904276 1.2129893 4813457
-0.33987808 -0.13500549 1.2143598 3499654
-0.33317456 -0.13425145 1.2187806 3561592
-0.36564255 -0.12638144 1.2114316 6722
-0.34075952 -0.12550998 1.2141148 3694979
-0.3344844 -0.1246961 1.216794 3233144
-0.34001651 -0.11501209 1.21403 3104639
-0.33571959 -0.11457298 1.2176896 2640231
-0.3414689 -0.10538923 1.2137212 2907007
-0.33762926 -0.10509007 1.2187052 3099492
-0.36466357 -0.094989851 1.2110435 4089741
-0.34265736 -0.095863484 1.2138016 3496061
-0.33897191 -0.094326586 1.2188475 4278874
-0.36300927 -0.08673697 1.2110929 2972810
-0.34423605 -0.085586496 1.2144812 3757171
-0.3407625 -0.086321473 1.2185274 3748927
-0.36231869 -0.08088214 1.2110755 3630740
-0.34407622 -0.078233339 1.213011 3953004
-0.35215759 -0.15286845 1.2223638 984897
-0.34207425 -0.14815108 1.2233825 4350584
-0.33383 -0.12338466 1.2245568 4674411
-0.33481386 -0.11486293 1.2266634 6974583
-0.33742461 -0.10395055 1.2262086 3815753
-0.36944199 -0.095864899 1.2195932 5799072
-0.33702868 -0.09438733 1.2230829 5064001
-0.33457625 -0.12914065 1.2369735 7039097
-0.3354114 -0.12338208 1.2377983 7565430
-0.33674532 -0.11480429 1.2371835 8223350
-0.33717301 -0.10666157 1.2323143 9076613
