# .PCD v0.7 - Point Cloud Data file format
VERSION 0.7
FIELDS x y z rgba
SIZE 4 4 4 4
TYPE F F F U
COUNT 1 1 1 1
WIDTH 1126
HEIGHT 1
VIEWPOINT 0 0 0 1 0 0 0
POINTS 1126
DATA ascii
0.15246066 -0.11675494 1.129082 3565735
0.15505388 -0.11741911 1.1231843 3500198
-0.12809998 -0.097404972 1.1173999 3170977
0.15309185 -0.10776554 1.1282784 3631790
0.15401281 -0.10943563 1.1310109 3434923
-0.1278208 -0.086872302 1.1162223 3302823
0.15318097 -0.096307091 1.1282449 3566513
-0.12736435 -0.076903738 1.1147276 3368614
0.1526242 -0.087024167 1.128098 3632560
-0.12662035 -0.069198906 1.1159526 3565995
0.15185691 -0.076842375 1.126616 3895728
-0.12318146 -0.05424276 1.1174151 3697842
0.14995022 -0.06683255 1.1249001 4158132
-0.12116364 -0.046028946 1.116106 3502262
0.14917806 -0.056109816 1.1258821 4027837
-0.11814193 -0.036630549 1.1154641 3698611
0.14461286 -0.044423107 1.1295097 4619197
0.15049811 -0.047833394 1.1242441 4946612
-0.12401089 -0.030031331 1.1113497 7180220
-0.11658564 -0.027188554 1.1187788 4815032
0.14479636 -0.037955344 1.1287344 5209534
0.14985068 -0.036509134 1.1215554 8425655
0.025992088 0.090684429 1.1147325 9474444
-0.065109611 -0.21525408 1.1318225 8300241
-0.082858324 -0.20645645 1.1273729 7642055
-0.075478882 -0.20735264 1.1297988 4815810
-0.068913937 -0.21102336 1.1316071 5210825
-0.091523319 -0.19422102 1.1264724 932767
-0.084754556 -0.19789013 1.1284724 2382238
-0.076347619 -0.20120515 1.1311588 2251168
0.10704534 -0.20474677 1.137979 6518691
0.11296609 -0.20396285 1.1367534 11319227
-0.093063682 -0.18738806 1.1281624 2447513
-0.087885886 -0.19101796 1.1305528 2513045
0.11510342 -0.19580883 1.1370636 4617903
0.12224597 -0.19613802 1.1343828 10929103
-0.10207777 -0.17602769 1.127216 2971544
-0.096335396 -0.17999882 1.128044 2774929
0.11754461 -0.18663636 1.1363761 2909086
0.12256569 -0.18591148 1.134213 3105187
-0.10905223 -0.16259447 1.1252646 2709911
-0.10471404 -0.16777918 1.1278715 2644371
0.12442896 -0.1761494 1.1347241 3368356
-0.11119807 -0.15586646 1.1268858 2775444
-0.10642156 -0.16015545 1.1279871 2709910
0.12917782 -0.16643745 1.135712 3368613
0.13354935 -0.16365866 1.1342225 3499683
-0.11407304 -0.14719024 1.1263074 2841497
0.13116685 -0.15901095 1.1380554 3237027
0.13608995 -0.15652603 1.1355238 3302821
-0.1195256 -0.13540623 1.1249678 2645144
-0.11620367 -0.13721496 1.1276641 2775964
0.13954808 -0.14670047 1.136326 3237542
0.14379679 -0.14329013 1.1355727 3106215
-0.12107025 -0.12693088 1.1256442 2907291
0.14126131 -0.13719834 1.1367055 3499683
0.14448969 -0.13536115 1.1352668 3303338
-0.12171565 -0.11696011 1.1263895 3039134
0.14641193 -0.12693192 1.135457 3499947
-0.12622985 -0.10252524 1.1235648 3236770
-0.12435766 -0.10683252 1.1270463 3236770
0.14852162 -0.11649011 1.135756 3500458
-0.12598599 -0.096050695 1.1234587 3237027
-0.12442353 -0.096405149 1.1275259 3302821
0.15126488 -0.10602939 1.1361392 3632048
-0.1256202 -0.086338885 1.1232997 3302824
-0.12407684 -0.08720053 1.1273752 3302569
0.14987783 -0.097085744 1.1358253 3632047
-0.12571022 -0.077258542 1.1231352 3434408
-0.12299517 -0.074924834 1.127197 3434665
0.14691876 -0.085929036 1.1351541 4026292
-0.12488861 -0.066915259 1.1229818 3631531
-0.12328149 -0.06608405 1.1270294 3631531
0.14737636 -0.077985764 1.1336551 4157366
-0.12464476 -0.060440719 1.1228757 4025255
-0.12139 -0.055398308 1.1251937 3632304
0.14730042 -0.066194095 1.132998 4289211
-0.11757469 -0.046551954 1.1246052 3568048
0.1445293 -0.055306293 1.1333697 4094399
0.1466433 -0.059752502 1.134861 4224702
-0.11597703 -0.04059073 1.1228426 3764911
-0.11247097 -0.036362529 1.1253986 3895729
0.14226402 -0.046783458 1.1339234 4487616
-0.11661872 -0.0224021 1.1254983 6458567
-0.11180963 -0.02636496 1.1251453 3895996
0.14264801 -0.035771437 1.1326865 5735616
0.14963888 -0.032782242 1.1324906 9477559
-0.11611612 -0.019719996 1.12647 6852289
-0.11286922 -0.0198403 1.1265918 5933254
0.057594605 0.075445876 1.1271769 9474701
-0.029231329 -0.22684374 1.1453604 7248329
0.0035406733 -0.22966358 1.1458173 5801654
0.011614798 -0.22884144 1.1455663 5210039
0.024319703 -0.2299237 1.1473882 6328255
0.031975739 -0.23020735 1.1476754 7379645
0.04352513 -0.23051351 1.1481063 8430007
0.051679641 -0.22910663 1.1443784 8625323
-0.066485122 -0.21746431 1.1358144 9678537
-0.055914786 -0.21775083 1.1427407 4422071
-0.046669312 -0.21874589 1.144574 2778029
-0.036987882 -0.22092056 1.1449693 2513574
-0.029485989 -0.22391205 1.145299 2315684
0.00038152654 -0.22574921 1.146432 2120102
0.012412438 -0.22619496 1.1468832 2185635
0.02557829 -0.22558692 1.1473576 2186146
0.031005666 -0.22688384 1.1475806 2316696
0.046400178 -0.22526254 1.148119 4486314
0.054038815 -0.22518319 1.1463974 5997746
0.065252751 -0.22262338 1.1476229 6063288
0.073924519 -0.22146064 1.1490656 6589614
0.082009792 -0.22197938 1.1493727 8757678
-0.071465433 -0.20530938 1.135415 1855898
-0.064966664 -0.20800726 1.1389432 2249885
-0.05752914 -0.21052812 1.1433001 2381985
-0.049517389 -0.212942 1.144366 3039902
0.068119265 -0.21565677 1.1487486 2841504
0.074155331 -0.21533249 1.1489652 3302564
0.083842695 -0.21345645 1.1479545 4420011
0.093825147 -0.21306446 1.1439307 6984117
0.10343935 -0.2107015 1.1419554 6254993
-0.082230568 -0.1943716 1.1356248 2710418
-0.074769422 -0.1978552 1.1395454 2775447
-0.068242669 -0.20028138 1.1426505 2906776
0.086550161 -0.2056441 1.1488496 3171492
0.095204398 -0.20463613 1.1463481 3237285
0.1037315 -0.20380639 1.1424155 3629215
-0.084999934 -0.18725067 1.1393995 2775191
-0.07709901 -0.19099565 1.1422926 2906012
0.097449362 -0.19548377 1.1478029 3040421
0.10457198 -0.19411922 1.1446524 3105703
0.11056997 -0.19464239 1.1419328 2777257
-0.099603444 -0.17270848 1.1337992 2710677
-0.09312211 -0.17677775 1.1376426 2709909
-0.087139577 -0.18056944 1.140403 2709910
0.10590586 -0.18572602 1.1481344 3368100
0.11370911 -0.18425107 1.143999 3302561
-0.10069835 -0.16606899 1.1367546 2710421
-0.096177548 -0.16902322 1.141066 2644886
0.10819902 -0.17802015 1.1495569 3040936
0.11642468 -0.17525846 1.1477222 3237031
0.12303741 -0.17264853 1.145004 3368615
-0.1097278 -0.15274541 1.1330715 2776209
-0.10464673 -0.15733975 1.1380943 2841240
0.11869721 -0.16681755 1.1497447 3237287
0.12541825 -0.16492307 1.1448115 3302822
-0.1106436 -0.1459811 1.1374547 2710683
-0.10618122 -0.14939481 1.1404822 2841499
0.12790075 -0.15655124 1.1473111 3237541
0.13310876 -0.15409017 1.1436443 3237798
-0.11247 -0.13734299 1.1378441 2907293
0.12981802 -0.14780881 1.1498169 3237797
0.13482526 -0.14553151 1.1449567 3303334
-0.11818208 -0.12549302 1.1334198 2907805
-0.11627072 -0.12710175 1.139581 2907805
0.13692167 -0.13619891 1.1474259 3434407
-0.11838631 -0.11614802 1.1347713 3039392
-0.11601196 -0.1173317 1.1402177 3039391
0.1392277 -0.1267084 1.1472152 3500202
0.14368249 -0.12404676 1.141899 3631274
-0.12125547 -0.10683841 1.1363685 3170979
0.14148518 -0.11648407 1.1492455 3631791
0.14510718 -0.11614372 1.1435903 3566510
-0.12131304 -0.096461177 1.137364 3105957
0.14112723 -0.10537051 1.1478117 3632305
0.14653865 -0.10676674 1.1420308 3501227
-0.12123257 -0.086470217 1.1349019 3237546
0.14104407 -0.096305564 1.1467681 3698099
0.14582695 -0.096945435 1.141897 3698094
-0.12025215 -0.07674896 1.1350037 3434923
0.1426077 -0.087075457 1.1472077 3895479
0.14499228 -0.089272268 1.1413295 3895477
-0.11950292 -0.066303387 1.1354653 3566256
0.14324251 -0.075768195 1.1483647 4027579
0.14587742 -0.075344242 1.1451181 4157882
-0.11814635 -0.057451148 1.1346011 3567024
0.14158325 -0.066171922 1.1476228 4159422
0.14606416 -0.066557273 1.1433675 4289724
-0.11538373 -0.047746997 1.1323326 3567791
-0.1124081 -0.045834832 1.1377461 3764403
0.14030842 -0.056105949 1.1459056 4356797
-0.11010836 -0.037079368 1.131575 3830196
0.13804437 -0.046449207 1.1447166 4619718
-0.10831314 -0.026199982 1.1337875 3896507
0.13438867 -0.034406327 1.1448573 4817095
0.139007 -0.035207797 1.1418167 4948420
-0.11560597 -0.016733103 1.1344424 6916535
-0.1081357 -0.017545506 1.1344242 5210049
0.13370608 -0.027951606 1.1468304 5013440
0.13826244 -0.027741276 1.1446593 5998788
0.036459982 0.049700394 1.1377217 5859448
0.044717718 0.049441457 1.1361718 6122362
0.050164398 0.049417436 1.1393754 6319482
0.061161783 0.050342873 1.1437676 5330522
0.037264585 0.054095328 1.1361482 5792108
0.045130949 0.054640785 1.1358945 5527648
0.050328694 0.053779468 1.139304 5067354
-0.023604486 -0.22697556 1.1485724 4354997
-0.016367396 -0.22823898 1.1508633 4684224
-0.006418338 -0.22833712 1.1497637 4289976
0.0046521286 -0.2264529 1.1496043 2054307
0.015048902 -0.22738747 1.150004 2777510
0.020490441 -0.22868778 1.1502275 4026798
0.036939025 -0.22929722 1.1508445 5604271
0.040839013 -0.22779366 1.1509614 4881326
-0.042169891 -0.21592849 1.1476922 3039902
-0.0342841 -0.21713084 1.1485045 2710943
-0.02600193 -0.21930188 1.151655 2645152
-0.016368596 -0.22246347 1.1554312 2514339
-0.0064173266 -0.22273724 1.1552689 2514851
0.0036379499 -0.22062787 1.1540674 2842787
0.013607009 -0.22060934 1.1522325 2908579
0.023262179 -0.22056389 1.1530768 3039651
0.033375241 -0.22162384 1.1545802 2908578
0.042754754 -0.22110307 1.1546664 2778020
0.052921142 -0.21985535 1.1526954 2646433
0.062435687 -0.22291721 1.1516706 5012145
0.073901489 -0.22462383 1.1521233 8955830
-0.054877196 -0.20702906 1.1473519 2841242
-0.04520094 -0.20942797 1.1498003 2775960
-0.036323689 -0.21100119 1.1520903 2841500
-0.027147859 -0.21345337 1.1562084 2907551
0.0045330692 -0.21388963 1.1573834 3105184
0.013748446 -0.2138623 1.1577226 3170722
0.023686076 -0.21423048 1.1580952 3302053
0.033828538 -0.21405312 1.1584657 3170723
0.044352934 -0.21352109 1.1588441 3105188
0.053765345 -0.21310398 1.1574678 3170467
0.063510112 -0.21331894 1.1539418 3236258
0.073843449 -0.21028969 1.1523114 3171236
-0.071033493 -0.19508246 1.1462584 2906776
-0.064637929 -0.19753827 1.1476815 2907033
-0.056372333 -0.19876969 1.1517015 2841497
-0.047398604 -0.20311491 1.1552786 2775704
0.054894418 -0.2076425 1.1591281 3105443
0.063727871 -0.20796978 1.1594595 3105443
0.074694447 -0.20467688 1.1585408 3105956
0.083287939 -0.20218068 1.1552733 3105956
-0.081585974 -0.18370447 1.1456674 2644884
-0.074771002 -0.18747818 1.1489881 2775705
-0.066617459 -0.19061074 1.1520131 2841497
0.078498334 -0.1974538 1.1598169 3172006
0.086272269 -0.19537467 1.1590655 3040421
0.092307955 -0.19328803 1.1567488 2974628
-0.090027958 -0.17460206 1.1451948 2645144
-0.083573326 -0.17656039 1.1485288 2710425
-0.078435406 -0.17944898 1.1502832 2776216
0.096086815 -0.1847793 1.1569871 3171493
0.10125904 -0.18279067 1.1539897 3237026
-0.092856199 -0.16643289 1.1475359 2710424
-0.086724237 -0.1688059 1.1517645 2710937
0.099122584 -0.17830409 1.1602366 3302823
0.10571535 -0.17451252 1.1572517 3172005
0.1116526 -0.17160386 1.156576 3172006
-0.10099466 -0.15478535 1.1444387 2841498
-0.096881792 -0.15737905 1.1495636 2907290
0.10837215 -0.16758355 1.160387 3303592
0.11478834 -0.16445902 1.1592336 3237544
0.12134044 -0.1604594 1.1527317 3303337
-0.10250226 -0.14623916 1.1459471 2973342
-0.098266453 -0.14941734 1.1524506 3038879
0.11868277 -0.15682429 1.1599087 3237544
0.12331866 -0.15403925 1.1554928 3303336
-0.11005612 -0.13441139 1.1447438 2973342
-0.10428369 -0.13771795 1.149519 2973600
0.12702264 -0.14502616 1.1566702 3368872
-0.11138619 -0.12647259 1.1459079 3039392
-0.10620368 -0.1273919 1.1517669 3236259
0.12861265 -0.13561095 1.158313 3500460
0.13333929 -0.13343643 1.1526937 3434923
-0.11214167 -0.11678749 1.1462444 3170978
0.12995535 -0.12671159 1.1591219 3500719
0.13486043 -0.12444608 1.1559262 3500718
-0.11816986 -0.10543992 1.1429294 3237029
-0.11463481 -0.10684383 1.1490896 3237286
0.13542908 -0.11555983 1.1585636 3697329
-0.11783926 -0.096662551 1.1427857 3237543
-0.11554348 -0.09618926 1.1503681 3172263
0.13700719 -0.10651009 1.1579553 3697843
-0.11788946 -0.086969078 1.1456141 3303340
-0.11596084 -0.085885651 1.1506702 3303852
0.13716012 -0.096057624 1.1581757 3764149
-0.11747473 -0.077265665 1.1424546 3500716
-0.11500399 -0.075858817 1.1505274 3501229
0.14054288 -0.085763797 1.1566877 3764661
-0.11680615 -0.069233291 1.1423365 3566512
-0.11367115 -0.065853991 1.1467593 3632306
0.13795322 -0.075455315 1.1563083 3896764
-0.1127082 -0.056263577 1.1466244 3698357
0.13227358 -0.065162838 1.1581141 4291265
0.13626148 -0.066570528 1.1527575 4225217
-0.11074698 -0.047329374 1.1461741 3764408
0.13344097 -0.055608537 1.1573201 4554434
0.13627334 -0.055537339 1.1514182 4488640
-0.10742165 -0.036721222 1.1469089 3895997
-0.1033036 -0.033619799 1.1502082 4027323
0.13349304 -0.044823028 1.1561297 4817354
-0.10539421 -0.027313881 1.1433469 3962044
-0.1015939 -0.026152655 1.1493379 4093118
0.12453216 -0.032104358 1.1585761 5014224
0.12996303 -0.035104856 1.1548262 4751563
-0.10385683 -0.01697541 1.1418854 4290235
-0.099143907 -0.0169475 1.1465957 4158908
-0.093012765 -0.014824793 1.1502535 4028609
0.12320089 -0.025041848 1.1566224 4817874
0.13007876 -0.025097162 1.1516502 5145287
-0.096434355 -0.010431156 1.1444447 4487616
-0.091118246 -0.0078935847 1.1488658 4356800
0.11483815 -0.012213834 1.155864 5276623
0.12119435 -0.015523806 1.1524396 5604813
0.13059103 -0.017112851 1.1514161 6720449
-0.088805094 -0.00096724182 1.1501625 5671109
0.11313826 -0.0065589175 1.1571306 5802961
0.11961883 -0.0076354817 1.1532899 6787017
0.037737325 0.012045473 1.1545938 12972031
-0.016992684 0.023959287 1.150364 5869264
0.015153384 0.01915139 1.1536355 7515376
0.022623405 0.018505834 1.1539222 8764660
0.032200873 0.017708473 1.1542892 10146554
0.038787115 0.016431868 1.1545546 10870005
-0.074107185 0.034293771 1.142071 8028800
-0.068976074 0.034469903 1.1422569 7305855
-0.012638882 0.024975188 1.152508 5671370
-0.0093263388 0.024852455 1.1526322 5869265
0.013861459 0.023993343 1.1535019 6988787
0.018278183 0.023829691 1.1536676 7185904
0.10473719 0.029476926 1.1567529 6314850
-0.067569405 0.039422959 1.1422207 8028802
0.10177864 0.033126786 1.1565791 6117979
0.078543186 0.044386029 1.1475163 5593178
0.080736324 0.044304758 1.1475985 5658970
-0.021939088 -0.21654817 1.1604587 2973083
-0.016440913 -0.21786202 1.1606846 2973595
-0.0070332922 -0.21776912 1.1616968 2973598
-0.041465279 -0.20472336 1.1595292 2842012
-0.035146553 -0.20634516 1.1597909 2776219
-0.025967631 -0.20914215 1.1617038 2907806
-0.016497895 -0.21084629 1.1637185 2907807
-0.0059809256 -0.21177395 1.1642979 2973599
0.0030736038 -0.20981249 1.1619279 3039136
0.013815233 -0.20920885 1.1629802 3170723
0.023809161 -0.20947061 1.1626859 3236770
0.0336366 -0.20938465 1.1623793 3170979
0.042678967 -0.20950618 1.1627146 3170980
0.049389511 -0.2080896 1.1629367 3171236
-0.052211087 -0.19544412 1.1589684 2842012
-0.045650024 -0.19793026 1.1607101 2842011
-0.036171101 -0.20052515 1.1621133 2842012
-0.028005626 -0.20225278 1.1639845 2907805
0.018359207 -0.20536305 1.1657481 3302309
0.024448719 -0.20445004 1.1648126 3302308
0.033144943 -0.20467329 1.1637787 3171236
0.043933101 -0.20566717 1.1626925 3171236
0.054534886 -0.20465842 1.1647333 3105443
0.064440906 -0.20311247 1.1644037 3171492
0.071088925 -0.20149267 1.163619 3040420
-0.072845265 -0.18357827 1.1579974 2841497
-0.064204216 -0.18664041 1.158904 2907291
-0.055926796 -0.18957724 1.1606113 2907549
-0.049383629 -0.19097102 1.1629965 2907551
0.067696914 -0.19605157 1.1674007 3040420
0.074843094 -0.19450486 1.1657403 3106213
0.082828894 -0.19223244 1.1638871 3106214
-0.074176252 -0.1770058 1.1598333 2907290
-0.067761824 -0.18009987 1.1616259 2973340
0.079149991 -0.18756433 1.1676719 3302823
0.085365444 -0.18544768 1.1654614 3237030
0.091618702 -0.18226777 1.1658132 3237031
-0.090929419 -0.16292578 1.1569643 2841497
-0.082694322 -0.16670382 1.1578686 2842012
-0.076757714 -0.16912079 1.160599 2907547
0.097117648 -0.17479669 1.1650277 3368361
0.10235137 -0.17175215 1.1642426 3237285
-0.092184037 -0.15695857 1.1568121 2973085
-0.085521743 -0.15738551 1.1598042 3039135
0.099727556 -0.16776948 1.1640753 3368615
0.10634173 -0.16467039 1.1649917 3237799
0.11105792 -0.16152847 1.1643819 3303337
-0.099083468 -0.14375135 1.1563232 2973857
-0.093852028 -0.14745168 1.1581385 3039137
-0.088050097 -0.148508 1.1608175 3104930
0.10856351 -0.15722764 1.1662152 3172264
0.11493576 -0.15459339 1.1650687 3238059
-0.10000138 -0.13549404 1.1571436 3039650
-0.096271515 -0.13918041 1.160349 3105700
0.11848205 -0.14495134 1.1665165 3369132
0.1227641 -0.14531013 1.1645252 3434410
-0.10245791 -0.1268234 1.1576139 3171236
0.12063834 -0.13688731 1.1674998 3500719
0.12413688 -0.13473119 1.1663895 3435183
-0.10907771 -0.1145175 1.1554358 3302823
-0.10460553 -0.11662022 1.1583067 3171495
0.12528449 -0.12467356 1.1660712 3566514
-0.11055069 -0.10579892 1.1566824 3368873
-0.10698491 -0.10707964 1.1585834 3368875
0.12837993 -0.11560664 1.1650051 3697588
-0.11115696 -0.096685261 1.1577113 3303850
0.13020994 -0.10602627 1.1675332 3763892
0.1335827 -0.10552403 1.1642171 3698099
-0.11207546 -0.08645732 1.1564282 3435181
-0.10633476 -0.087120362 1.1590534 3435438
0.13158818 -0.095935576 1.1679765 3829942
0.13455687 -0.095543236 1.1652194 3764149
-0.11069149 -0.076823249 1.1567084 3501229
0.13209096 -0.082586832 1.167758 3896505
0.13645272 -0.08566837 1.1657898 3830455
-0.10970597 -0.067000709 1.1561084 3632563
-0.10545489 -0.063760057 1.158671 3567542
0.13009897 -0.075392559 1.1649833 4027837
0.13524126 -0.079164244 1.16381 3896505
-0.1085619 -0.056982175 1.1557672 3829940
-0.10520351 -0.057085685 1.1585617 3699127
0.12891567 -0.06570939 1.1660068 4291009
-0.10774261 -0.046874426 1.1550841 3895737
-0.1041552 -0.046144184 1.158406 4027576
0.12961377 -0.055701587 1.1651875 4422849
-0.10628013 -0.04024202 1.1542195 4158911
-0.10173297 -0.036676455 1.1563255 4093372
0.12994277 -0.045972072 1.1645265 4817355
-0.097618923 -0.027432039 1.1558509 4093630
-0.092828676 -0.024125747 1.1584322 4094397
0.1228781 -0.03494459 1.164793 5080014
0.12734744 -0.038351797 1.1627942 4883149
-0.095159516 -0.019931503 1.1542685 4028348
-0.090618849 -0.017516285 1.1558942 4028864
0.11877133 -0.025150582 1.1640229 4949202
-0.086711675 -0.0080576539 1.1561886 4029123
-0.082494855 -0.0059428215 1.1584901 3963586
0.11303303 -0.015052974 1.1645218 5146069
0.11640254 -0.019629031 1.1620584 5080276
-0.085544035 -0.00030530244 1.1542742 5342665
-0.078497753 0.0016495958 1.1585025 4882633
-0.014983943 0.0030666515 1.1608175 6070261
-0.0083132051 0.0028194934 1.1610677 6528744
-0.0016424684 0.0025723353 1.1613178 8827627
0.013922582 0.0019956455 1.1619016 10340848
0.02263413 0.0010363311 1.1622397 8895736
0.030104432 5.9358776e-005 1.1625322 6266608
0.1044599 -0.0019321889 1.1643065 5475287
0.10886469 -0.005642578 1.1628666 5475028
-0.074730143 0.0074716136 1.1565362 5999306
-0.068036661 0.0083337426 1.1567675 5540557
-0.059329931 0.011336997 1.1563678 5803727
-0.046662197 0.012656853 1.15948 4950220
-0.037754066 0.01120162 1.159834 5016280
-0.028049935 0.010224067 1.1598086 5411294
-0.017948369 0.0098060891 1.1583468 5806569
-0.0080330558 0.0094783902 1.1603593 7120874
0.0015486814 0.0098804235 1.1613057 12379901
0.012202319 0.0089197382 1.1591868 13891069
0.022020573 0.0083061382 1.1588852 12969723
0.03193862 0.0081903338 1.1601377 9946095
0.041973393 0.0075934231 1.1609211 10013177
0.051776435 0.0091079026 1.1610144 7449069
0.058414616 0.01074402 1.1633855 5411552
0.10175455 0.0020346642 1.1626351 6526426
-0.044499479 0.017527595 1.1594731 6264275
-0.036792733 0.018005118 1.1572466 5803990
-0.027149383 0.018253669 1.1560962 5345755
-0.01710831 0.019144148 1.1564504 5412839
-0.0075269081 0.019390769 1.1572994 5676266
0.0013771346 0.018177636 1.1600082 7253489
0.011257965 0.017599516 1.1585238 8436213
0.021176964 0.014982969 1.1579349 12051453
0.035747789 0.018883653 1.1584026 10082302
0.043549716 0.017854497 1.1587082 10607102
0.051991351 0.016695917 1.1590399 7515119
0.058948323 0.015845947 1.1606457 6068200
-0.0050806403 0.024836913 1.1567924 6001365
-0.00064870249 0.024672709 1.1569586 6396124
0.11191812 0.026274741 1.1610779 6447199
-0.013051733 -0.20707822 1.1686246 3039391
-0.0055523142 -0.20675904 1.1703966 3039135
0.0059133591 -0.20778087 1.169336 3104930
-0.041636761 -0.19484153 1.1673541 2776478
-0.035376031 -0.19593693 1.1696059 2842271
-0.025628433 -0.19790274 1.1721836 2907807
-0.01650255 -0.20009287 1.1730731 2908063
-0.0065698642 -0.20129304 1.1745656 2973600
0.0037915017 -0.20070153 1.1744698 3105187
0.013753637 -0.20073435 1.1739172 3236773
0.023521278 -0.19976723 1.1735789 3237029
0.034448516 -0.20025668 1.1740569 3171237
0.044136256 -0.20160356 1.1721358 3171236
0.053724047 -0.20040776 1.1718905 3105444
0.062650234 -0.19926432 1.1712753 3171493
-0.053598505 -0.18547054 1.1699495 2841758
-0.045625813 -0.18806154 1.17109 2907551
-0.036872953 -0.18944685 1.174263 2842271
-0.026289318 -0.1910091 1.1758583 2908064
-0.01959243 -0.19238262 1.1761293 2973857
0.0017484119 -0.19317332 1.1769297 3105444
0.014640462 -0.19265063 1.1773955 3237030
0.024691101 -0.19345215 1.1769793 3302823
0.034373872 -0.19303104 1.1772054 3171495
0.043793671 -0.19197756 1.1770653 3105703
0.053488661 -0.19259897 1.1772246 3105703
0.063371345 -0.19249773 1.1756853 3105702
0.071891136 -0.19035318 1.1731731 3105958
-0.064515814 -0.17738897 1.1678495 2973598
-0.056756098 -0.1793271 1.1725265 2907551
-0.047021318 -0.18151927 1.1749258 2908065
0.065336734 -0.18410234 1.1791116 3237288
0.074262217 -0.18375896 1.1769879 3302823
0.083101422 -0.18209134 1.1742973 3237287
-0.073528349 -0.16576032 1.168522 3105183
-0.066322252 -0.16935009 1.1721145 2974112
-0.058184933 -0.17182124 1.1743422 2842786
0.075916946 -0.17701489 1.1793755 3171750
0.084720194 -0.17375073 1.1783074 3172008
0.09300144 -0.17237198 1.1742511 3303081
-0.081197515 -0.15582381 1.1658707 3104930
-0.075287417 -0.15826705 1.1721368 3170978
0.087470502 -0.16548175 1.1795964 3303337
0.09537828 -0.16429088 1.1776147 3368873
0.10247798 -0.16329911 1.1746514 3237543
-0.090610534 -0.14264698 1.1672914 3040164
-0.084079206 -0.14662965 1.1687266 3105701
-0.078029186 -0.15120423 1.1732448 3302822
0.097205803 -0.155296 1.1797742 3303597
0.10485122 -0.15322186 1.1756517 3238059
0.11209059 -0.15045686 1.1742316 3303852
-0.092851445 -0.13620743 1.1682065 3106213
-0.085328847 -0.13846079 1.1727495 3172007
0.10593814 -0.14411913 1.1796973 3369387
0.11401489 -0.14424108 1.1761938 3435181
-0.099520013 -0.12575687 1.1653286 3237030
-0.093140528 -0.12659642 1.1699156 3237800
-0.08698757 -0.13024029 1.1725423 3303594
0.10797495 -0.13813902 1.1798662 3500972
0.11665371 -0.13423291 1.1768639 3500976
0.12161531 -0.13158903 1.1722457 3500977
-0.10037495 -0.11643339 1.1669109 3237545
-0.095927671 -0.11819895 1.1711094 3303852
0.11867787 -0.12473089 1.1800225 3566772
0.1221306 -0.1252553 1.1761556 3566515
-0.10252358 -0.10663629 1.1667967 3369389
0.11989243 -0.11523692 1.1798986 3763639
0.12346673 -0.1145132 1.1751244 3763639
-0.1087078 -0.092593268 1.1644011 3435181
-0.10360064 -0.096419096 1.1678981 3435438
0.12095149 -0.1041831 1.1797413 3895737
0.12612455 -0.10433945 1.1747538 3764149
-0.10800371 -0.086121604 1.1653796 3435438
-0.10281275 -0.086879216 1.1696494 3501231
0.12116313 -0.098564029 1.1796492 3961530
0.12687519 -0.094877653 1.1746134 3961528
0.13428475 -0.0918191 1.1720062 3895735
-0.10739659 -0.076877445 1.1658384 3501489
-0.10323223 -0.076762296 1.1688745 3501490
0.12184039 -0.080582991 1.1793548 4159679
0.12754175 -0.085550718 1.1749219 3962041
0.13436884 -0.089586705 1.1719697 3895735
-0.10755189 -0.069542594 1.1647015 3501747
-0.10272795 -0.066485718 1.1674938 3567541
0.12133145 -0.074186966 1.1792225 4225473
0.12514833 -0.074896418 1.1753722 4159424
-0.10053496 -0.056426898 1.1663284 3764919
0.12141576 -0.065312073 1.179068 4422597
0.12552798 -0.064816341 1.1752073 4357059
-0.09966892 -0.046683799 1.1660156 3896505
-0.095087305 -0.046661865 1.1707594 3962298
0.12169074 -0.054693643 1.1788895 4685767
0.12590764 -0.054736272 1.1750422 4422851
-0.097798944 -0.037651941 1.1640941 4027836
-0.092920795 -0.035980292 1.1695577 4028094
0.12029496 -0.044076994 1.17653 4948684
0.12629423 -0.046276469 1.1719037 4751818
-0.09574075 -0.029644027 1.1624264 4093632
-0.090262175 -0.026299514 1.1684198 4094399
0.11386965 -0.033396713 1.178223 5080784
0.11831309 -0.034707755 1.1736059 5211343
-0.086645842 -0.018010475 1.1669221 4094402
-0.080108166 -0.015143938 1.1697507 4226244
-0.073599815 -0.013696499 1.1709656 4620744
-0.01964378 -0.014570229 1.1729692 5412064
0.0028202664 -0.015402533 1.1738117 6463211
0.010736478 -0.019535393 1.1741768 6397929
0.020434737 -0.019253612 1.1745291 6397929
0.029728744 -0.017685667 1.1748437 6003432
0.11131096 -0.02405867 1.1754607 5081042
0.11660042 -0.027451582 1.1702113 5081041
-0.078267097 -0.007479921 1.1645447 4160963
-0.070360437 -0.0067496523 1.1701037 4752075
-0.055247623 -0.0042480156 1.171474 4949201
-0.048529577 -0.0050596222 1.1717359 5016022
-0.038979024 -0.0065447092 1.1714469 5213659
-0.029175185 -0.0078218281 1.1712663 5411552
-0.019387998 -0.0089597926 1.1720783 5740773
-0.0093233213 -0.0093256906 1.1732563 6003172
0.00079920236 -0.0097042546 1.1732357 6331366
0.010980166 -0.010098517 1.1710156 6989552
0.02105337 -0.010469377 1.1717937 6792432
0.031150069 -0.010846578 1.1715218 5937640
0.039577998 -0.010206573 1.1740729 5806054
0.050291058 -0.0092836916 1.1754521 5674725
0.057072598 -0.0084095597 1.1756865 5674983
0.10274786 -0.012633979 1.1774445 5146841
0.10889047 -0.015018389 1.171994 5080789
-0.074482903 0.00086562335 1.1626678 4554184
-0.071120113 0.0016170591 1.1657808 4751049
-0.055988532 0.0013735741 1.1693451 4818129
-0.048526473 0.0010862872 1.1688246 5015507
-0.038873442 0.00068666041 1.1657845 5147609
-0.028731428 0.00029405951 1.1648641 5346018
-0.019214466 -0.00039826334 1.1678402 5937898
-0.0088159163 -0.0015267581 1.1684659 6462952
0.0016869549 -0.0011823177 1.1679571 8303605
0.011081629 -0.0016501099 1.1672949 8501495
0.020918664 -0.0030064434 1.1668675 7252467
0.032201655 -0.0028676912 1.1681206 6069484
0.041346703 -0.0021041781 1.169306 6135528
0.051316626 -0.0028068051 1.1727844 5741031
0.06064219 -0.0029303357 1.1747198 5543655
0.070120305 -0.0019675419 1.1760528 5477092
0.080221459 -0.0010144264 1.1764081 5739747
0.091568857 -0.0016849563 1.176838 5280481
0.10081378 -0.004714705 1.173537 5015513
0.10630597 -0.0069291592 1.1714691 4949463
-0.067537084 0.0073148385 1.1628091 4818122
-0.05807915 0.0079579651 1.1631461 5147606
-0.049374286 0.0083806142 1.1634594 4818639
-0.040762853 0.0063228384 1.1638132 5344472
0.0038819276 0.0052275956 1.1654776 12971007
0.008323282 0.0045041516 1.1656542 12905215
0.03286634 0.0035948157 1.1665746 5807584
0.046253465 0.0030988082 1.1670767 6004710
0.052345585 0.0038311779 1.1672882 5807083
0.061140053 0.0060176179 1.1697085 5477863
0.069522738 0.0053128675 1.1725652 5542628
0.081083134 0.0019546673 1.1763871 5673698
0.091766462 0.0034941435 1.1752521 5804766
0.097570777 0.0011974722 1.1690013 5147865
0.064523384 0.013599493 1.1675633 5412324
-0.013133189 -0.19547802 1.1804256 3039650
-0.006717423 -0.19636098 1.1806778 3039650
-0.033122007 -0.18683307 1.1795356 2842271
-0.026359968 -0.18708362 1.1797892 2973857
-0.016136546 -0.18853377 1.1814559 2973857
-0.0065103602 -0.19062355 1.1831118 3039395
0.0042351866 -0.18909827 1.1827315 3171237
0.013608309 -0.1880382 1.1823463 3237030
0.023943115 -0.1878626 1.1831962 3302569
0.032272935 -0.18831587 1.1833059 3237546
-0.052369747 -0.17563456 1.1786275 2908065
-0.044839103 -0.17688145 1.1789271 2973857
-0.036272205 -0.1789473 1.1802802 2973857
-0.026651893 -0.18118763 1.1817931 2973858
-0.018471178 -0.18228948 1.183998 3105444
0.013191518 -0.18346259 1.1851854 3237030
0.024933379 -0.18238696 1.185599 3302825
0.033881217 -0.18226814 1.1856186 3171754
0.04376778 -0.18318078 1.1843054 3171752
0.054134786 -0.1831508 1.1840981 3171753
0.062693402 -0.18035516 1.1839517 3237546
0.071029767 -0.17827082 1.1832211 3303592
-0.063176513 -0.16577041 1.1780541 2908579
-0.055149358 -0.16820627 1.1803948 2908579
-0.045417022 -0.17002276 1.1816955 3105444
-0.036884669 -0.17208999 1.1831384 3105443
0.057634048 -0.17604518 1.1866913 3303339
0.065791048 -0.17409451 1.1856227 3303082
0.074332744 -0.17233561 1.1838093 3237545
0.080385596 -0.16958392 1.1834115 3303850
-0.071767867 -0.15416016 1.1775312 3302822
-0.065409362 -0.15866685 1.1800975 3040165
-0.058498513 -0.16267833 1.1821748 3040167
0.069283068 -0.16741273 1.1869671 3303598
0.075522408 -0.16366194 1.1861885 3238061
0.084224626 -0.16195264 1.1845294 3303596
0.092037916 -0.15985288 1.183668 3369131
-0.081138834 -0.1432738 1.1769927 3171751
-0.07491079 -0.1471166 1.1787033 3368615
-0.068249658 -0.15098698 1.1816078 3171751
0.094042361 -0.15332371 1.1851271 3369134
-0.082845658 -0.13615309 1.1768032 3369130
-0.076919377 -0.13828468 1.1800619 3434922
0.095473483 -0.14368048 1.1865574 3435183
-0.084294066 -0.12747422 1.1779302 3434923
0.098483339 -0.13669057 1.1866968 3501232
0.10537498 -0.1338217 1.1862874 3435694
0.11225881 -0.1323722 1.1839249 3501232
-0.092073724 -0.11604145 1.1771069 3369646
-0.086565703 -0.11997442 1.1790477 3435182
0.10939261 -0.12471159 1.1876866 3567282
0.11359283 -0.12436803 1.1856517 3567027
-0.099938452 -0.10305546 1.1755856 3501231
-0.095608965 -0.1071037 1.1785693 3435439
0.10969093 -0.1167916 1.1875569 3829686
0.11495972 -0.11420158 1.1859257 3829431
-0.099811032 -0.099672601 1.1755302 3501231
-0.095369861 -0.096567735 1.1773068 3567024
0.11760065 -0.10490676 1.1863028 3830201
-0.099280134 -0.085577339 1.1752994 3632818
-0.096155822 -0.086381204 1.1774305 3698612
0.12013924 -0.094395086 1.1855425 3896507
-0.098919123 -0.075992562 1.1751425 3633333
-0.095189959 -0.076280773 1.1780874 3764919
0.12037759 -0.084197901 1.1848696 4093886
-0.099038661 -0.067180417 1.1749816 3633334
-0.095089018 -0.066340283 1.1783148 3830201
0.1177136 -0.074457183 1.1853213 4291523
-0.094222084 -0.056089651 1.17663 3896506
0.11764209 -0.063974284 1.1845098 4619975
-0.090588734 -0.046667125 1.1766442 4028348
0.11211997 -0.052300256 1.1865009 5146320
0.11649565 -0.054700937 1.185704 4883148
-0.088466376 -0.037348725 1.1751271 3962814
-0.083536118 -0.036129475 1.1778607 3963072
0.11151664 -0.043470223 1.1848205 5146577
0.11528733 -0.045265973 1.1829897 5080527
-0.086741373 -0.028340064 1.1747447 4028607
-0.080583945 -0.026785493 1.1770791 4291526
-0.030725896 -0.026613608 1.1807814 5147865
-0.023254022 -0.02666384 1.1810576 5344731
-0.0069362558 -0.026362024 1.1816534 5345501
-0.00015139394 -0.026613407 1.1819079 5739743
0.009979588 -0.029243581 1.1809934 5936862
0.019009687 -0.029580951 1.1816658 5871068
0.029207068 -0.028834157 1.1830291 5739228
0.047342654 -0.028373092 1.1836891 5213656
0.10998075 -0.034528092 1.1845051 4949970
-0.078449845 -0.019444346 1.1748923 4422856
-0.06991674 -0.014965594 1.1769469 4686797
-0.059525225 -0.014218785 1.1774985 4884690
-0.04925257 -0.01601395 1.17941 4950486
-0.038809393 -0.017174013 1.1789814 5213659
-0.030226924 -0.018694773 1.1774565 5279707
-0.020137589 -0.020199999 1.1782553 5345244
-0.0099217147 -0.018946752 1.1785204 5411808
-0.00011035893 -0.020428002 1.178706 5806052
0.0091289021 -0.023912489 1.1781986 6068964
0.021136146 -0.024733759 1.1786556 6068963
0.031214911 -0.022710018 1.1799148 6003173
0.039692402 -0.021290295 1.1810796 5608417
0.049856313 -0.021666348 1.1820613 5411038
0.056644827 -0.021919705 1.1839173 5279709
0.10137527 -0.021834381 1.18464 5212630
0.10694259 -0.025661945 1.1831682 5015248
-0.065941662 -0.0094627291 1.1751759 4949712
-0.059179623 -0.0097132698 1.1754295 4949713
-0.049036562 -0.010089077 1.1758099 5016279
-0.039658997 -0.010812923 1.1761682 5213659
-0.031046927 -0.011884794 1.1765046 5345501
0.041666225 -0.014014281 1.1792216 5871590
0.050140005 -0.013763644 1.1795294 5871847
0.060393445 -0.011876889 1.1818753 5543139
0.067700908 -0.011013202 1.1824152 5280225
0.092126101 -0.011904255 1.1850467 5411294
0.098020226 -0.013578624 1.1827461 5279196
0.070181154 -0.0060372204 1.1801306 5411556
0.079824433 -0.0047007203 1.1804621 5412066
0.091094494 -0.0051182881 1.1808848 5477344
0.097771585 -0.0076240674 1.1811754 5213404
-0.0055463966 -0.1859805 1.1885432 3105189
-0.025607407 -0.17675054 1.188641 3039906
-0.016015911 -0.17923459 1.1894673 3039908
-0.0066083167 -0.18071365 1.1917466 3105447
0.0041106194 -0.1803759 1.18955 3105702
0.01325645 -0.17947732 1.1891205 3171750
0.022245772 -0.17939699 1.1894503 3237289
0.033765033 -0.17796355 1.1898493 3237548
0.043976568 -0.1783419 1.1902323 3171752
0.053053487 -0.1786782 1.1905726 3171752
-0.052753087 -0.16429925 1.1864188 3039909
-0.044974569 -0.16530457 1.1876128 3105701
-0.03699011 -0.16822454 1.1896168 3105443
-0.027660556 -0.17394313 1.1915178 3040163
0.0031110803 -0.17417073 1.1926557 3105960
0.014537221 -0.17347878 1.1930645 3105958
0.023708839 -0.17231944 1.1925812 3237545
0.034172989 -0.17166349 1.1918594 3237547
0.044232629 -0.17173141 1.1917256 3237544
0.054288402 -0.17187524 1.1921829 3237545
0.063041322 -0.1702269 1.1914577 3303339
-0.063630879 -0.15446064 1.1858431 3172009
-0.05542725 -0.1578913 1.1886083 3105961
-0.046246435 -0.16042243 1.1905929 3171752
0.037658349 -0.16495696 1.193765 3303337
0.044488866 -0.16521002 1.1940211 3303593
0.054608781 -0.1646073 1.1943834 3303594
0.06394805 -0.1623576 1.1934365 3303596
0.070918933 -0.16115102 1.1909196 3238062
-0.070685193 -0.14567314 1.1854272 3434409
-0.065121815 -0.14759696 1.1884922 3237547
-0.056926686 -0.15025359 1.1900188 3237805
0.065137379 -0.15507571 1.194602 3238318
0.074573241 -0.15250909 1.1937832 3238572
0.084753498 -0.1526992 1.1924802 3434926
0.09131217 -0.15235735 1.1915148 3369134
-0.072728291 -0.13654014 1.1864214 3435179
-0.066954091 -0.13872756 1.1889998 3369388
0.079413667 -0.14597268 1.1949663 3500977
0.085197777 -0.14266236 1.1941198 3435186
0.090757936 -0.14293912 1.1913271 3500720
-0.080819428 -0.1254956 1.1856961 3566511
-0.075294524 -0.12855366 1.1876221 3566767
-0.068237603 -0.13137704 1.1892667 3500977
0.086928636 -0.13508099 1.1945493 3501234
0.095000014 -0.13298196 1.1920571 3501490
-0.089868262 -0.11199468 1.1841221 3566770
-0.083385363 -0.11677824 1.1870481 3632306
-0.07700175 -0.12192729 1.1887759 3632563
0.0970577 -0.12435903 1.1938196 3699127
0.10461769 -0.12338594 1.1919615 3633076
-0.090901658 -0.10634836 1.1849846 3566770
-0.085049063 -0.10741515 1.1882217 3763892
0.098238945 -0.11530285 1.1951152 3633335
0.10507959 -0.11340071 1.1928869 3764407
-0.090720192 -0.096239641 1.1866132 3698868
-0.086449251 -0.096990369 1.1879849 3699126
0.099258646 -0.10336403 1.1949407 3962811
0.10582903 -0.10371505 1.1940213 3830969
0.11363989 -0.10426898 1.1914834 3830714
-0.091448411 -0.086281814 1.1845311 3699126
-0.086325645 -0.086982757 1.1878117 3830712
0.10688032 -0.093798816 1.1944511 4028606
0.11515324 -0.094256081 1.1913613 3962300
-0.090536892 -0.076813646 1.185074 3830970
-0.085718602 -0.076630957 1.1876502 3962813
0.10747048 -0.084747262 1.1949126 4291522
0.11549091 -0.08469107 1.1915678 4094399
-0.090463266 -0.06673988 1.1850121 3962044
-0.085688397 -0.067181148 1.1874834 4093630
0.10946648 -0.074074998 1.1945297 4554438
0.11441523 -0.07506524 1.1909932 4357059
-0.089448318 -0.05673442 1.1844906 4093886
-0.084946379 -0.056128234 1.1873145 4291009
0.10805616 -0.063482463 1.1936668 4686026
0.11418834 -0.063851058 1.1907856 4685769
-0.087516561 -0.049556848 1.1830997 4159935
-0.082533881 -0.047224708 1.1861014 4225985
0.10114631 -0.053246282 1.19412 5015248
0.1072755 -0.054792158 1.1917045 5014991
-0.079125196 -0.037539382 1.1853149 4292037
-0.073912829 -0.039916445 1.1874331 4619977
-0.05088703 -0.03392579 1.1881751 5279449
-0.042918094 -0.034221046 1.1884739 5016538
-0.030438382 -0.035824053 1.1889622 4950743
-0.020992313 -0.037851442 1.1893463 4950488
-0.011901407 -0.038031708 1.1896845 5147351
-0.0014301473 -0.037469149 1.1900603 5278422
0.0090698656 -0.040188577 1.1896058 5212886
0.018465441 -0.039887782 1.1890849 5278423
0.028437812 -0.039411232 1.1899443 5147094
0.039263025 -0.040198959 1.1916082 4885460
0.048820443 -0.03906009 1.1912122 4950741
0.057911523 -0.038869362 1.1922717 5016279
0.10008085 -0.043370791 1.1925043 5212370
0.10751887 -0.044846456 1.1902024 5212369
-0.076779589 -0.030656971 1.1851614 4423370
-0.074574172 -0.027548432 1.184787 4554187
-0.050222177 -0.028929412 1.1878439 5147610
-0.040286016 -0.028596252 1.1864693 5081818
-0.031278055 -0.031206019 1.1868477 5016538
-0.020093326 -0.030180804 1.1873749 5278938
-0.01097684 -0.029911771 1.1877061 5344730
-0.00051492453 -0.031195819 1.1870469 5673948
0.0096525997 -0.033831127 1.1864008 5805277
0.018729519 -0.034167431 1.1867411 5541848
0.028983813 -0.033410527 1.1871055 5475544
0.039280858 -0.031518422 1.1874514 5213397
0.04987162 -0.032522634 1.1885659 5082070
0.059516363 -0.032070093 1.1906087 5016536
0.068465531 -0.030200526 1.1925066 5213915
0.079235971 -0.029621907 1.1928931 5279453
0.090147629 -0.030482434 1.1933105 5213659
0.099520907 -0.033777349 1.192113 5212628
0.10622314 -0.033998687 1.1899619 5146833
-0.073966831 -0.021638423 1.1831031 4554443
-0.048709977 -0.020755306 1.184018 5016281
-0.041482646 -0.021932535 1.1843053 5147611
-0.010428401 -0.023992568 1.1854861 5411294
0.060466956 -0.02207204 1.1880642 5148123
0.069169924 -0.022395782 1.1885908 5213915
0.07912682 -0.022969395 1.1905082 5213917
0.089849681 -0.023291357 1.1914861 5213659
0.097852051 -0.025354013 1.1898336 5212887
0.090979904 -0.016381651 1.1890874 5279708
0.095518366 -0.016549803 1.1892576 5411037
-0.022247072 -0.17480505 1.1967368 3106213
-0.016531194 -0.17501682 1.1969512 3105959
-0.0052873809 -0.17608793 1.1973845 3105706
0.0051891189 -0.17582157 1.1977658 3105960
-0.032848742 -0.16753989 1.1962172 3105700
-0.02550419 -0.16905089 1.1972653 3105957
-0.016354037 -0.1693899 1.1976084 3106216
-0.0060935132 -0.16987717 1.1988459 3106217
0.0045592831 -0.16975901 1.1990647 3171752
0.012477319 -0.1695635 1.199015 3303337
0.023824558 -0.16734888 1.1983019 3369130
0.030683603 -0.16760302 1.1985592 3369132
-0.045024097 -0.15586412 1.1958947 3171753
-0.035541479 -0.15859342 1.1986814 3171752
-0.025350124 -0.15922049 1.2011497 3172010
-0.016260667 -0.16082248 1.2024639 3172012
-0.006250076 -0.16076511 1.2036278 3237802
0.0044499384 -0.1604677 1.2034709 3303338
0.013632942 -0.16083285 1.2040159 3369133
0.024006009 -0.16100997 1.2026799 3369388
0.03416542 -0.16106118 1.202364 3303853
0.043557808 -0.16026513 1.2006547 3369643
0.053737886 -0.15986015 1.1995066 3303851
-0.062281247 -0.14354151 1.1947064 3303598
-0.054352697 -0.14663814 1.1967692 3303341
-0.045991849 -0.14863801 1.2005444 3303340
-0.036819316 -0.1503762 1.2037727 3369132
-0.028730184 -0.15256266 1.2041095 3303600
0.004642522 -0.15379915 1.2053611 3303598
0.017301135 -0.15426816 1.2058359 3435186
0.024781223 -0.15454531 1.2061164 3369391
0.034562878 -0.15490772 1.2064834 3369392
0.044494864 -0.15236785 1.2061883 3369390
0.054222904 -0.1517119 1.2029475 3435184
0.063797489 -0.15050361 1.1994755 3369392
-0.062998191 -0.13649416 1.1953555 3369646
-0.05614097 -0.13899888 1.2004567 3303853
-0.049097337 -0.14258391 1.2031819 3173034
0.046717193 -0.14428908 1.2067425 3566773
0.054965727 -0.14329442 1.2063615 3566516
0.064942814 -0.14182386 1.2037673 3500977
0.074921906 -0.14288737 1.2014358 3500975
-0.072672457 -0.12417571 1.1939795 3632562
-0.064032465 -0.12752791 1.19736 3501236
-0.056703281 -0.12790991 1.2021962 3501494
0.067375302 -0.13277484 1.2072992 3698612
0.075006083 -0.13343185 1.2052264 3567283
0.084047675 -0.13136353 1.2028176 3567283
0.091679588 -0.12862879 1.2001144 3501747
-0.079495013 -0.11426888 1.1935523 3895478
-0.074108079 -0.1169713 1.1963009 3698613
-0.06542106 -0.11818794 1.2008127 3633080
0.069063142 -0.12620755 1.2072448 3699128
0.07573384 -0.12326172 1.2074382 3830713
0.0852606 -0.12324478 1.2065879 3699126
0.092378125 -0.12224046 1.2000266 3633333
-0.080499947 -0.10621389 1.1933721 3961271
-0.073963657 -0.10683841 1.1986283 3896247
-0.067446351 -0.10961959 1.2019203 3764921
0.075889155 -0.11631389 1.2073206 3962300
0.086849391 -0.11421359 1.207216 3896506
0.09465608 -0.1126912 1.2019427 3764920
-0.081565261 -0.096826613 1.1946675 3830712
-0.074890301 -0.096569367 1.2000798 4093627
0.090201616 -0.10346918 1.2076198 4028352
0.095807225 -0.10315362 1.2024829 3962812
-0.081594944 -0.086495161 1.1949832 3962556
-0.075414747 -0.08777307 1.2007939 4028606
0.090067104 -0.093054101 1.2074298 4357317
0.096610472 -0.093548909 1.2036763 4225985
0.10228972 -0.090078503 1.1998206 4225985
-0.080764905 -0.077512234 1.1948543 4028606
-0.076234415 -0.077778183 1.201031 4094655
0.090895504 -0.085046619 1.2073181 4554695
0.096973881 -0.083185226 1.2029052 4554182
0.10336776 -0.081718892 1.1997118 4619462
-0.080989227 -0.066869557 1.1931262 4159424
-0.073220372 -0.066070616 1.1997023 4160448
-0.066905797 -0.064671949 1.2011418 4554440
0.091858879 -0.071707308 1.2071166 4620747
0.097467646 -0.072969213 1.2050939 4686026
0.10403605 -0.074107692 1.1996013 4619977
-0.079989001 -0.05724521 1.1925212 4291265
-0.072130248 -0.057461917 1.198069 4357573
-0.066645592 -0.057763487 1.2010287 4751563
0.0074893045 -0.057819866 1.2037613 4818903
0.015190102 -0.057336506 1.2040365 4819160
0.090338558 -0.063118652 1.2069081 4752590
0.09781155 -0.063774973 1.2049432 4817869
0.10319443 -0.066058755 1.1994272 4752076
-0.077643409 -0.047741018 1.1924387 4291778
-0.071764007 -0.047199108 1.1962278 4554440
-0.066342026 -0.049703617 1.2008967 4883149
-0.047363836 -0.043394111 1.1974807 5674209
-0.041628942 -0.043606594 1.1976957 5082331
-0.030456334 -0.0468309 1.2000328 4950745
-0.021124277 -0.048953895 1.1979457 4884953
-0.011941506 -0.049288251 1.1980898 4753366
-0.0016295919 -0.048553292 1.1996577 4884692
0.0089130914 -0.050581362 1.199237 4884692
0.017664261 -0.050172128 1.2002077 4884692
0.027802136 -0.049316391 1.2030243 4950484
0.038755909 -0.050702155 1.2016733 4950488
0.04749684 -0.050749645 1.2029904 4950489
0.058105148 -0.049677186 1.2044141 5411037
0.06704542 -0.049745388 1.2058123 5542623
0.081218407 -0.048252728 1.206308 5213404
0.088877767 -0.051419064 1.2066464 5081558
0.097179085 -0.054007746 1.2045963 5015248
-0.072023585 -0.037477057 1.1924635 4685772
-0.049849916 -0.037816562 1.1943784 5542365
-0.040900704 -0.038327768 1.1947693 4951002
-0.032144383 -0.039698374 1.1939723 4884951
-0.022965554 -0.041912738 1.1943499 4753366
-0.0092043784 -0.041277211 1.1948457 4950484
-0.00035554823 -0.041891411 1.1951826 5015763
0.02962047 -0.043861091 1.1963221 5015764
0.036479518 -0.044115223 1.1965793 4885461
0.048438121 -0.043576531 1.1970104 4884950
0.059184752 -0.042880256 1.1992418 5082072
0.068482354 -0.042036805 1.2025256 5542624
0.077917457 -0.043505546 1.2053014 5279197
0.088205457 -0.042683147 1.2028635 5213144
0.095572248 -0.045541052 1.198782 5212627
0.063117176 -0.035939015 1.1974156 5016538
0.068897665 -0.034435097 1.1976019 5213917
0.078517467 -0.032309823 1.1979185 5345245
0.088742122 -0.034988854 1.1990101 5213917
0.17946863 -0.040362801 1.209788 13158081
-0.016359592 -0.15578753 1.208626 3303598
-0.0036591329 -0.15625808 1.2091024 3303850
-0.044362139 -0.14410716 1.2073869 3303853
-0.034678318 -0.14605713 1.2081357 3304111
-0.025265042 -0.14849734 1.2102755 3303857
-0.016235387 -0.14914629 1.211265 3303856
-0.0058316663 -0.1495591 1.2119058 3369903
0.0047275554 -0.148471 1.2092731 3435441
0.013747599 -0.14971849 1.2096276 3435187
0.024235217 -0.14946921 1.2100096 3500978
0.034746826 -0.14958324 1.2103989 3369649
0.041504338 -0.14821406 1.2106236 3435441
-0.052239846 -0.13633448 1.2069585 3370159
-0.045726199 -0.13734704 1.2072165 3370416
-0.035477567 -0.13795289 1.2098567 3436469
-0.025230583 -0.13861053 1.2129983 3502005
-0.015955843 -0.13895416 1.2133461 3501749
-0.0056528319 -0.14282069 1.2137945 3501493
0.0049532866 -0.13959926 1.2128769 3567542
0.014195818 -0.14003891 1.2141637 3567541
0.024643146 -0.1403043 1.2133647 3633333
0.035086676 -0.14043304 1.2111872 3567541
0.043733336 -0.14003867 1.2105606 3633079
0.05383892 -0.13822655 1.2109007 3632566
-0.052305628 -0.12784863 1.2068053 3501750
-0.045560587 -0.12832856 1.2095644 3567798
-0.037287187 -0.12913914 1.2123858 3633848
-0.023852795 -0.13285363 1.2129468 3633591
-0.016896734 -0.13311134 1.2132077 3699128
0.0051744645 -0.1327675 1.2140148 3830714
0.015608546 -0.13315409 1.2144061 3764921
0.025129825 -0.13255647 1.2147464 3830712
0.035719015 -0.13203953 1.2147698 3830713
0.044440247 -0.13206741 1.214782 3830458
0.054837335 -0.1322185 1.2132012 3764409
0.063075215 -0.13101694 1.211669 3764407
-0.060902398 -0.11665592 1.2062898 3698874
-0.054404747 -0.11754456 1.2087969 3764923
-0.045985207 -0.11850445 1.2118764 3765435
-0.039734062 -0.12297245 1.2121861 3699641
0.053786237 -0.12643744 1.2156935 3896252
0.064165756 -0.12239379 1.213383 3831226
0.071626797 -0.12202895 1.2112684 3830458
-0.063212916 -0.10710708 1.2068251 3896508
-0.054237548 -0.10733438 1.2113739 4028352
-0.046380233 -0.10832246 1.211681 4094143
0.065842874 -0.11255985 1.2123169 4159936
0.075254142 -0.11167477 1.2112181 4028352
0.08333002 -0.11060508 1.2114967 3962559
-0.070802316 -0.097085766 1.2055774 4093628
-0.06393908 -0.09739209 1.2065864 4028352
-0.053861883 -0.09803506 1.2109098 4094401
-0.047102671 -0.096679755 1.2114476 4225986
0.067570701 -0.1034079 1.2144276 4357317
0.075899735 -0.10271095 1.2138976 4225732
0.084844738 -0.10262123 1.2114108 4159938
-0.071425229 -0.087312274 1.2053809 4028609
-0.063309237 -0.087663241 1.2070509 3963330
-0.054124001 -0.088001467 1.2110348 4160708
-0.047829166 -0.091309503 1.2113254 4292035
0.070642218 -0.089890987 1.2156655 4620236
0.076035067 -0.092846595 1.2145267 4488649
0.084605679 -0.093856074 1.2112463 4357318
-0.072194442 -0.077037573 1.20517 4160449
-0.063747317 -0.077467561 1.2091876 4160708
-0.054519016 -0.077819481 1.2108394 4489161
0.077480108 -0.083613239 1.2147336 4555212
0.085939497 -0.082764342 1.2110983 4620489
-0.16409263 -0.064931586 1.2065731 14082013
-0.070542291 -0.069717117 1.2051009 4226242
-0.062455606 -0.067684993 1.2078649 4620234
-0.055384386 -0.065861724 1.2105951 5079759
-0.021362446 -0.066735059 1.2118641 6791922
-0.013203358 -0.065875769 1.2121495 5608162
-0.0027692765 -0.066262357 1.2125409 5016279
0.0073119448 -0.068692237 1.2115906 5608413
0.01575836 -0.067529619 1.213246 4950485
0.022736259 -0.067207359 1.2134974 5016277
0.080572322 -0.072835006 1.2157284 4752847
0.08658646 -0.073121883 1.2127171 4620747
-0.062737942 -0.058785364 1.2061951 4948687
-0.052533623 -0.062095366 1.2106333 5408980
-0.030809335 -0.059797004 1.2094681 6134248
-0.022122443 -0.059652045 1.2092083 5344990
-0.013219757 -0.060160704 1.2099028 4884696
-0.0020713564 -0.060615834 1.2104057 4818902
0.0084353127 -0.06230896 1.2078793 4818646
0.017566092 -0.061551262 1.2089171 4818646
0.027640015 -0.061467569 1.2103235 4884696
0.037730113 -0.061346408 1.2107288 5344733
0.046982035 -0.061675992 1.2107182 5936870
0.056612726 -0.061465304 1.2138096 5608416
0.065697163 -0.060900256 1.2149683 5082072
0.078560516 -0.062200904 1.2124629 5016278
0.084912509 -0.063985661 1.210727 4884178
-0.031004015 -0.053444002 1.2062687 5082331
-0.0021393392 -0.054513458 1.2073512 4687574
0.020952407 -0.055369023 1.2082173 4687574
0.028894441 -0.055002231 1.2085034 4819159
0.035962038 -0.055925142 1.2087802 4950233
0.048662502 -0.056395702 1.2092565 5542369
0.057434391 -0.055435341 1.2095627 5805540
0.070345327 -0.053728577 1.210008 5213659
0.077657714 -0.05399951 1.2102823 5147866
0.086437032 -0.056252833 1.2106458 5081557
-0.0056428201 -0.13857415 1.2177227 3633335
-0.032736894 -0.12697572 1.2165184 3699641
-0.025239959 -0.12770219 1.2168075 3765177
-0.015603568 -0.12820713 1.21882 3830714
-0.0054098051 -0.12952158 1.2204529 3962299
0.0052411035 -0.12738232 1.2185922 4028092
0.014031912 -0.12850678 1.2185547 3962300
0.023530057 -0.12848909 1.2193463 3962299
0.033070363 -0.12751508 1.2211767 3962299
0.045578845 -0.12695326 1.2194036 3896509
0.05536681 -0.12684974 1.2197623 3830714
-0.042074513 -0.11624705 1.2159837 3962813
-0.035654906 -0.11818668 1.218034 3962813
