# .PCD v0.7 - Point Cloud Data file format
VERSION 0.7
FIELDS x y z rgba
SIZE 4 4 4 4
TYPE F F F U
COUNT 1 1 1 1
WIDTH 1131
HEIGHT 1
VIEWPOINT 0 0 0 1 0 0 0
POINTS 1131
DATA ascii
0.090485506 0.017248794 1.0140337 6649473
0.097957253 0.016529016 1.0181974 6977411
-0.068404272 0.027324773 1.0167192 7372164
-0.058962878 0.027537853 1.0154312 6123396
-0.049552504 0.031795561 1.0175887 5729669
-0.041007333 0.032291889 1.0175773 5336195
-0.034292299 0.034662664 1.0128783 5270149
0.07092274 0.02930329 1.0124005 5532277
0.078431129 0.026315473 1.0171483 5860472
-0.049994368 0.03689757 1.01896 6714755
-0.040928211 0.036810219 1.0189215 5794947
-0.030106314 0.038400173 1.0167873 5466498
-0.019628525 0.040882692 1.0156111 5466240
-0.0091375047 0.041299969 1.0167202 5334655
0.0013238415 0.04134798 1.0151767 5138044
0.010382025 0.041916713 1.0157429 5072252
0.020059528 0.041642174 1.0150081 5072247
0.029708993 0.04100579 1.0145842 5137530
0.039949961 0.04018195 1.0181785 5137788
0.048933201 0.036839932 1.0155458 5268347
0.11702419 -0.0075048134 1.0209479 7374502
-0.099021904 0.00065875053 1.026052 9214113
-0.090167873 0.0044976026 1.0241849 6978442
0.1131461 -0.0055188462 1.0209782 7112109
0.11767181 -0.0013637841 1.0216203 8686741
-0.088239275 0.010250621 1.0248318 7636109
-0.082850188 0.014305308 1.0239378 7437970
0.11781175 0.006777443 1.0210456 9277068
0.083632082 0.023359075 1.0223056 5992060
0.090186708 0.021214254 1.0248466 6451580
0.097059093 0.019996166 1.0235591 6516347
-0.058043141 0.029925898 1.0229445 6254982
-0.054396663 0.034250617 1.02896 6648965
-0.038476329 0.032965451 1.0218841 5270660
0.065013058 0.033987477 1.0244586 5662844
0.070868537 0.032565758 1.0245241 5794679
0.079440348 0.029704317 1.023368 5926261
0.087590791 0.025984325 1.0263078 6253428
-0.048234295 0.038949654 1.0237172 7043204
-0.039132439 0.039530993 1.0240999 6188928
-0.028717719 0.0425179 1.0250108 5991293
-0.018928863 0.044574365 1.0250845 5794427
-0.0091460152 0.044453725 1.0242426 5597052
-0.00095457304 0.043945521 1.0230048 5399930
0.0083997659 0.044205546 1.0217674 5203324
0.019116316 0.044102311 1.0217218 5269365
0.031818274 0.044012949 1.0226682 5334394
0.040994219 0.042907938 1.0246221 5466234
0.047532506 0.041023821 1.0254148 5597049
0.065041378 0.0369187 1.0244793 5991033
0.069671579 0.036794633 1.0267448 6055795
-0.016949099 0.046503007 1.0248898 6056827
-0.0079121618 0.047519013 1.0283594 5859449
0.00046011433 0.047594666 1.0272248 5728377
0.0096304715 0.046947062 1.028782 5532027
0.020274807 0.046283931 1.0287328 5532021
-0.09617468 0.0022541657 1.0319088 7306630
-0.094197661 0.0032189563 1.0319072 7438985
-0.076491252 0.020812333 1.0379577 7044228
-0.072582342 0.020747192 1.0349408 6255491
0.092437804 0.023557238 1.0312705 6187632
0.097853221 0.023996979 1.031251 6119529
-0.058098081 0.032976419 1.0319664 6780808
0.060565583 0.034194469 1.0314789 5465215
0.08422111 0.028812028 1.0363421 6056820
0.09031637 0.028066874 1.0346113 5988198
-0.045622922 0.04112041 1.0319719 7108737
-0.039214738 0.043921098 1.035265 7108222
-0.030828577 0.044913217 1.0319368 6582396
0.052064151 0.041400895 1.0338155 5859705
0.05739595 0.039504141 1.0325297 5728122
-0.026260231 0.048240632 1.0344412 6713719
-0.019829169 0.049086273 1.0358205 6450807
-0.011620753 0.049241066 1.0341371 6122104
0.00022239611 0.050112233 1.0340937 6122617
0.012557155 0.050504595 1.0344616 6057083
0.018887902 0.050281525 1.035367 6057334
-0.08149714 0.019612119 1.0409703 7832202
0.083933026 0.032195657 1.0403675 5792617
0.086910002 0.032166988 1.0403548 5724767
-0.037988838 0.047263801 1.0409837 7764863
-0.018103961 0.051041871 1.0409273 6384242
-0.009173031 0.050955832 1.0408893 6121843
0.16328616 -0.07830365 1.0582558 13950701
0.16631743 -0.078332849 1.0582429 13160147
0.1653363 -0.075291902 1.0582685 13423577
0.16430183 -0.088043757 1.0651829 12898285
0.1682796 -0.089056686 1.0646591 12832198
0.1629041 -0.082058206 1.0633738 10136266
0.16966575 -0.082602538 1.0634489 13159885
0.16332094 -0.075788625 1.0647736 12175571
0.16866031 -0.074751452 1.0612584 13093836
-0.14087595 -0.10551064 1.0781361 1720740
-0.14158127 -0.098606229 1.077976 3628972
-0.14254849 -0.092445903 1.0794353 4745397
0.16365941 -0.08988367 1.074173 6256041
0.16818039 -0.092611358 1.0743347 12767188
0.16200519 -0.080797777 1.0762441 7312841
-0.13898598 -0.12981318 1.0891569 2903988
-0.13586901 -0.12984321 1.0891436 1324707
-0.1403342 -0.11776275 1.0884976 2904505
-0.13894147 -0.1090064 1.0872035 2644141
0.16358104 -0.10986835 1.0880326 5801403
0.16801074 -0.11025737 1.0880113 11779799
-0.13853048 -0.097901471 1.0853802 3039906
0.16282164 -0.10075635 1.0871 3630254
0.16903214 -0.10163227 1.0864797 11516624
0.17612925 -0.10167667 1.088038 13685195
-0.1409343 -0.08892791 1.0878174 2708908
0.16268155 -0.092279941 1.0862855 3762605
0.16739473 -0.09610752 1.0851138 10465738
0.16288869 -0.085440904 1.0822078 6721740
-0.13842376 -0.071630657 1.0895655 1588628
-0.13530679 -0.071660683 1.0895523 3826867
-0.13255544 -0.14528234 1.0950209 3694011
-0.13747565 -0.13869029 1.0930879 7178192
-0.13223022 -0.13849726 1.0942212 2114980
-0.13757338 -0.12721767 1.0931693 1063065
-0.13311653 -0.13008699 1.0940305 2447769
-0.13703103 -0.11966202 1.0932205 2578847
-0.1345122 -0.11926235 1.0962129 2907546
0.16327962 -0.12090764 1.093456 6851775
0.16886491 -0.1204858 1.0919356 13029078
-0.13624115 -0.10958253 1.0940384 3104917
-0.13439095 -0.10671467 1.096301 3170462
0.16199158 -0.11010309 1.0935377 3040417
0.17167361 -0.11351065 1.0919731 13422807
0.17462367 -0.11041044 1.0919827 13619661
-0.13820717 -0.09704046 1.0941352 3104162
0.16083093 -0.10187402 1.0929579 2973607
-0.13746001 -0.088723995 1.0944408 3169952
0.16135304 -0.091786124 1.0951698 2843043
-0.13916843 -0.079023719 1.0936744 3301299
-0.12750418 -0.15730722 1.1049151 4750553
-0.1238734 -0.15958217 1.106884 1196192
-0.12946236 -0.1500005 1.1017748 3036848
-0.12556387 -0.15234843 1.1069422 1789334
0.15859599 -0.15102912 1.1032631 12898004
-0.12830094 -0.13912719 1.103269 2776475
0.15917753 -0.14192763 1.1022249 9087435
0.1650178 -0.13731907 1.098833 13488846
-0.13044545 -0.12836646 1.1031318 3038106
0.15912974 -0.13126956 1.1013005 4354994
0.16698392 -0.12936147 1.098881 13752800
-0.13221952 -0.11864997 1.1046524 2973083
0.15920013 -0.12150453 1.1022768 2121388
-0.13694437 -0.10502288 1.1003237 3301280
-0.1335952 -0.11003266 1.1039108 3039132
0.15999749 -0.11343537 1.1001893 2646946
0.17628606 -0.10835854 1.1019906 13817039
-0.13688351 -0.098726183 1.1003679 3366820
-0.13432154 -0.099252664 1.1053537 3105183
0.1585024 -0.1011973 1.1038156 3631271
0.1773587 -0.10626406 1.1020008 13817037
-0.13677534 -0.087532073 1.1004466 3499424
-0.13407746 -0.08860407 1.1042279 3302563
0.15826376 -0.090937719 1.1031302 3369127
-0.13395035 -0.079100981 1.1039945 3434147
0.16027565 -0.081379041 1.1041572 2908578
0.16604754 -0.078792609 1.1022422 8233160
-0.13848722 -0.067884795 1.1014497 3365295
-0.13316558 -0.069168746 1.1044075 3499689
0.16115893 -0.071807355 1.1039591 4024485
0.16612889 -0.070374154 1.1023014 11192030
-0.13685869 -0.059036158 1.1036483 2181536
-0.13162489 -0.058953092 1.104827 3433908
0.16044904 -0.066381738 1.1063535 2708114
-0.13514547 -0.050859626 1.1076992 8233201
-0.13133672 -0.052003205 1.1059607 3564980
0.012808106 0.11963347 1.1042846 9935247
0.018529432 0.12048039 1.1042666 9934992
-0.11830415 -0.16861016 1.1154895 929696
-0.11411397 -0.16902015 1.1177768 1984411
0.14831272 -0.16728142 1.1166918 13424882
-0.1192338 -0.15902185 1.1132687 2512540
-0.11461601 -0.160988 1.1165023 2906513
0.14968345 -0.16135417 1.1142834 8955594
0.1553365 -0.16004014 1.1107134 14080986
-0.1262486 -0.14487463 1.1139981 2381461
-0.12317705 -0.15009937 1.1158859 2776212
0.14999063 -0.15174705 1.1131144 3697834
-0.12663485 -0.13895535 1.1148748 2841752
-0.12453268 -0.14331922 1.1180019 2906774
0.15194255 -0.14185208 1.1136562 2646183
-0.12841749 -0.12838343 1.1159807 2907034
-0.12442963 -0.13265331 1.1180768 2775704
0.15260862 -0.13313131 1.114815 3696546
0.15470453 -0.12861104 1.1142715 3761571
-0.12935087 -0.11891249 1.1146388 2973083
0.15643933 -0.12252262 1.1136405 3368880
-0.13034867 -0.10869041 1.1141708 3039134
0.1568462 -0.11091509 1.1133269 3500454
-0.13042609 -0.098237425 1.1139449 3171232
0.1558605 -0.1024738 1.1144036 3631529
-0.13090159 -0.089458592 1.1133089 3302564
0.15443696 -0.092036285 1.1101974 3697839
0.15486419 -0.092312902 1.1131939 3763633
-0.13088921 -0.078909241 1.1141833 3368355
0.15553774 -0.081061631 1.1129848 3436468
0.16988714 -0.077577308 1.1132351 10992842
-0.12844945 -0.068514995 1.1142466 3697068
0.15353765 -0.068129592 1.1173704 3765679
0.15669425 -0.070626132 1.1125212 3830452
0.16957398 -0.073322758 1.1132665 11387079
-0.12728529 -0.060734779 1.1120965 3631022
-0.12508029 -0.057542916 1.1116099 3500456
0.15295628 -0.061186936 1.1145328 3830449
0.15965743 -0.061727446 1.1120214 5207985
0.16618562 -0.062829882 1.1160215 10334913
-0.12739812 -0.048724167 1.1142534 3434161
0.15218143 -0.052246217 1.1143452 3893939
0.15926772 -0.052792732 1.1135101 8428221
-0.12754203 -0.038717583 1.1178962 6194370
-0.12296873 -0.036665298 1.1187488 4421311
0.15016435 -0.040415064 1.1164893 5734064
0.15643609 -0.044156991 1.1175275 10203587
-0.12157105 -0.030011952 1.1187899 6852289
0.14872769 -0.034464616 1.1144282 8955077
0.019655416 0.096363693 1.1190921 9737616
-0.088049367 -0.20572168 1.1257422 7635861
-0.084658399 -0.20626578 1.1283909 8100012
-0.09820085 -0.1957227 1.128522 10535920
-0.091209255 -0.1984503 1.1261206 5996227
-0.084623709 -0.20267555 1.1284162 6394567
-0.10813664 -0.18453532 1.1206423 8431615
-0.10114951 -0.18706611 1.1233646 1526185
-0.094972581 -0.18954742 1.1274093 1262491
0.12879142 -0.18893301 1.1276208 11717846
-0.11660969 -0.17589733 1.1207387 7571711
-0.10964137 -0.1782445 1.1222486 1917611
-0.10267206 -0.18085931 1.1259789 2379673
-0.095932201 -0.18389572 1.1285961 2644619
0.1304478 -0.1820756 1.1276624 5010097
0.13776769 -0.1791591 1.1245095 10599906
0.14487867 -0.17801106 1.1236306 14081762
-0.10961027 -0.16943258 1.1249659 2709143
0.13159312 -0.17148596 1.1277324 2909858
0.13823211 -0.17104799 1.1238894 4026283
0.14581236 -0.17128748 1.1201741 12307424
-0.11641334 -0.15557782 1.1208814 2775446
-0.1120591 -0.15985405 1.1237423 2775442
0.13957302 -0.16211873 1.1247652 3105445
0.14450502 -0.16129996 1.11975 2578854
-0.11836733 -0.14837447 1.1230944 2775449
-0.11415513 -0.15085265 1.1275723 2906778
0.14200374 -0.15235111 1.126224 3564451
0.1453498 -0.15137732 1.1222167 3433893
-0.12213174 -0.13966781 1.124312 2840984
0.1435862 -0.14419359 1.1278751 3565217
0.14736621 -0.14207567 1.1225407 3499430
-0.1268393 -0.12766916 1.1211222 2841497
-0.12384813 -0.12951826 1.1270969 2907290
0.14975482 -0.13149215 1.1249388 3237547
-0.12692104 -0.11822283 1.1227894 2973083
-0.1241743 -0.11876249 1.1271743 3038877
0.15294595 -0.12184479 1.1261755 3827369
0.15559237 -0.12076399 1.1199901 3564710
-0.1278774 -0.10825309 1.124121 3039391
-0.12523974 -0.11021958 1.1279057 3170977
0.15331149 -0.11175825 1.1260635 3565735
0.15567505 -0.1122084 1.1200502 3500198
-0.12791552 -0.10007545 1.1263218 3170977
0.15366343 -0.10273802 1.125459 3631790
0.15474214 -0.10444591 1.1281092 3434923
-0.12797272 -0.089514077 1.1253966 3302823
0.1534386 -0.091284081 1.1257075 3566513
-0.12785065 -0.079503864 1.1241335 3368614
0.15262331 -0.082019731 1.1258148 3632560
-0.12726687 -0.071812391 1.1255187 3565995
0.15151784 -0.071831346 1.1246196 3895728
-0.12417941 -0.056804001 1.1272119 3697842
0.1492694 -0.061841458 1.1232328 4158132
-0.12244233 -0.048507627 1.1260269 3502262
0.14824651 -0.051171228 1.1245126 4027837
-0.11970724 -0.039014947 1.1254966 3698611
0.14351869 -0.039707813 1.1286134 4619197
0.14927132 -0.042824183 1.1230286 4946612
-0.12591955 -0.032488324 1.1217908 7180220
-0.1182729 -0.02961421 1.1289793 4815032
0.14349344 -0.033220842 1.1279926 5209534
0.1482044 -0.031462021 1.1206517 8425655
0.020747088 0.092305362 1.122059 9474444
-0.061191056 -0.21640626 1.1352214 8300241
-0.079342335 -0.20801061 1.1317202 7642055
-0.07184694 -0.20875524 1.1338199 4815810
-0.06511499 -0.21228084 1.1352669 5210825
-0.088367626 -0.19600707 1.131479 932767
-0.081424229 -0.19952989 1.1331093 2382238
-0.072825834 -0.20266885 1.135367 2251168
0.11072051 -0.20118549 1.1346101 6518691
0.11656177 -0.20020559 1.1331639 11319227
-0.090022326 -0.18926251 1.1334003 2447513
-0.084652819 -0.19280039 1.1354862 2513045
0.11848697 -0.19200408 1.1335899 4617903
0.12551853 -0.19206738 1.1306125 10929103
-0.099374354 -0.17814222 1.1331059 2971544
-0.093496434 -0.18196799 1.1335998 2774929
0.12064653 -0.18275249 1.1330321 2909086
0.12555194 -0.18183474 1.1306847 3105187
-0.10678744 -0.16486895 1.131776 2709911
-0.1022051 -0.16998947 1.1340737 2644371
0.12716793 -0.17203879 1.1313626 3368356
-0.10904688 -0.15824476 1.1336505 2775444
-0.10411362 -0.16242196 1.1344489 2709910
0.13168707 -0.16222271 1.1323977 3368613
0.13591567 -0.15928683 1.1308006 3499683
-0.11217889 -0.14964199 1.1334062 2841497
0.1335683 -0.15480077 1.1348422 3237027
0.13831259 -0.15211818 1.1321746 3302821
-0.11800161 -0.1379883 1.1325842 2645144
-0.11452265 -0.13976601 1.1350969 2775964
0.14153181 -0.14222063 1.1330795 3237542
0.14565103 -0.13867459 1.1322389 3106215
-0.1197474 -0.1295785 1.1335341 2907291
0.14299956 -0.13268559 1.1336256 3499683
0.14611419 -0.13072416 1.1321026 3303338
-0.12063301 -0.1196505 1.1345534 3039134
0.14781208 -0.12225086 1.1324242 3499947
-0.1256524 -0.10528594 1.1322758 3236770
-0.12352069 -0.10962013 1.1355697 3236770
0.14964686 -0.11176364 1.1328971 3500458
-0.12558979 -0.098806396 1.1323212 3237027
-0.12385094 -0.099213146 1.1363113 3302821
0.15211736 -0.10124162 1.1334287 3632048
-0.12549587 -0.089087091 1.1323895 3302824
-0.12376192 -0.090001419 1.1363759 3302569
0.15047511 -0.09233582 1.1333945 3632047
-0.12584022 -0.080011576 1.1324551 3434408
-0.12302372 -0.077699289 1.1364597 3434665
0.14718764 -0.08125443 1.1331229 4026292
-0.12530804 -0.069648474 1.132526 3631531
-0.12355772 -0.068868652 1.1365243 3631531
0.14736588 -0.073267996 1.1318048 4157366
-0.12524542 -0.063168943 1.1325716 4025255
-0.12203607 -0.058093075 1.1348798 3632304
0.14694126 -0.0614709 1.1314455 4289211
-0.11849108 -0.049130902 1.1343569 3568048
0.14389208 -0.050677713 1.1322012 4094399
0.14618656 -0.055096582 1.1334937 4224702
-0.11713105 -0.043086667 1.1326795 3764911
-0.11363861 -0.038823009 1.1351951 3895729
0.14142017 -0.042237896 1.133059 4487616
-0.1181578 -0.024991736 1.1358117 6458567
-0.11326119 -0.028807536 1.1351643 3895996
0.14145209 -0.031193122 1.1320823 5735616
0.1483447 -0.028003693 1.131676 9477559
-0.11768866 -0.022320367 1.1368287 6852289
-0.11443742 -0.022351682 1.1368148 5933254
0.053242255 0.077674747 1.1328201 9474701
-0.024479553 -0.22729559 1.1469915 7248329
0.008347908 -0.22919786 1.1460407 5801654
0.01637926 -0.22814205 1.1454812 5210039
0.029173568 -0.22890769 1.1467557 6328255
0.036839809 -0.22898154 1.1467232 7379645
0.048401192 -0.22897124 1.1466749 8430007
0.056352694 -0.22724615 1.1426536 8625323
-0.062339056 -0.21874878 1.1392099 9678537
-0.051486704 -0.21890096 1.14569 4422071
-0.042149466 -0.21967757 1.1471192 2778029
-0.032404277 -0.22158645 1.1470649 2513574
-0.02481639 -0.22437163 1.1470135 2315684
0.0051114084 -0.22539009 1.1468812 2120102
0.017158361 -0.22550614 1.14683 2185635
0.030311078 -0.22453758 1.1467818 2186146
0.035776377 -0.22568549 1.1467509 2316696
0.051130034 -0.22364289 1.1467011 4486314
0.058685701 -0.22330669 1.1446718 5997746
0.069866836 -0.22046071 1.1455023 6063288
0.078556031 -0.21908793 1.1466186 6589614
0.086658217 -0.21938503 1.1465826 8757678
-0.067661248 -0.20673344 1.139317 1855898
-0.060950603 -0.20932963 1.1425087 2249885
-0.053272832 -0.2117421 1.1464944 2381985
-0.045160931 -0.2139532 1.1471722 3039902
0.072586529 -0.21344462 1.1466835 2841504
0.078615293 -0.21295506 1.1466616 3302564
0.088197641 -0.21078241 1.1453036 4420011
0.09799023 -0.21001279 1.1408869 6984117
0.10744624 -0.20733266 1.1385806 6254993
-0.078702681 -0.19611245 1.1402382 2710418
-0.070993148 -0.19947599 1.1437633 2775447
-0.064279526 -0.20178981 1.146538 2906776
0.090725861 -0.20292011 1.146282 3171492
0.099238217 -0.20160869 1.1434554 3237285
0.1075691 -0.20044494 1.1392001 3629215
-0.081506275 -0.18916446 1.1442991 2775191
-0.073392995 -0.19275229 1.1467733 2906012
0.10129117 -0.19243371 1.145045 3040421
0.10823715 -0.19079381 1.1416415 3105703
0.11412923 -0.19108239 1.1386673 2777257
-0.096720584 -0.17491186 1.1396632 2710677
-0.089976892 -0.1788865 1.1431365 2709909
-0.083783858 -0.18257213 1.1455553 2709910
0.1094849 -0.18245143 1.1452743 3368100
0.11706682 -0.18065853 1.1408621 3302561
-0.097872622 -0.16837813 1.1428255 2710421
-0.093098044 -0.17130506 1.1468738 2644886
0.11162409 -0.17471981 1.1467937 3040936
0.11968824 -0.1716838 1.1446944 3237031
0.12610893 -0.16882408 1.1417747 3368615
-0.107407 -0.15523136 1.1398469 2776209
-0.10199861 -0.15979834 1.1445422 2841240
0.12181167 -0.16323251 1.1468323 3237287
0.12826818 -0.16103202 1.1416777 3302822
-0.10832436 -0.14860177 1.1444311 2710683
-0.10364884 -0.15195897 1.1471879 2841499
0.13062298 -0.15265515 1.1442819 3237541
0.13560542 -0.14996132 1.1404681 3237798
-0.11036792 -0.14003044 1.1451098 2907293
0.13240342 -0.14392406 1.1469244 3237797
0.13714084 -0.1413912 1.1419222 3303334
-0.11657958 -0.12824485 1.1412188 2907805
-0.11437118 -0.12994495 1.1472549 2907805
0.13908258 -0.13206442 1.1445357 3434407
-0.11698234 -0.11894414 1.1428101 3039392
-0.11435275 -0.12018938 1.1481239 3039391
0.14111823 -0.12251017 1.1444677 3500202
0.14527449 -0.11959801 1.1390421 3631274
-0.12003559 -0.10975997 1.1447544 3170979
0.14317833 -0.11227728 1.1466584 3631791
0.14655204 -0.1117003 1.1408703 3566510
-0.12033477 -0.099415116 1.1460098 3105957
0.14245829 -0.10114734 1.1455178 3632305
0.14766139 -0.10225217 1.139488 3501227
-0.12062892 -0.089370161 1.1437962 3237546
0.14208478 -0.092066109 1.1447047 3698099
0.1466772 -0.0924545 1.1396281 3698094
-0.11991058 -0.079630241 1.1441001 3434923
0.14341301 -0.082808554 1.1453099 3895479
0.14561078 -0.084796682 1.1392865 3895477
-0.11942798 -0.069181591 1.1447909 3566256
0.14378667 -0.071518578 1.1467216 4027579
0.14627215 -0.070943221 1.1433817 4157882
-0.1183503 -0.060276493 1.144093 3567024
0.14183702 -0.061958119 1.1462874 4159422
0.14614646 -0.062115345 1.1418446 4289724
-0.11594979 -0.050446931 1.1419562 3567791
-0.11280547 -0.048580658 1.1472898 3764403
0.14021808 -0.051894225 1.144875 4356797
-0.11100322 -0.039619423 1.1412501 3830196
0.13764417 -0.042279806 1.1440203 4619718
-0.10941514 -0.028749317 1.1436579 3896507
0.13367042 -0.030351847 1.1446102 4817095
0.13817883 -0.030949906 1.1413647 4948420
-0.11692996 -0.019510642 1.1448456 6916535
-0.1094475 -0.020110868 1.1445024 5210049
0.13289449 -0.023967735 1.1467696 5013440
0.13734946 -0.023577116 1.1444204 5998788
0.033273015 0.0510986 1.1435734 5859448
0.041463368 0.051110134 1.141682 6122362
0.047036842 0.051163942 1.1446592 6319482
0.058177572 0.052295223 1.1486208 5330522
0.033891533 0.05555068 1.1420784 5792108
0.041722808 0.056324199 1.1415178 5527648
0.047079027 0.055529341 1.1446899 5067354
-0.018722836 -0.22734462 1.1499671 4354997
-0.011365221 -0.22845705 1.1519285 4684224
-0.0014713453 -0.22824769 1.1504219 4289976
0.0095274886 -0.22604801 1.1498581 2054307
0.01995351 -0.2266975 1.14981 2777510
0.025433075 -0.22784841 1.1497788 4026798
0.041903585 -0.22800706 1.1497089 5604271
0.045762621 -0.22639707 1.1497041 4881326
-0.037603106 -0.21680903 1.1501204 3039902
-0.029660568 -0.21780694 1.1505802 2710943
-0.02119875 -0.21981725 1.1533351 2645152
-0.011334478 -0.22279412 1.1566352 2514339
-0.0013947347 -0.22278251 1.1560605 2514851
0.0085408017 -0.22036174 1.1545026 2842787
0.018420978 -0.22001776 1.1522636 2908579
0.028098021 -0.21971944 1.1527141 3039651
0.038289875 -0.22052851 1.153777 2908578
0.047647197 -0.219745 1.1534934 2778020
0.057685301 -0.21816385 1.151141 2646433
0.067229114 -0.22093026 1.149653 5012145
0.078746095 -0.22232233 1.149595 8955830
-0.050551545 -0.20826681 1.1505207 2841242
-0.040720265 -0.21044874 1.1525118 2775960
-0.03171609 -0.21182436 1.1543978 2841500
-0.022313919 -0.21411338 1.1580758 2907551
0.0093885912 -0.21368164 1.1579463 3105184
0.018605929 -0.21340185 1.1579098 3170722
0.028556805 -0.2134977 1.1578674 3302053
0.038697299 -0.21304253 1.1578282 3170723
0.049209908 -0.21222234 1.1577901 3105188
0.05854227 -0.21150668 1.1560419 3170467
0.068134658 -0.21136215 1.1521169 3236258
0.078305051 -0.20800407 1.1501424 3171236
-0.067059055 -0.19675912 1.1503853 2906776
-0.060545374 -0.19906628 1.1514846 2907033
-0.052089687 -0.20015877 1.1551322 2841497
-0.042860184 -0.20433238 1.1582308 2775704
0.059589878 -0.20605648 1.1577903 3105443
0.068435103 -0.20614168 1.1577526 3105443
0.079260275 -0.20251918 1.1564698 3105956
0.0876396 -0.19970402 1.1529177 3105956
-0.077933289 -0.18567316 1.150509 2644884
-0.070886113 -0.18933061 1.1534538 2775705
-0.062531747 -0.19230244 1.1560646 2841497
0.082915425 -0.19522381 1.1577692 3172006
0.090591937 -0.19290845 1.1567534 3040421
0.096467189 -0.19059753 1.1542451 2974628
-0.086632691 -0.17680441 1.1506081 2645144
-0.079994343 -0.17865819 1.1536261 2710425
-0.074711233 -0.18144128 1.155097 2776216
0.10001927 -0.18199342 1.1545411 3171493
0.1050066 -0.17978868 1.1513857 3237026
-0.089583121 -0.16877642 1.1532654 2710424
-0.083218649 -0.17107502 1.15718 2710937
0.10300949 -0.17551409 1.1578244 3302823
0.10936695 -0.17146775 1.1546685 3172005
0.11518954 -0.16837713 1.1538239 3172006
-0.098157607 -0.15729329 1.150794 2841498
-0.093766563 -0.15989079 1.1556805 2907290
0.11196155 -0.16454294 1.1578646 3303592
0.11823679 -0.16121173 1.1565285 3237544
0.12440212 -0.156875 1.1498663 3303337
-0.099833839 -0.1488314 1.1525751 2973342
-0.095246896 -0.15204233 1.1588192 3038879
0.12194623 -0.15348816 1.1572342 3237544
0.12631734 -0.15046898 1.1527038 3303336
-0.10775081 -0.13719667 1.1519761 2973342
-0.10169733 -0.14045131 1.156428 2973600
0.12981983 -0.1413853 1.1539533 3368872
-0.10924747 -0.12932856 1.153391 3039392
-0.1038033 -0.13024004 1.159009 3236259
0.13121925 -0.13197063 1.155764 3500460
0.13564773 -0.12953036 1.1500125 3434923
-0.11025216 -0.11967944 1.1539993 3170978
0.13235117 -0.12305862 1.1567389 3500719
0.13705589 -0.12058 1.1534033 3500718
-0.11671981 -0.1084312 1.1512167 3237029
-0.1128954 -0.10988069 1.1571908 3237286
0.1374909 -0.11174645 1.1562359 3697329
-0.11663494 -0.09964706 1.1512785 3237543
-0.11404048 -0.099289484 1.1587704 3172263
0.13879505 -0.1026438 1.1557895 3697843
-0.11683211 -0.090028882 1.1543474 3303340
-0.11472572 -0.089011885 1.1593459 3303852
0.13867192 -0.092199385 1.1562638 3764149
-0.11681351 -0.080245234 1.1514163 3500716
-0.1140494 -0.078961447 1.1594141 3501229
0.14170811 -0.081781566 1.154896 3764661
-0.11636968 -0.072196633 1.1514713 3566512
-0.1131473 -0.068836175 1.1558453 3632306
0.13882481 -0.071544319 1.1548796 3896764
-0.11245263 -0.059221879 1.1559104 3698357
0.13294639 -0.061462369 1.1571715 4291265
0.13674562 -0.062628999 1.1516234 4225217
-0.11075613 -0.05022762 1.1556032 3764408
0.13381888 -0.051862713 1.156569 4554434
0.13640107 -0.051571157 1.15056 4488640
-0.10769369 -0.03955017 1.1564658 3895997
-0.10352848 -0.036412891 1.1596706 4027323
0.1335274 -0.041054785 1.1556466 4817354
-0.106073 -0.030007236 1.1530596 3962044
-0.10206058 -0.028881818 1.1589177 4093118
0.1243322 -0.028656296 1.1587727 5014224
0.12968268 -0.03141205 1.1547307 4751563
-0.10488004 -0.019597612 1.1517948 4290235
-0.09997835 -0.019548468 1.1563082 4158908
-0.09376096 -0.017340854 1.1597645 4028609
0.12272897 -0.021589786 1.1570514 4817874
0.12939368 -0.021332391 1.151803 5145287
-0.09753903 -0.012908839 1.1542115 4487616
-0.092115328 -0.010327823 1.1584738 4356800
0.11399527 -0.0089889169 1.1569548 5276623
0.1202919 -0.012035511 1.1531925 5604813
0.12967788 -0.013333492 1.1517472 6720449
-0.089940131 -0.003371641 1.1598473 5671109
0.11219581 -0.0034160465 1.1584302 5802961
0.11853846 -0.0042173341 1.1543027 6787017
0.036275271 0.013104305 1.1594359 12972031
-0.018887576 0.023563288 1.1577404 5869264
0.013485652 0.019589692 1.159577 7515376
0.020975962 0.019148946 1.1595426 8764660
0.030578587 0.018614158 1.1594986 10146554
0.03720253 0.017518319 1.1594632 10870005
-0.076557405 0.032473221 1.1520442 8028800
-0.071429715 0.032789856 1.152025 7305855
-0.01447793 0.024650604 1.1597296 5671370
-0.011160971 0.024618648 1.1597155 5869265
0.012057745 0.024394982 1.1596168 6988787
0.016480356 0.024352372 1.1595981 7185904
0.10280676 0.032366678 1.1592938 6314850
-0.070161335 0.037780181 1.1520549 8028802
0.099745132 0.035934538 1.1593317 6117979
0.075855441 0.046744704 1.1515077 5593178
0.078051515 0.046723545 1.1514983 5658970
-0.016850915 -0.2171599 1.1620317 2973083
-0.011314322 -0.21832278 1.1620003 2973595
-0.001878853 -0.21798804 1.1626298 2973598
-0.036714036 -0.20587307 1.1621945 2842012
-0.030348025 -0.20732135 1.1621575 2776219
-0.021024812 -0.20990241 1.1636242 2907806
-0.011436737 -0.21138556 1.1652077 2907807
-0.00088339485 -0.21202907 1.1653346 2973599
0.0080082025 -0.2097566 1.1626467 3039136
0.018763771 -0.20887472 1.1632746 3170723
0.028740315 -0.20884678 1.1625664 3236770
0.038540583 -0.20847574 1.1618614 3170979
0.04758903 -0.20834953 1.1618245 3170980
0.054261882 -0.20674947 1.1618079 3171236
-0.047722891 -0.19689062 1.1623039 2842012
-0.041029897 -0.199231 1.1637139 2842011
-0.031433705 -0.20158949 1.1646641 2842012
-0.023153581 -0.20312959 1.1661572 2907805
0.023312062 -0.2049689 1.1659499 3302309
0.029330373 -0.2038621 1.1647897 3302308
0.037979096 -0.20381477 1.1633967 3171236
0.048736017 -0.20447715 1.161847 3171236
0.059381858 -0.20321789 1.1634781 3105443
0.06921985 -0.20138511 1.1627833 3171492
0.075782962 -0.19955981 1.1617687 3040420
-0.068695471 -0.18559313 1.1624714 2841497
-0.059943985 -0.18843046 1.1629481 2907291
-0.051525872 -0.19117185 1.1642426 2907549
-0.044853855 -0.19243643 1.1663234 2907551
0.072403587 -0.19430822 1.16582 3040420
0.079429917 -0.19252107 1.1639084 3106213
0.087267064 -0.18998039 1.1617883 3106214
-0.070127912 -0.17910643 1.1645232 2907290
-0.063562691 -0.18205968 1.165975 2973340
0.083622366 -0.18550944 1.1658351 3302823
0.089680761 -0.18316595 1.1634264 3237030
0.095854186 -0.17981979 1.163602 3237031
-0.087363362 -0.16544142 1.1626918 2841497
-0.078997895 -0.16900559 1.163165 2842012
-0.072889462 -0.17131799 1.1655898 2907547
0.10111006 -0.17217968 1.1627792 3368361
0.10622176 -0.16897061 1.1618575 3237285
-0.088785462 -0.15951014 1.1627396 2973085
-0.081995659 -0.15981959 1.165446 3039135
0.10348561 -0.16506083 1.1618965 3368615
0.11004515 -0.16179866 1.1626194 3237799
0.11464457 -0.15851104 1.1618961 3303337
-0.096056812 -0.14649537 1.1628621 2973857
-0.090655625 -0.15008844 1.1643696 3039137
-0.084720947 -0.1510437 1.1667826 3104930
0.11211197 -0.15432727 1.1639363 3172264
0.118357 -0.15148742 1.1625968 3238059
-0.097164735 -0.13828915 1.1639246 3039650
-0.093206011 -0.14194377 1.1668823 3105700
0.12169603 -0.14178611 1.1641387 3369132
0.1259 -0.14197625 1.1619658 3434410
-0.09983518 -0.12970506 1.1647108 3171236
0.12367054 -0.13369 1.1652337 3500719
0.12705994 -0.13141003 1.1640357 3435183
-0.1068727 -0.11754292 1.1631117 3302823
-0.10222963 -0.11958604 1.1657447 3171495
0.12791868 -0.12131926 1.1639216 3566514
-0.10852992 -0.10890158 1.1646343 3368873
-0.10485478 -0.11012581 1.1663557 3368875
0.13071883 -0.11214567 1.1629565 3697588
-0.10934129 -0.099835731 1.1659138 3303850
0.13239017 -0.10258022 1.1656456 3763892
0.13560757 -0.10190413 1.1622083 3698099
-0.11059079 -0.089610241 1.1649246 3435181
-0.1047302 -0.090172954 1.1672962 3435438
0.13350996 -0.092467993 1.1662838 3829942
0.13634996 -0.091926433 1.1634185 3764149
-0.1094596 -0.079950273 1.1653881 3501229
0.13363905 -0.079108946 1.1663777 3896505
0.13799785 -0.082018271 1.164157 3830455
-0.10876801 -0.070092306 1.1649933 3632563
-0.10450429 -0.066794626 1.1674604 3567542
0.13133827 -0.071909927 1.1638666 4027837
0.1365284 -0.075505756 1.1623909 3896505
-0.1079127 -0.060040165 1.1648556 3829940
-0.10443974 -0.060115095 1.1675073 3699127
0.1299348 -0.062291149 1.1651785 4291009
-0.10739837 -0.049899906 1.1643918 3895737
-0.10369753 -0.049147721 1.1675817 4027576
0.1303252 -0.052250963 1.1645812 4422849
-0.10615441 -0.043210123 1.1636338 4158911
-0.10162275 -0.03956851 1.1656406 4093372
0.13036107 -0.042503066 1.1641499 4817355
-0.097785525 -0.030202806 1.1652292 4093630
-0.092984289 -0.026824728 1.1676946 4094397
0.12301544 -0.031689174 1.1649792 5080014
0.12748928 -0.034920182 1.1627154 4883149
-0.095599316 -0.022600248 1.1637353 4028348
-0.091062687 -0.020096958 1.165234 4028864
0.11861473 -0.02199965 1.1646216 4949202
-0.087406047 -0.01054132 1.1656044 4029123
-0.083156645 -0.0083634481 1.1677839 3963586
0.11262883 -0.012083024 1.1656055 5146069
0.11601682 -0.016502127 1.1628935 5080276
-0.086530633 -0.0027157366 1.1638378 5342665
-0.079370998 -0.000663504 1.1678225 4882633
-0.015878089 0.0024931356 1.1675793 6070261
-0.0091984579 0.0024287924 1.1675509 6528744
-0.002518828 0.0023644418 1.1675224 8827627
0.013066974 0.0022142977 1.1674563 10340848
0.021807961 0.0014938936 1.1674147 8895736
0.029307835 0.00072182715 1.1673778 6266608
0.10369954 0.00079155713 1.1660672 5475287
0.10814039 -0.0027575418 1.1643568 5475028
-0.075848319 0.0053078011 1.1658498 5999306
-0.069177009 0.0063530803 1.1658293 5540557
-0.060579482 0.0096099377 1.1651497 5803727
-0.047834288 0.011213019 1.1677744 4950220
-0.03888277 0.010002203 1.1677285 5016280
-0.029164992 0.0093002766 1.1672829 5411294
-0.019125104 0.0092029199 1.1654001 5806569
-0.0091296127 0.0091079175 1.1669978 7120874
0.00046859961 0.0097580478 1.1675622 12379901
0.011047439 0.0091495886 1.1649873 13891069
0.020857818 0.0088211522 1.1642703 12969723
0.030818738 0.0089560449 1.1651138 9946095
0.040889911 0.0086246058 1.1654721 10013177
0.050643444 0.010412976 1.1652032 7449069
0.057327162 0.012179263 1.1673416 5411552
0.10082006 0.0047189519 1.1646069 6526426
-0.045807336 0.016141742 1.1678008 6264275
-0.038215443 0.016889766 1.1652743 5803990
-0.02863846 0.017438129 1.1637381 5345755
-0.018619355 0.018603437 1.1637044 5412839
-0.0090212775 0.019100592 1.1641679 5676266
1.7202459e-005 0.018075608 1.1664799 7253489
0.0098400656 0.017812513 1.1645799 8436213
0.019793771 0.015492164 1.1635219 12051453
0.034259666 0.019791007 1.1634917 10082302
0.042092718 0.018975854 1.1634532 10607102
0.0505693 0.01804883 1.1634113 7515119
0.057607468 0.017357938 1.1647103 6068200
-0.0067475596 0.024624228 1.1636974 6001365
-0.0023097107 0.024581477 1.1636784 6396124
0.11024553 0.029266857 1.1632409 6447199
-0.0078941127 -0.20763931 1.1700617 3039391
-0.00033915788 -0.20715046 1.1715336 3039135
0.011096267 -0.20782223 1.169981 3104930
-0.036830276 -0.1961889 1.1702636 2776478
-0.03045401 -0.19716009 1.1722301 2842271
-0.020557929 -0.19891028 1.1743582 2907807
-0.011346684 -0.20086205 1.1748198 2908063
-0.0013316153 -0.20181608 1.1758757 2973600
0.0089968788 -0.20092979 1.175372 3105187
0.018924713 -0.20066778 1.1744127 3236773
0.028639914 -0.19941714 1.1737005 3237029
0.039586857 -0.19960871 1.17372 3171237
0.049219724 -0.20063511 1.1713724 3171236
0.058752913 -0.19916323 1.170766 3105444
0.067611404 -0.19775358 1.1698159 3171493
-0.048925173 -0.18722418 1.1735775 2841758
-0.04084437 -0.18961513 1.1743269 2907551
-0.031932939 -0.19082749 1.1771047 2842271
-0.02125359 -0.19212741 1.1782274 2908064
-0.014516263 -0.1933171 1.1781908 2973857
0.0068530347 -0.19352296 1.1781001 3105444
0.019734258 -0.19264722 1.1780524 3237030
0.029777111 -0.19315416 1.1772068 3302823
0.03944584 -0.19246499 1.1770481 3171495
0.04881949 -0.19114256 1.17655 3105703
0.058526088 -0.19149327 1.1762983 3105703
0.068329997 -0.19107608 1.1743602 3105702
0.076676622 -0.18863241 1.1715567 3105958
-0.060136493 -0.17940682 1.1721267 2973598
-0.052139554 -0.18123546 1.1764334 2907551
-0.042257491 -0.18320799 1.1783783 2908065
0.070206121 -0.18271235 1.1779115 3237288
0.079023167 -0.18206637 1.1754347 3302823
0.087694421 -0.18008602 1.1724281 3237287
-0.069427133 -0.16805691 1.1734558 3105183
-0.061983053 -0.17152593 1.1766609 2974112
-0.053696003 -0.17381829 1.1784924 2842786
0.080590971 -0.1753369 1.1779202 3171750
0.089250065 -0.17180067 1.1765755 3172008
0.097315282 -0.17009231 1.1722205 3303081
-0.077467762 -0.15828094 1.171368 3104930
-0.071238466 -0.16070443 1.177325 3170978
0.091824949 -0.16349024 1.1779569 3303337
0.099608324 -0.1620295 1.1756846 3368873
0.10654935 -0.16076726 1.1724598 3237543
-0.08716958 -0.14541301 1.1734995 3040164
-0.080478191 -0.14924243 1.1745673 3105701
-0.074123502 -0.1537503 1.1787196 3302822
0.10127787 -0.15304044 1.1779912 3303597
0.10868634 -0.15065357 1.1736133 3238059
0.11578251 -0.147652 1.1719683 3303852
-0.089545391 -0.13906297 1.1746655 3106213
-0.081782214 -0.14121014 1.1788403 3172007
0.10969148 -0.1416225 1.1778367 3369387
0.11761631 -0.14143272 1.1740047 3435181
-0.096610047 -0.12873964 1.1723233 3237030
-0.090025321 -0.12950733 1.1766239 3237800
-0.083671644 -0.13303722 1.1789058 3303594
0.1115697 -0.13559291 1.1780714 3500972
0.12000676 -0.13137272 1.1748158 3500976
0.12469864 -0.12848057 1.1700665 3500977
-0.097652562 -0.11948431 1.174171 3237545
-0.092988491 -0.12122277 1.1781393 3303852
0.12190031 -0.12189506 1.178125 3566772
0.12520273 -0.12222956 1.1741086 3566515
-0.10007042 -0.10975193 1.1743888 3369389
0.12284934 -0.11237029 1.1781883 3763639
0.12620153 -0.1114325 1.1732918 3763639
-0.10672932 -0.095836364 1.1725981 3435181
-0.1013791 -0.099598341 1.1757874 3435438
0.12359915 -0.10129033 1.1782634 3895737
0.12856327 -0.10118174 1.1730667 3764149
-0.10616198 -0.089372478 1.1737081 3435438
-0.1007797 -0.090084344 1.1777422 3501231
0.12365349 -0.095666923 1.1783029 3961530
0.12904915 -0.091701843 1.1731317 3961528
0.13625807 -0.088373907 1.1703014 3895735
-0.10578867 -0.080128372 1.1743718 3501489
-0.10150668 -0.07996776 1.1772375 3501490
0.12382738 -0.07767202 1.1784294 4159679
0.12947336 -0.08236976 1.173645 3962041
0.13627966 -0.086139783 1.1703172 3895735
-0.10619093 -0.072775885 1.1734254 3501747
-0.1013405 -0.069651112 1.1760941 3567541
0.12313917 -0.071291596 1.1784773 4225473
0.12681103 -0.071801111 1.1744581 4159424
-0.099472828 -0.059509449 1.1750911 3764919
0.12297496 -0.062416699 1.1785406 4422597
0.12690851 -0.061713248 1.174529 4357059
-0.098886505 -0.049741082 1.1749862 3896505
-0.094114415 -0.049702428 1.1795381 3962298
0.12295263 -0.051793501 1.1786158 4685767
0.12700599 -0.051625401 1.1745998 4422851
-0.097344808 -0.040616836 1.1732156 4027836
-0.092291683 -0.038938325 1.1785157 4028094
0.12117124 -0.04116746 1.1765805 4948684
0.12703124 -0.043085817 1.1716599 4751818
-0.095576674 -0.032516547 1.1716654 4093632
-0.089947499 -0.029161938 1.1775119 4094399
0.11453281 -0.030716375 1.1787999 5080784
0.11881506 -0.031791106 1.1739742 5211343
-0.086623758 -0.020740703 1.176075 4094402
-0.080055028 -0.017758556 1.178705 4226244
-0.07354378 -0.016157001 1.1796892 4620744
-0.019547321 -0.015552372 1.1794676 5412064
0.002946673 -0.015769057 1.1793721 6463211
0.010980968 -0.019683987 1.1793108 6397929
0.020674203 -0.019136593 1.1792741 6397929
0.029927045 -0.017314442 1.1792483 6003432
0.11160809 -0.021391355 1.1763779 5081042
0.11676587 -0.024507605 1.1708341 5081041
-0.078641117 -0.0099239349 1.1736209 4160963
-0.070533574 -0.0091028139 1.1788691 4752075
-0.055450771 -0.0062082186 1.1796838 4949201
-0.04870801 -0.006835565 1.1796511 5016022
-0.039140712 -0.0080427527 1.1789359 5213659
-0.029321618 -0.0090375617 1.1783236 5411552
-0.019481789 -0.0099173486 1.1787071 5740773
-0.0093706893 -0.01002647 1.1794641 6003172
0.00074882805 -0.010118112 1.1790211 6331366
0.010835931 -0.010171488 1.1763784 6989552
0.020939099 -0.010275818 1.1767355 6792432
0.03102237 -0.010360852 1.1760427 5937640
0.039528251 -0.0095436722 1.1782629 5806054
0.050260138 -0.0083513558 1.1792266 5674725
0.057019204 -0.0072916746 1.1792058 5674983
0.10282627 -0.010263711 1.1789932 5146841
0.1088003 -0.012343243 1.1732391 5080789
-0.075166978 -0.001432471 1.1717997 4554184
-0.071699739 -0.00066049397 1.1747906 4751049
-0.056432348 -0.00056078285 1.1777277 4818129
-0.048993226 -0.00062454492 1.1768961 5015507
-0.039467271 -0.00067871064 1.1734557 5147609
-0.029365215 -0.00076243281 1.1721128 5346018
-0.019717686 -0.0012559891 1.1746802 5937898
-0.0092752324 -0.0021046177 1.1748527 6462952
0.0011842037 -0.0014513806 1.1739248 8303605
0.010552593 -0.0016375035 1.1728684 8501495
0.020396771 -0.0027046502 1.1720065 7252467
0.031714041 -0.0022768155 1.1728014 6069484
0.04087615 -0.0012834668 1.1736313 6135528
0.050997198 -0.001786463 1.1766815 5741031
0.060394894 -0.0016922727 1.1782312 5543655
0.069890358 -0.00049389154 1.1792001 5477092
0.079967804 0.00073570013 1.1791666 5739747
0.091337331 0.00037620962 1.1791165 5280481
0.10051658 -0.0023116171 1.1753666 5015513
0.10597664 -0.0043201298 1.1730218 4949463
-0.068399727 0.0052053481 1.1718183 4818122
-0.058956999 0.0061073974 1.1717851 5147606
-0.050261389 0.0067684129 1.1717534 4818639
-0.041589785 0.0049470812 1.1717043 5344472
0.0030988595 0.0050751567 1.1715183 12971007
0.007561787 0.0044735819 1.1714954 12905215
0.032137565 0.0042368323 1.171391 5807584
0.045542542 0.0041076988 1.171334 6004710
0.051615953 0.0050067678 1.171315 5807083
0.060440328 0.0073828027 1.1734283 5477863
0.06895037 0.0068475977 1.1759223 5542628
0.080746569 0.0037276223 1.1791844 5673698
0.091327697 0.0055950806 1.1776533 5804766
0.096928269 0.0036126897 1.1711156 5147865
0.063523784 0.015106156 1.1713365 5412324
-0.0078024091 -0.19632992 1.1821417 3039650
-0.0013600169 -0.19703689 1.1821097 3039650
-0.028039232 -0.18823481 1.1822834 2842271
-0.021268185 -0.18830004 1.1822547 2973857
-0.010948702 -0.18949983 1.1834662 2973857
-0.0012087198 -0.19135541 1.1846756 3039395
0.0094662216 -0.18951833 1.1838953 3171237
0.018782912 -0.18818483 1.1831547 3237030
0.029135438 -0.18773741 1.1835864 3302569
0.037471898 -0.18795747 1.1833448 3237546
-0.047606282 -0.1775665 1.1824406 2908065
-0.040038496 -0.17860678 1.1824017 2973857
-0.031369708 -0.1804612 1.1833522 2973857
-0.021637425 -0.18246399 1.1844151 2973858
-0.013345311 -0.18338624 1.1862563 3105444
0.018359601 -0.18369165 1.1861216 3237030
0.030074812 -0.18229464 1.1860825 3302825
0.039009199 -0.18192339 1.18574 3171754
0.048854008 -0.18252468 1.1840023 3171752
0.059198819 -0.18219671 1.1833731 3171753
0.067664593 -0.17915753 1.1829474 3237546
0.075903535 -0.17682156 1.1819293 3303592
-0.058692504 -0.168001 1.1825545 2908579
-0.050511751 -0.1702639 1.1845044 2908579
-0.040687926 -0.17183493 1.1853613 3105444
-0.032049879 -0.17369387 1.186403 3105443
0.062607542 -0.17505866 1.1859975 3303339
0.070656985 -0.17285332 1.1846461 3303082
0.07906498 -0.170811 1.18253 3237545
0.085018851 -0.16788062 1.1819545 3303850
-0.06761153 -0.15662912 1.1826721 3302822
-0.061031569 -0.16101398 1.1848637 3040165
-0.053933691 -0.16487674 1.1865568 3040167
0.074018255 -0.16610935 1.1860131 3303598
0.080115333 -0.16216621 1.1850742 3238061
0.088691413 -0.16017261 1.1831046 3303596
0.096402079 -0.15783289 1.1819779 3369131
-0.077290155 -0.14600231 1.1827877 3171751
-0.070894063 -0.14970708 1.1841465 3368615
-0.064015143 -0.15345557 1.1866796 3171751
0.098286547 -0.1512862 1.1835163 3369134
-0.079196885 -0.1389302 1.1828456 3369130
-0.073084652 -0.14097029 1.1858057 3434922
0.099512257 -0.14164312 1.1851269 3435183
-0.080833465 -0.13032499 1.1842465 3434923
0.10233358 -0.1345762 1.1853174 3501232
0.10912151 -0.13150473 1.1846989 3435694
0.11585936 -0.12980543 1.1820945 3501232
-0.088949427 -0.11910039 1.1840265 3369646
-0.083260462 -0.12292111 1.1856424 3435182
0.11294381 -0.12232051 1.1861596 3567282
0.11704507 -0.12181006 1.1839641 3567027
-0.097221658 -0.10630944 1.1831514 3501231
-0.092663378 -0.11030346 1.1858542 3435439
0.1130204 -0.11439441 1.1862153 3829686
0.11814441 -0.11161842 1.1844356 3829431
-0.097188942 -0.10292397 1.1831752 3501231
-0.092764236 -0.099737905 1.1848459 3567024
0.12054428 -0.10226425 1.1849362 3830201
-0.097052634 -0.088817835 1.1832743 3632818
-0.093821883 -0.089583486 1.1852554 3698612
0.12276156 -0.091669902 1.184335 3896507
-0.096959941 -0.079225659 1.1833416 3633333
-0.093105398 -0.079478264 1.1861237 3764919
0.12269364 -0.081456944 1.1839074 4093886
-0.097326294 -0.070419073 1.1834054 3633334
-0.093266204 -0.069547117 1.1865946 3830201
0.11978607 -0.071808927 1.18471 4291523
-0.092749722 -0.059238911 1.1851319 3896506
0.11939514 -0.061315905 1.1841635 4619975
-0.089377202 -0.049720436 1.1852326 4028348
0.11364406 -0.049853306 1.1866685 5146320
0.11804675 -0.052109692 1.1856341 4883148
-0.087574475 -0.040312327 1.1838629 3962814
-0.082570173 -0.039019521 1.1864227 3963072
0.11273099 -0.041006397 1.1852348 5146577
0.11647008 -0.042650793 1.1832075 5080527
-0.08611311 -0.031251952 1.1836351 4028607
-0.079908863 -0.02957987 1.1857544 4291526
-0.029963404 -0.028086588 1.1874228 5147865
-0.022487916 -0.027932122 1.1873926 5344731
-0.0061737811 -0.027183354 1.1873296 5345501
0.00062012952 -0.0272488 1.1873008 5739743
0.010772428 -0.029569037 1.1859087 5936862
0.019828478 -0.029666863 1.1862034 5871068
0.030049462 -0.028664701 1.1871678 5739228
0.048177499 -0.027706936 1.1870987 5213656
0.11094008 -0.032106295 1.1852052 4949970
-0.078068241 -0.022131398 1.1836659 4422856
-0.069582604 -0.017463312 1.1854817 4686797
-0.059201386 -0.016436353 1.1856273 4884690
-0.048813153 -0.017985329 1.187073 4950486
-0.038368985 -0.018839173 1.1861899 5213659
-0.02981887 -0.02008 1.1842787 5279707
-0.019667797 -0.021317951 1.1846275 5345244
-0.0094876876 -0.019783057 1.1845069 5411808
0.00035966653 -0.020990334 1.1842551 5806052
0.0096615143 -0.024199173 1.1832845 6068964
0.021695308 -0.024691291 1.1832306 6068963
0.031758685 -0.022413932 1.1841278 6003173
0.040235322 -0.020783208 1.1849809 5608417
0.050437666 -0.020894997 1.1855373 5411038
0.057301693 -0.021000393 1.1871079 5279709
0.10200465 -0.019667737 1.1860074 5212630
0.10760844 -0.023300298 1.1842146 5015248
-0.065835916 -0.011809722 1.1836877 4949712
-0.059064854 -0.011874951 1.183659 4949713
-0.048908267 -0.011972792 1.1836158 5016279
-0.039507668 -0.012439549 1.1835731 5213659
-0.030863028 -0.013275221 1.183531 5345501
0.041931249 -0.013412178 1.1832258 5871590
0.050400522 -0.012929462 1.1831938 5871847
0.060687158 -0.010809906 1.1851658 5543139
0.067984447 -0.0097530633 1.1854284 5280225
0.092512973 -0.010015547 1.1870383 5411294
0.098350063 -0.011467434 1.1844581 5279196
0.070231207 -0.0046560317 1.1831692 5411556
0.0798399 -0.0030556992 1.1831404 5412066
0.091124997 -0.0031644106 1.1830925 5477344
0.097874224 -0.0054866225 1.1830478 5213404
-0.00014731754 -0.18681742 1.1901771 3105189
-0.020431239 -0.17816323 1.191323 3039906
-0.010749557 -0.18039408 1.1916955 3039908
-0.0012187054 -0.18166035 1.1935514 3105447
0.0093867239 -0.18096758 1.1909286 3105702
0.018478964 -0.17980082 1.1901487 3171750
0.027468693 -0.17947426 1.1901134 3237289
0.038951214 -0.17772561 1.1900778 3237548
0.049176365 -0.17782411 1.1900344 3171752
0.058265388 -0.17791167 1.1899958 3171752
-0.047975149 -0.16643503 1.190521 3039909
-0.040129289 -0.16724814 1.1913714 3105701
-0.03199194 -0.16998804 1.1929746 3105443
-0.022439111 -0.17548418 1.1943505 3040163
0.0083479974 -0.17486873 1.194226 3105960
0.019758137 -0.17386395 1.1941855 3105958
0.028866798 -0.17243463 1.1933575 3237545
0.03927023 -0.17146614 1.1922261 3237547
0.049313776 -0.17124641 1.1916803 3237544
0.059380051 -0.17111674 1.1917233 3237545
0.068047166 -0.16920483 1.190683 3303339
-0.059131701 -0.15689698 1.1906351 3172009
-0.050729949 -0.16015913 1.192977 3105961
-0.041409135 -0.16247617 1.1945217 3171752
0.042647444 -0.16471094 1.1941544 3303337
0.049487066 -0.16477682 1.1941253 3303593
0.059593089 -0.16389701 1.1940893 3303594
0.068820238 -0.16136229 1.1928185 3303596
0.075645261 -0.15989965 1.1900504 3238062
-0.066434197 -0.14830503 1.1907263 3434409
-0.060698111 -0.15014313 1.1935129 3237547
-0.052377325 -0.15260257 1.1946373 3237805
0.069857866 -0.1540795 1.1941158 3238318
0.079178154 -0.15122838 1.1929768 3238572
0.089297019 -0.15109958 1.1912555 3434926
0.095798247 -0.15054959 1.1900321 3369134
-0.068682589 -0.13925965 1.1920304 3435179
-0.062748924 -0.14134365 1.1943157 3369388
0.083883442 -0.14458773 1.1941241 3500977
0.08953505 -0.14109601 1.1931251 3435186
0.094980098 -0.14114898 1.1901019 3500720
-0.077095002 -0.12843415 1.1919112 3566511
-0.071413651 -0.13137972 1.1935334 3566767
-0.064220227 -0.13404079 1.1948179 3500977
0.091074862 -0.13348109 1.1936725 3501234
0.098975703 -0.13109605 1.1909063 3501490
-0.086566113 -0.11516085 1.1910446 3566770
-0.079839423 -0.11982743 1.1935836 3632306
-0.073251612 -0.12483358 1.1949207 3632563
0.10086881 -0.12246273 1.1927975 3699127
0.10831589 -0.12123241 1.1906574 3633076
-0.087716445 -0.10956809 1.192089 3566770
-0.081707723 -0.11054567 1.1950569 3763892
0.10185537 -0.11341016 1.1942692 3633335
0.10854331 -0.11126294 1.1918119 3764407
-0.08774332 -0.099499874 1.1939602 3698868
-0.083400272 -0.10016195 1.1951374 3699126
0.10254101 -0.10144651 1.1943508 3962811
0.10907475 -0.10158967 1.1931558 3830969
0.11678585 -0.10186205 1.1902883 3830714
-0.088828512 -0.089519918 1.1921582 3699126
-0.083556905 -0.090153567 1.1952088 3830712
0.10987216 -0.091660708 1.1937892 4028606
0.11801923 -0.091810308 1.1903541 3962300
-0.08815378 -0.080045357 1.1928993 3830970
-0.083239593 -0.079787828 1.1952807 3962813
0.1102339 -0.082609624 1.1944517 4291522
0.11810423 -0.08224719 1.1907849 4094399
-0.088357516 -0.069974907 1.1930856 3962044
-0.08347401 -0.07033965 1.1953484 4093630
0.11192055 -0.071879111 1.1942538 4554438
0.11674354 -0.072644673 1.1904948 4357059
-0.087638289 -0.059935182 1.1927725 4093886
-0.083041318 -0.059269287 1.1954248 4291009
0.11018734 -0.061313156 1.1937134 4686026
0.11620254 -0.06143963 1.1905762 4685769
-0.085962303 -0.052674823 1.1914835 4159935
-0.080924883 -0.050274789 1.1943365 4225985
0.10302568 -0.051290087 1.1947031 5015248
0.10908929 -0.052604191 1.1920017 5014991
-0.077817127 -0.040481001 1.1936532 4292037
-0.072458513 -0.042759448 1.1954972 4619977
-0.049593683 -0.036139566 1.1954483 5279449
-0.041614123 -0.036216434 1.1954144 5016538
-0.02908583 -0.037477147 1.195353 4950743
-0.019580193 -0.039245233 1.1953008 4950488
-0.010481548 -0.039176404 1.1952633 5147351
-2.2946857e-005 -0.038327135 1.1952256 5278422
0.010519435 -0.040737052 1.1942755 5212886
0.019873625 -0.040158454 1.1933794 5278423
0.02985635 -0.039420735 1.1938429 5147094
0.040758703 -0.039941449 1.1950437 4885460
0.050256867 -0.038523745 1.1942866 4950741
0.05937548 -0.038101323 1.1949788 5016279
0.10162523 -0.041413032 1.1933787 5212370
0.10899886 -0.042622682 1.1907393 5212369
-0.075668462 -0.033533327 1.1935756 4423370
-0.073566034 -0.030355655 1.1931894 4554187
-0.049079623 -0.031119928 1.1952149 5147610
-0.039221801 -0.030473404 1.1934448 5081818
-0.03013809 -0.032835722 1.1933903 5016538
-0.018973228 -0.031507552 1.1934862 5278938
-0.009861582 -0.030988842 1.1934519 5344730
0.00059511419 -0.031960554 1.1923345 5673948
0.010795176 -0.034291256 1.1912087 5805277
0.019884197 -0.034378812 1.1911701 5541848
0.030120324 -0.033341192 1.1911347 5475544
0.040367424 -0.031167485 1.1911072 5213397
0.051018737 -0.031898096 1.1917634 5082070
0.060723975 -0.031221777 1.1934217 5016536
0.069689833 -0.029145613 1.1949989 5213915
0.080447249 -0.028272092 1.1949601 5279453
0.091386221 -0.028833471 1.1949104 5213659
0.10078816 -0.031832673 1.1932498 5212628
0.10739896 -0.031813227 1.1908224 5146833
-0.073190443 -0.024392478 1.1916299 4554443
-0.047950838 -0.022817671 1.1915355 5016281
-0.040688407 -0.023796603 1.1914982 5147611
-0.0095672933 -0.025005378 1.1913595 5411294
