# .PCD v0.7 - Point Cloud Data file format
VERSION 0.7
FIELDS x y z rgba
SIZE 4 4 4 4
TYPE F F F U
COUNT 1 1 1 1
WIDTH 174
HEIGHT 1
VIEWPOINT 0 0 0 1 0 0 0
POINTS 174
DATA ascii
-0.35197037 0.096821919 1.0904244 5134174
-0.34528843 0.096106865 1.0921223 5134176
-0.35306406 0.10139573 1.0902963 4871515
-0.35920435 0.07805638 1.0951623 4936281
-0.34885097 0.076891176 1.0977911 5199967
-0.34417018 0.077522919 1.0990186 5397348
-0.36791039 0.083664037 1.0927972 4673880
-0.35994497 0.084206641 1.0928869 4870232
-0.35096467 0.085495785 1.0959857 5068382
-0.34173864 0.08711943 1.0989814 5068384
-0.33466965 0.089634404 1.1018738 4476504
-0.36921513 0.09303017 1.0913637 4607822
-0.36209899 0.094009392 1.0918527 4673623
-0.35145515 0.094689541 1.0946184 5134174
-0.34156621 0.096927255 1.0972419 4739419
-0.33437857 0.097655781 1.1004471 4081746
-0.37092644 0.10125421 1.092921 4410445
-0.36230892 0.10349805 1.0921174 4213839
-0.35248241 0.10534133 1.0947117 4345429
-0.34276044 0.10623665 1.097247 4016211
-0.33518952 0.10691035 1.1004128 3621193
-0.36244568 0.10897108 1.0922661 3884109
-0.35356805 0.11116005 1.0946274 3752784
-0.34355661 0.11244294 1.0972503 3621192
-0.33641589 0.11230657 1.0990859 3686459
-0.36823776 0.064557262 1.1031557 4673626
-0.35961288 0.064797446 1.1024517 4870741
-0.35071534 0.064820722 1.104936 5265754
-0.34121311 0.066822827 1.107728 5397604
-0.33412245 0.070545666 1.1127387 4608350
-0.36940891 0.07349316 1.0990951 4673629
-0.36063269 0.073120847 1.0991055 4870744
-0.3522338 0.072671302 1.1009104 5134174
-0.34081903 0.076227516 1.1046453 5397606
-0.33401078 0.077943332 1.1107618 4476760
-0.3290846 0.082691357 1.1144451 4015442
-0.37829155 0.080645226 1.101696 3883351
-0.37365538 0.081278332 1.0975392 4475995
-0.34063378 0.082834199 1.1042411 5068641
-0.33277395 0.087114073 1.1085312 4082513
-0.32831591 0.088874489 1.1143343 3752531
-0.37584069 0.091068074 1.096065 4079443
-0.33193573 0.096417785 1.1084888 3621705
-0.32805604 0.094552383 1.1126289 3751503
-0.33410317 0.10377504 1.1066277 3490378
-0.35765713 0.047543764 1.1172663 5002588
-0.35458511 0.047937419 1.1180712 5528419
-0.36911863 0.055753566 1.1145886 4739163
-0.3610554 0.053891841 1.1135617 5002333
-0.35188362 0.054758728 1.1158969 5397092
-0.34363624 0.057860371 1.1195288 5332066
-0.33839861 0.059690069 1.1226373 4740695
-0.36968529 0.059696455 1.1091508 4082256
-0.36242688 0.059464779 1.1092054 5068120
-0.340996 0.062744841 1.1169046 5200736
-0.33407035 0.067020908 1.1210403 4345175
-0.32807505 0.069734894 1.1250448 4278096
-0.33188218 0.076868162 1.118547 4147028
-0.32821572 0.076861672 1.1237112 3819087
-0.3284235 0.08442501 1.1200464 3687502
-0.35198212 0.036241081 1.1297144 5528423
-0.3479144 0.037305295 1.1307983 5397348
-0.36155555 0.042948924 1.1219623 4804702
-0.35227916 0.043931317 1.1237868 5462626
-0.34397346 0.045640092 1.12865 5003105
-0.33689019 0.050128981 1.1315905 4804440
-0.37196848 0.051762696 1.1209527 3817824
-0.36476535 0.048914503 1.1185803 4673622
-0.34936413 0.050888032 1.1226155 5660265
-0.34246823 0.053340077 1.1244749 5069150
-0.33465016 0.057177626 1.128685 4475986
-0.32996997 0.062101945 1.1300565 4014924
-0.33224362 0.063864566 1.1274633 4606547
-0.32717159 0.066967212 1.1293913 3620428
-0.35914579 0.028435251 1.1348386 4079956
-0.35211039 0.028344428 1.1342869 5266270
-0.34711155 0.029430995 1.1379732 5002845
-0.3621946 0.034266151 1.1321824 4079963
-0.35405624 0.032691851 1.1321603 5330781
-0.34464404 0.03613719 1.1364033 5002331
-0.34182957 0.042533707 1.1356418 5001816
-0.33848307 0.045836598 1.1378549 4540755
-0.33477193 0.053237557 1.1378201 4213074
-0.35500652 0.018216554 1.1479605 5265766
-0.35610655 0.022591369 1.144872 5068639
-0.34784034 0.025320834 1.1466018 4214103
-0.36347312 0.027978353 1.137841 1580089
-0.34353063 0.032378875 1.1438167 4145996
-0.34147128 0.038473278 1.1438634 4212054
-0.36178857 0.016284822 1.1492474 3618132
-0.35637796 0.015871067 1.1506279 5199718
-0.35019264 0.017770737 1.1522856 4214875
-0.34805197 -0.042345081 1.1673487 528927
-0.34305048 -0.042377651 1.1686364 1517876
-0.34563068 -0.052696556 1.1800234 4419983
-0.36052096 -0.047722925 1.174287 1651559
-0.35460514 -0.046188381 1.1726158 1782104
-0.34213635 -0.047122456 1.1736205 4154236
-0.33857185 -0.043233629 1.178618 3028033
-0.35396984 -0.039023682 1.178334 2369321
-0.345552 -0.038045343 1.1768165 2040105
-0.35533065 -0.019849382 1.1744946 4146252
-0.36210027 -0.052896909 1.1840383 5077683
-0.35489511 -0.054575257 1.184461 4617364
-0.34579778 -0.053790059 1.1868317 4549258
-0.34073278 -0.047704335 1.1855862 6582660
-0.36355025 -0.041525804 1.1799139 7695014
-0.35680327 -0.036891993 1.182497 2040625
-0.34901401 -0.034656797 1.1838906 2172202
-0.3418816 -0.038749155 1.1855911 2760198
-0.3572948 -0.064132176 1.1931648 4683677
-0.35182276 -0.063430987 1.1945984 3831442
-0.36520991 -0.058198303 1.1901437 3299734
-0.35781184 -0.059475426 1.1905581 4683420
-0.34975421 -0.05894912 1.193629 3960460
-0.35789022 -0.13764369 1.2039731 3829135
-0.35014716 -0.13616565 1.206018 4223637
-0.34411323 -0.13584511 1.2075837 3960467
-0.35986647 -0.12844165 1.203773 3498881
-0.35173598 -0.12693806 1.2055054 3895695
-0.34446684 -0.12466468 1.2078683 3631246
-0.36043355 -0.11723404 1.2009038 3499128
-0.35337469 -0.11713815 1.2027261 4025235
-0.3455078 -0.11516859 1.2067384 3499655
-0.36054495 -0.10779049 1.199126 3826560
-0.35419437 -0.10702263 1.2013049 4156303
-0.34709981 -0.10666915 1.2057281 3630985
-0.36227259 -0.098420516 1.2020953 3893387
-0.35559094 -0.097246587 1.2022494 4157333
-0.34910989 -0.095908858 1.2060883 3762828
-0.36221999 -0.089867488 1.2044626 3762325
-0.35616171 -0.086500503 1.2023486 4420507
-0.35075447 -0.085977912 1.2061703 3828877
-0.36508584 -0.076293081 1.2041802 4222878
-0.35702851 -0.077111125 1.2023718 4552347
-0.35176259 -0.076857522 1.206768 3631755
-0.3663758 -0.068476997 1.1983246 3627913
-0.35734245 -0.069046482 1.1984979 4683676
-0.3513644 -0.06698402 1.2031448 3892613
-0.35063979 -0.058934581 1.2002205 3563127
-0.35953584 -0.14777918 1.2088174 3033484
-0.35200891 -0.14781585 1.2132303 2897991
-0.34231818 -0.1457644 1.21529 3891064
-0.3355839 -0.14414218 1.2188019 2638186
-0.3642036 -0.13921019 1.2064264 666715
-0.35345256 -0.14009725 1.2091671 4813457
-0.34078586 -0.13550171 1.2125857 3499654
-0.33483273 -0.13462356 1.2179558 3561592
-0.36628798 -0.12798737 1.2062664 6722
-0.34212568 -0.12605684 1.2125578 3694979
-0.33635011 -0.12506382 1.2161459 3233144
-0.34193617 -0.11554175 1.2129599 3104639
-0.33823591 -0.11505874 1.2172172 2640231
-0.34383789 -0.10599402 1.2127907 2907007
-0.34077153 -0.10572965 1.2182862 3099492
-0.36693025 -0.096597269 1.2071557 4089741
-0.34552929 -0.096547589 1.2130412 3496061
-0.34268978 -0.095058002 1.2186201 4278874
-0.36574015 -0.088285267 1.2077416 2972810
-0.34773186 -0.086395845 1.2138547 3757171
-0.34483835 -0.08714021 1.2183325 3748927
-0.36536577 -0.082409076 1.2080356 3630740
-0.34775379 -0.078986607 1.212689 3953004
-0.35311839 -0.15425536 1.2180763 984897
-0.34354883 -0.14911483 1.220715 4350584
-0.33688268 -0.12406024 1.2239636 4674411
-0.33860824 -0.11569382 1.226211 6974583
-0.34170231 -0.10490771 1.2257761 3815753
-0.37282857 -0.098066747 1.2148852 5799072
-0.34137151 -0.095210098 1.2230875 5064001
-0.33908981 -0.13037734 1.2359256 7039097
-0.34033859 -0.12470584 1.2368276 7565430
-0.34202406 -0.11618218 1.2363353 8223350
-0.3421827 -0.10786562 1.2317522 9076613
