# .PCD v0.7 - Point Cloud Data file format
VERSION 0.7
FIELDS x y z rgba
SIZE 4 4 4 4
TYPE F F F U
COUNT 1 1 1 1
WIDTH 174
HEIGHT 1
VIEWPOINT 0 0 0 1 0 0 0
POINTS 174
DATA ascii
-0.34943151 0.097161248 1.088655 5134174
-0.34284228 0.096597031 1.0907302 5134176
-0.35060316 0.1017109 1.0884099 4871515
-0.35656011 0.07831151 1.093215 4936281
-0.34634921 0.077380031 1.0964291 5199967
-0.34175706 0.078117587 1.0979067 5397348
-0.36522582 0.083719693 1.0903008 4673880
-0.35728958 0.084419981 1.0908263 4870232
-0.34852225 0.085920468 1.0944029 5068382
-0.33951026 0.08775907 1.0978862 5068384
-0.33266276 0.090445146 1.1011356 4476504
-0.36662653 0.093041584 1.0886815 4607822
-0.35956869 0.094166145 1.089553 4673623
-0.34911057 0.095086806 1.0928972 5134174
-0.33942771 0.097548157 1.0960381 4739419
-0.33244523 0.09845411 1.0996283 4081746
-0.36857823 0.10124738 1.0900397 4410445
-0.35997355 0.10365121 1.0896885 4213839
-0.35034388 0.10571668 1.0928016 4345429
-0.34079731 0.10683171 1.0958619 4016211
-0.33342895 0.10768994 1.0994349 3621193
-0.36022249 0.10912182 1.0897617 3884109
-0.35153368 0.1115116 1.0925853 3752784
-0.34171036 0.11302077 1.0957445 3621192
-0.33468184 0.11304568 1.0979754 3686459
-0.36576691 0.064728111 1.1008604 4673626
-0.3571223 0.065130077 1.1006336 4870741
-0.34837922 0.065356486 1.1036078 5265754
-0.33908737 0.06757658 1.1068985 5397604
-0.33235937 0.071494512 1.112249 4608350
-0.36687952 0.073592916 1.0966309 4673629
-0.35811204 0.073393553 1.0971334 4870744
-0.34981987 0.073129803 1.0994074 5134174
-0.33870098 0.076951884 1.1037265 5397606
-0.33227837 0.0788702 1.1101902 4476760
-0.32765657 0.083755463 1.1140826 4015442
-0.37602785 0.080597572 1.0986458 3883351
-0.37117994 0.081274942 1.0947454 4475995
-0.3386192 0.083555959 1.1032518 5068641
-0.33109379 0.088037789 1.1079187 4082513
-0.32700068 0.089950889 1.1139383 3752531
-0.37346551 0.091002539 1.0930315 4079443
-0.33043167 0.097355127 1.1078081 3621705
-0.32675415 0.095613226 1.1121801 3751503
-0.3326315 0.10464685 1.1057388 3490378
-0.35566807 0.048086256 1.1157459 5002588
-0.35265374 0.048549347 1.1167153 5528419
-0.36711648 0.056038156 1.1123345 4739163
-0.35897455 0.054324068 1.1117802 5002333
-0.34996548 0.055397589 1.1146104 5397092
-0.34199402 0.058701705 1.1186562 5332066
-0.33697373 0.060669057 1.1220281 4740695
-0.36745384 0.059907608 1.1068252 4082256
-0.36020666 0.059819486 1.1072857 5068120
-0.33930492 0.06360732 1.1161226 5200736
-0.33270341 0.068065211 1.1205835 4345175
-0.32699353 0.070941642 1.1248811 4278096
-0.3305673 0.077924907 1.1180942 4147028
-0.32719517 0.078048788 1.123454 3819087
-0.32734209 0.0855648 1.1196901 3687502
-0.35048223 0.037038453 1.1286286 5528423
-0.3465023 0.038194679 1.1299236 5397348
-0.35973424 0.04346877 1.1202743 4804702
-0.35059443 0.044654079 1.1225991 5462626
-0.34260696 0.046580702 1.1278948 5003105
-0.33578545 0.051240999 1.1311686 4804440
-0.37024042 0.052063927 1.1185791 3817824
-0.36286327 0.049331527 1.1166459 4673622
-0.34775147 0.051653188 1.1215057 5660265
-0.34101793 0.054261293 1.1237149 5069150
-0.33352134 0.058299195 1.1283052 4475986
-0.32901949 0.063329823 1.1298738 4014924
-0.33117807 0.065018013 1.1271367 4606547
-0.32628146 0.068241425 1.1293049 3620428
-0.35777077 0.029151352 1.1334428 4079956
-0.3507151 0.029192828 1.133284 5266270
-0.34595126 0.030419052 1.1372286 5002845
-0.36077705 0.034890804 1.1305497 4079963
-0.35262164 0.033476863 1.1309991 5330781
-0.34352806 0.037154403 1.1357156 5002331
-0.34079769 0.0435961 1.1350327 5001816
-0.33764333 0.046988949 1.1373874 4540755
-0.33407751 0.054460667 1.1374674 4213074
-0.35417622 0.019164616 1.1468996 5265766
-0.3551853 0.02348185 1.143701 5068639
-0.34708187 0.026392825 1.1458535 4214103
-0.36224934 0.028643215 1.1362057 1580089
-0.3427586 0.033502504 1.1432252 4145996
-0.34082142 0.039636407 1.143311 4212054
-0.36098152 0.017114375 1.1478316 3618132
-0.35564944 0.016822787 1.1495154 5199718
-0.3496035 0.018862406 1.1514906 4214875
-0.34716296 -0.041026089 1.1673905 528927
-0.34224138 -0.04094569 1.1689544 1517876
-0.34525597 -0.051184427 1.180307 4419983
-0.35989499 -0.04656982 1.1736912 1651559
-0.35392544 -0.04493805 1.1723324 1782104
-0.34151658 -0.045615118 1.1740396 4154236
-0.33831102 -0.041600812 1.1791791 3028033
-0.35374653 -0.037698265 1.1779882 2369321
-0.34527728 -0.036571566 1.1769286 2040105
-0.35525563 -0.018598938 1.1738427 4146252
-0.36191705 -0.051663697 1.1834028 5077683
-0.35471606 -0.053195018 1.1842458 4617364
-0.34578171 -0.052204225 1.1871084 4549258
-0.34077185 -0.046034399 1.1860712 6582660
-0.36335078 -0.040370524 1.1790642 7695014
-0.35684782 -0.03557599 1.1819607 2040625
-0.34919238 -0.033172332 1.1837572 2172202
-0.34208935 -0.037104081 1.1859016 2760198
-0.35741526 -0.062698647 1.1929202 4683677
-0.35204607 -0.061873768 1.1946468 3831442
-0.36526102 -0.056956142 1.189391 3299734
-0.3578746 -0.058082636 1.1902314 4683420
-0.3500123 -0.057363253 1.1937386 3960460
-0.35721385 -0.13608117 1.2045854 3829135
-0.34962645 -0.13442807 1.207039 4223637
-0.34369645 -0.13397117 1.2089334 3960467
-0.35935059 -0.12692267 1.2041622 3498881
-0.35135946 -0.12523989 1.2063251 3895695
-0.34427804 -0.12279738 1.2090598 3631246
-0.35996988 -0.11576143 1.2011279 3499128
-0.35302675 -0.11550609 1.2033381 4025235
-0.34543484 -0.11333696 1.2077566 3499655
-0.3601616 -0.10634255 1.1992302 3826560
-0.35395825 -0.10542531 1.2017488 4156303
-0.34712946 -0.10488243 1.2065547 3630985
-0.36223015 -0.096975528 1.201983 3893387
-0.35559103 -0.095668636 1.2024935 4157333
-0.34936085 -0.094160415 1.2066697 3762828
-0.36247244 -0.088396996 1.2042439 3762325
-0.35637084 -0.084935427 1.2024282 4420507
-0.35119614 -0.084263481 1.2065377 3828877
-0.36557582 -0.074885674 1.2036351 4222878
-0.35741606 -0.075565279 1.2022873 4552347
-0.35240936 -0.075158536 1.2069659 3631755
-0.36668563 -0.067162968 1.1976207 3627913
-0.35766682 -0.067552529 1.1983026 4683676
-0.35199761 -0.065320559 1.2032486 3892613
-0.3512643 -0.05729188 1.2002699 3563127
-0.35893399 -0.14619188 1.2094556 3033484
-0.35166562 -0.14603065 1.2142799 2897991
-0.34214562 -0.14376576 1.2168493 3891064
-0.33564985 -0.1419718 1.2207097 2638186
-0.36362329 -0.13774391 1.2067034 666715
-0.35302696 -0.13838822 1.2100478 4813457
-0.34066039 -0.13350601 1.2141078 3499654
-0.33503389 -0.13245039 1.2197891 3561592
-0.36590865 -0.12656681 1.2062893 6722
-0.34217605 -0.12409027 1.2138889 3694979
-0.33662957 -0.12294338 1.2177799 3233144
-0.34220937 -0.11356962 1.2141712 3104639
-0.33876222 -0.11296593 1.2186211 2640231
-0.34428003 -0.1040637 1.2137786 2907007
-0.34153056 -0.10367712 1.2194324 3099492
-0.36719668 -0.095187426 1.2067538 4089741
-0.3461622 -0.094650157 1.2138182 3496061
-0.34366715 -0.093042202 1.2195274 4278874
-0.36619949 -0.086847521 1.2073025 2972810
-0.34859946 -0.084535226 1.2143826 3757171
-0.34594661 -0.085171983 1.2190231 3748927
-0.36595398 -0.080962166 1.2075441 3630740
-0.3486973 -0.077141456 1.2131263 3953004
-0.35292095 -0.15243573 1.219136 984897
-0.34361303 -0.14707841 1.2222387 4350584
-0.33761638 -0.12186247 1.2255429 4674411
-0.33962351 -0.11350684 1.2275875 6974583
-0.34289315 -0.10278931 1.2268482 3815753
-0.37348795 -0.096685544 1.2141614 5799072
-0.34259748 -0.093117975 1.2240627 5064001
-0.34036678 -0.12808658 1.2374409 7039097
-0.3417716 -0.12243099 1.238202 7565430
-0.34358886 -0.11394824 1.2375116 8223350
-0.3436498 -0.10568858 1.2328246 9076613
