# .PCD v0.7 - Point Cloud Data file format
VERSION 0.7
FIELDS x y z rgba
SIZE 4 4 4 4
TYPE F F F U
COUNT 1 1 1 1
WIDTH 1125
HEIGHT 1
VIEWPOINT 0 0 0 1 0 0 0
POINTS 1125
DATA ascii
0.0048097242 -0.22709522 1.1503129 2120102
0.016853578 -0.22738394 1.1502271 2185635
0.030018324 -0.22660449 1.1500998 2186146
0.035466805 -0.22783014 1.1500944 2316696
0.050847344 -0.22600874 1.1499177 4486314
0.058399267 -0.22585642 1.1478527 5997746
0.069622345 -0.22314006 1.1485391 6063288
0.078334123 -0.22184952 1.1495745 6589614
0.086431146 -0.22226262 1.1495235 8757678
-0.06772171 -0.20770684 1.1422862 1855898
-0.061036192 -0.21027581 1.1455519 2249885
-0.053378068 -0.21264501 1.1496007 2381985
-0.045295537 -0.21494377 1.1503352 3039902
0.072444767 -0.21612367 1.1494458 2841504
0.078479692 -0.21572083 1.1493859 3302564
0.088086411 -0.213737 1.1479157 4420011
0.097872116 -0.21327329 1.1434414 6984117
0.10735605 -0.21081632 1.141005 6254993
-0.078609288 -0.19690317 1.1428418 2710418
-0.070934512 -0.20024046 1.1464663 2775447
-0.064243622 -0.20254305 1.1493045 2906776
0.090728514 -0.20588006 1.1485885 3171492
0.099247716 -0.20479691 1.145687 3237285
0.107578 -0.20391259 1.1413639 3629215
-0.081299648 -0.18976802 1.1466467 2775191
-0.073228277 -0.19337475 1.1492282 2906012
0.10143533 -0.19559857 1.1469227 3040421
0.10839076 -0.19418675 1.1434371 3105703
0.11426693 -0.19467074 1.1404569 2777257
-0.096329644 -0.17548594 1.1415257 2710677
-0.089629382 -0.17942211 1.1451246 2709909
-0.083479643 -0.18310142 1.1476606 2709910
0.10976929 -0.18573195 1.1467485 3368100
0.11735894 -0.18421428 1.1422472 3302561
-0.097377837 -0.16882202 1.1444428 2710421
-0.092629589 -0.17166172 1.1485833 2644886
0.11202261 -0.17797968 1.1479682 3040936
0.12012063 -0.17513958 1.1457297 3237031
0.12656978 -0.17248327 1.1426833 3368615
-0.10673778 -0.15566294 1.1410013 2776209
-0.10137638 -0.16012597 1.145848 2841240
0.12237062 -0.16664469 1.1475402 3237287
0.12883788 -0.16473177 1.1422855 3302822
-0.10754459 -0.14885297 1.1453351 2710683
-0.10290632 -0.15216988 1.1482015 2841499
0.13131995 -0.15629697 1.1445639 3237541
0.1363253 -0.1538197 1.1406351 3237798
-0.10946497 -0.14023405 1.1456964 2907293
0.13323283 -0.14749864 1.1468694 3237797
0.13798645 -0.14522348 1.1417599 3303334
-0.11552509 -0.12851655 1.1413838 2907805
-0.11331802 -0.13001913 1.1474725 2907805
0.14006886 -0.13583332 1.1440132 3434407
-0.11579115 -0.1191577 1.1426243 3039392
-0.11315928 -0.120239 1.1479727 3039391
0.14223824 -0.12631825 1.1435782 3500202
0.1464145 -0.12367183 1.1380332 3631274
-0.11870772 -0.10986442 1.1442306 3170979
0.14445014 -0.11604031 1.1453745 3631791
0.14780976 -0.11572974 1.139558 3566510
-0.1188568 -0.099476412 1.1450956 3105957
0.14388223 -0.10495216 1.1438171 3632305
0.1490465 -0.1063571 1.1378164 3501227
-0.11901819 -0.089518845 1.1425055 3237546
0.14363326 -0.09590365 1.1426631 3698099
0.14820057 -0.09654814 1.1375899 3698094
-0.11816195 -0.079785556 1.1424394 3434923
0.14509368 -0.086649619 1.1429144 3895479
0.14724055 -0.088894278 1.1369631 3895477
-0.11753001 -0.069326192 1.1427339 3566256
0.14563122 -0.075320899 1.1438978 4027579
0.14811191 -0.074907109 1.1405306 4157882
-0.11632998 -0.060469892 1.141697 3567024
0.14381443 -0.065756917 1.1431096 4159422
0.14810443 -0.066142537 1.1386619 4289724
-0.11379971 -0.050762851 1.1391832 3567791
-0.11060937 -0.048741706 1.1444323 3764403
0.14233172 -0.055731446 1.1413237 4356797
-0.10870423 -0.04004088 1.1380529 3830196
0.13988993 -0.046120532 1.1401151 4619718
-0.10695454 -0.02911137 1.1400437 3896507
0.13608637 -0.034123667 1.1402674 4817095
0.14057365 -0.034907468 1.1370322 4948420
-0.11433431 -0.019728877 1.1409063 6916535
-0.10686237 -0.020447642 1.1405617 5210049
0.13540836 -0.027652353 1.142187 5013440
0.13985947 -0.027413741 1.1398102 5998788
0.036839865 0.048645295 1.1364837 5859448
0.045022372 0.048469417 1.1345667 6122362
0.050607249 0.048556335 1.1375216 6319482
0.061777651 0.049678005 1.1414015 5330522
0.037515216 0.05302868 1.1348197 5792108
0.045354411 0.053669386 1.134205 5527648
0.050710872 0.052918755 1.1373874 5067354
-0.019037807 -0.22859392 1.1535475 4354997
-0.011689186 -0.22973588 1.1555258 4684224
-0.0017991066 -0.22972375 1.1539803 4289976
0.0092273355 -0.22770306 1.1532981 2054307
0.019642947 -0.22850168 1.1532407 2777510
0.025105648 -0.22973052 1.1532353 4026798
0.041571923 -0.23012525 1.1531179 5604271
0.045453146 -0.22857144 1.1530399 4881326
-0.0377675 -0.21779338 1.1533645 3039902
-0.02983808 -0.21888576 1.1538359 2710943
-0.021395 -0.22091064 1.1566372 2645152
-0.011561127 -0.22390062 1.1600153 2514339
-0.0016244426 -0.22405162 1.1594082 2514851
0.0083381655 -0.22183239 1.157728 2842787
0.018213674 -0.22171316 1.1554456 2908579
0.027895585 -0.22153533 1.1558532 3039651
0.038079008 -0.22244823 1.1569127 2908578
0.047445279 -0.2218087 1.1565694 2778020
0.057495646 -0.22045982 1.1541265 2646433
0.066993967 -0.2234154 1.1527129 5012145
0.078489959 -0.22497183 1.1526701 8955830
-0.050593056 -0.20905939 1.1534841 2841242
-0.040785946 -0.21130393 1.1555244 2775960
-0.031794928 -0.21273504 1.1574317 2841500
-0.022412023 -0.21501693 1.161163 2907551
0.0092927068 -0.21503995 1.1609144 3105184
0.01851286 -0.21489248 1.1608374 3170722
0.028461177 -0.21513095 1.1607665 3302053
0.038606845 -0.21482143 1.1606773 3170723
0.049129717 -0.21415241 1.1605741 3105188
0.058464542 -0.21363553 1.1587698 3170467
0.068043135 -0.21377504 1.1548111 3236258
0.078252167 -0.21063831 1.1526784 3171236
-0.06693767 -0.19733205 1.1529682 2906776
-0.060452938 -0.19968829 1.1541327 2907033
-0.051999725 -0.20076233 1.1577914 2841497
-0.042818129 -0.2049467 1.1610154 2775704
0.059595205 -0.20813872 1.160308 3105443
0.068438157 -0.2083507 1.1602449 3105443
0.079308234 -0.20493296 1.1587912 3105956
0.087712809 -0.20237277 1.1551082 3105956
-0.077654555 -0.18609622 1.1527088 2644884
-0.07064838 -0.18973967 1.1557666 2775705
-0.062326789 -0.19272918 1.1584606 2841497
0.083070382 -0.19764638 1.1598026 3172006
0.090774775 -0.19548002 1.1586753 3040421
0.096672401 -0.19334881 1.1560625 2974628
-0.08622808 -0.17710759 1.1525013 2645144
-0.07960508 -0.17894027 1.1555657 2710425
-0.074356064 -0.18174057 1.1571234 2776216
0.10034609 -0.18479091 1.1560221 3171493
0.10535194 -0.18277755 1.1527696 3237026
-0.089055382 -0.16894412 1.1548635 2710424
-0.082709096 -0.17118359 1.1588413 2710937
0.1034394 -0.1782355 1.1590489 3302823
0.10984111 -0.17440151 1.1557219 3172005
0.11570331 -0.17142779 1.1547424 3172006
-0.097476989 -0.15744184 1.1519884 2841498
-0.093104444 -0.15991536 1.1569552 2907290
0.11254479 -0.16739868 1.1586459 3303592
0.1188611 -0.16420949 1.1571648 3237544
0.12506156 -0.16021475 1.1503239 3303337
-0.099027447 -0.14889595 1.1534544 2973342
-0.094462521 -0.151934 1.1598003 3038879
0.12268133 -0.15651819 1.1575665 3237544
0.12707727 -0.15373415 1.1529112 3303336
-0.10678241 -0.13718095 1.1524425 2973342
-0.10075846 -0.14035103 1.1569943 2973600
0.1307117 -0.14466043 1.1538059 3368872
-0.10816304 -0.12924469 1.1535643 3039392
-0.10271103 -0.13002092 1.1591951 3236259
0.13225007 -0.135205 1.1552554 3500460
0.13669065 -0.13304622 1.1494017 3434923
-0.10902976 -0.1195662 1.1538113 3170978
0.13351074 -0.12627952 1.1558897 3500719
0.13823719 -0.12399532 1.1524477 3500718
-0.11534924 -0.10834023 1.1506274 3237029
-0.11152302 -0.10961767 1.1566395 3237286
0.13880694 -0.11506835 1.1549436 3697329
-0.11514074 -0.099562094 1.1503574 3237543
-0.11251324 -0.098959282 1.157822 3172263
0.14023715 -0.10600841 1.1541498 3697843
-0.1151912 -0.089833274 1.1530617 3303340
-0.11305188 -0.088658616 1.1580116 3303852
0.14026253 -0.095552847 1.1542301 3764149
-0.11504623 -0.080168277 1.1497636 3500716
-0.11223418 -0.078623347 1.1576982 3501229
0.14343958 -0.085238069 1.1524603 3764661
-0.11448918 -0.072130427 1.1495134 3566512
-0.11120341 -0.068653554 1.1537471 3632306
0.14070033 -0.074968845 1.1520669 3896764
-0.11037352 -0.059054453 1.153447 3698357
0.13497281 -0.064725354 1.153996 4291265
0.13873431 -0.066153973 1.1484835 4225217
-0.108552 -0.050103121 1.1527952 3764408
0.13597779 -0.055168562 1.1530288 4554434
0.1385411 -0.05514029 1.1470048 4488640
-0.10533664 -0.039445248 1.1532444 3895997
-0.1011157 -0.036248811 1.156315 4027323
0.13583468 -0.044400021 1.1517001 4817354
-0.10359493 -0.030061387 1.1494753 3962044
-0.099545002 -0.028773032 1.1552737 4093118
0.12682644 -0.031763405 1.154386 5014224
0.13212237 -0.034745097 1.1504337 4751563
-0.10226064 -0.019724779 1.1478148 4290235
-0.097341731 -0.019575104 1.1523072 4158908
-0.091080949 -0.017327197 1.1556575 4028609
0.12531614 -0.024744749 1.1524047 4817874
0.13196394 -0.024779841 1.1471286 5145287
-0.094817325 -0.013054453 1.1499535 4487616
-0.089341842 -0.010391839 1.1540978 4356800
0.11676002 -0.012033887 1.1518608 5276623
0.12299897 -0.015309066 1.1481959 5604813
0.13236025 -0.016793549 1.1467701 6720449
-0.087063968 -0.0034203753 1.1552007 5671109
0.1150446 -0.0063844249 1.1531309 5802961
0.12135975 -0.007430546 1.1490159 6787017
0.039367963 0.011236973 1.1537586 12972031
-0.015648523 0.022405803 1.1518486 5869264
0.016672391 0.018045582 1.1537288 7515376
0.024155587 0.017497674 1.1536868 8764660
0.033749521 0.016825512 1.1536319 10146554
0.040357232 0.015635289 1.1536163 10870005
-0.073208593 0.031911619 1.1460073 8028800
-0.068077065 0.032154568 1.1459596 7305855
-0.011216559 0.02350466 1.1537812 5671370
-0.0079004541 0.023425169 1.1537575 5869265
0.01531229 0.022868723 1.153592 6988787
0.019733764 0.022762723 1.1535605 7185904
0.10616247 0.029534958 1.1526741 6314850
-0.066738605 0.037123986 1.1457971 8028802
0.10315142 0.03314478 1.1525873 6117979
0.079386584 0.043990098 1.1444385 5593178
0.081582084 0.043937467 1.1444228 5658970
-0.016977461 -0.21798937 1.1652131 2973083
-0.011457907 -0.21923101 1.1652077 2973595
-0.0020163544 -0.2190066 1.1657937 2973598
-0.036679313 -0.20642392 1.1650144 2842012
-0.03033446 -0.20796266 1.1650115 2776219
-0.021042952 -0.21061857 1.1665443 2907806
-0.011470746 -0.21217683 1.1681516 2907807
-0.00092708319 -0.21296467 1.1682683 2973599
0.0079853479 -0.21092141 1.1654677 3039136
0.018754538 -0.21016908 1.1660271 3170723
0.028727744 -0.21030933 1.1652861 3236770
0.038529526 -0.21010412 1.1645358 3170979
0.047578648 -0.21010771 1.1644647 3170980
0.05427321 -0.20860422 1.1643661 3171236
-0.047560401 -0.19728851 1.1648206 2842012
-0.040895671 -0.19966877 1.1662962 2842011
-0.031330042 -0.20212561 1.1673036 2842012
-0.023066791 -0.20372561 1.1688268 2907805
0.023367316 -0.20623013 1.1685383 3302309
0.029396154 -0.20525327 1.1673177 3302308
0.038039371 -0.20538113 1.1658958 3171236
0.048779994 -0.20625389 1.1643374 3171236
0.059448555 -0.20508513 1.1658852 3105443
0.069308631 -0.20341954 1.1650898 3171492
0.075892858 -0.201727 1.1639858 3040420
-0.068371423 -0.18569648 1.1646297 2841497
-0.059658922 -0.18863764 1.1651847 2907291
-0.051275335 -0.19144741 1.1665545 2907549
-0.044613928 -0.19272713 1.1686598 2907551
0.072602913 -0.19627911 1.167847 3040420
0.079646394 -0.19466507 1.1658467 3106213
0.0875104 -0.19231746 1.1636068 3106214
-0.069704853 -0.17911741 1.1664399 2907290
-0.063176319 -0.18210664 1.1679808 2973340
0.083944164 -0.18764597 1.1674939 3302823
0.090025745 -0.18548106 1.1649787 3237030
0.096246183 -0.18221854 1.1650079 3237031
-0.086753428 -0.16528809 1.1641501 2841497
-0.078437127 -0.16895017 1.1647303 2842012
-0.072352678 -0.17125593 1.1672208 2907547
0.10160571 -0.17469016 1.1638805 3368361
0.10675848 -0.17159089 1.1628217 3237285
-0.088091873 -0.15933967 1.1639787 2973085
-0.081296913 -0.15964316 1.1666727 3039135
0.1040777 -0.16764402 1.162722 3368615
0.1106851 -0.16445026 1.1633 3237799
0.11532748 -0.16125779 1.1624383 3303337
-0.095179163 -0.14622772 1.1636335 2973857
-0.089823328 -0.14983766 1.165258 3039137
-0.083893597 -0.15078537 1.1676861 3104930
0.11286162 -0.15696461 1.1643274 3172264
0.11914082 -0.15426609 1.1628616 3238059
-0.096167684 -0.1379724 1.1643893 3039650
-0.09224955 -0.14156874 1.16747 3105700
0.1226216 -0.1445619 1.1640253 3369132
0.12681426 -0.14489338 1.1618476 3434410
-0.098714299 -0.12932777 1.1648597 3171236
0.12471376 -0.1364591 1.1648078 3500719
0.1281303 -0.13427418 1.1635135 3435183
-0.10558625 -0.11713596 1.1628257 3302823
-0.10096245 -0.11914405 1.1655188 3171495
0.12913027 -0.12420807 1.163016 3566514
-0.10711615 -0.10842075 1.1640265 3368873
-0.10345211 -0.10963124 1.165781 3368875
0.13205536 -0.11511798 1.1616963 3697588
-0.10779526 -0.099302538 1.1649656 3303850
0.13387105 -0.10548265 1.1640172 3763892
0.13708463 -0.10498226 1.1605464 3698099
-0.10890473 -0.089104898 1.1635954 3435181
-0.10304369 -0.08966089 1.1659675 3435438
0.13513517 -0.095370457 1.1642698 3829942
0.13797167 -0.09497758 1.161377 3764149
-0.10763621 -0.079451337 1.1636904 3501229
0.13545226 -0.082020536 1.163859 3896505
0.13976136 -0.085072994 1.1617357 3830455
-0.1068077 -0.069626048 1.1629217 3632563
-0.10248878 -0.066298537 1.1652488 3567542
0.13324338 -0.074889347 1.1610857 4027837
0.13837689 -0.078611471 1.1597298 3896505
-0.10581178 -0.059599373 1.162402 3829940
-0.10233023 -0.059623573 1.1650434 3699127
0.13198014 -0.065209031 1.1620383 4291009
-0.10515682 -0.04949211 1.1615542 3895737
-0.10143376 -0.048672814 1.1647015 4027576
0.13250928 -0.05520504 1.1610612 4422849
-0.10382187 -0.042853955 1.1605403 4158911
-0.099231958 -0.039203931 1.1623936 4093372
0.13268043 -0.045481801 1.1602623 4817355
-0.095265135 -0.029915735 1.1616167 4093630
-0.09040764 -0.026515573 1.1639372 4094397
0.12549064 -0.034541272 1.1607069 5080014
0.12991008 -0.0379184 1.1585521 4883149
-0.092977986 -0.022406638 1.1598299 4028348
-0.088401027 -0.019913234 1.1612183 4028864
0.12122516 -0.024810672 1.1599982 4949202
-0.084609143 -0.010403231 1.161216 4029123
-0.080321364 -0.0082052499 1.163298 3963586
0.11538291 -0.014780134 1.1606266 5146069
0.11869824 -0.019345894 1.1580722 5080276
-0.083630547 -0.0026629716 1.1591526 5342665
-0.076427795 -0.00056377798 1.1630337 4882633
-0.012898194 0.0016808137 1.1624657 6070261
-0.0062202811 0.0015207306 1.1624181 6528744
0.00045763142 0.0013606548 1.1623704 8827627
0.016039426 0.00098712742 1.1622595 10340848
0.024769209 0.00014178455 1.1622167 8895736
0.032257304 -0.00073739141 1.1621847 6266608
0.10663716 -0.001771979 1.1606312 5475287
0.11102124 -0.0054456145 1.1590415 5475028
-0.07282906 0.0052784085 1.1608258 5999306
-0.066143855 0.0062274635 1.1607443 5540557
-0.05750405 0.0093341619 1.1599144 5803727
-0.04472778 0.010854118 1.1624354 4950220
-0.035794392 0.0095156282 1.1624061 5016280
-0.026089186 0.0086596683 1.1619558 5411294
-0.016058838 0.0083490834 1.1600455 5806569
-0.0060597043 0.0081726238 1.1616131 7120874
0.0035487544 0.0087073967 1.1621215 12379901
0.014108205 0.0078523979 1.1595372 13891069
0.023910226 0.0073580891 1.1588012 12969723
0.033875175 0.0073834062 1.1596067 9946095
0.043941975 0.0069229379 1.1599447 10013177
0.053718582 0.00856141 1.1595768 7449069
0.060434476 0.01031208 1.1616253 5411552
0.10380764 0.002138041 1.1590331 6526426
-0.042631701 0.015751101 1.1622691 6264275
-0.035039648 0.016295642 1.1596916 5803990
-0.025461776 0.01664988 1.1581048 5345755
-0.015427487 0.017670915 1.1579946 5412839
-0.0058216918 0.018049017 1.1584078 5676266
0.0032101618 0.016983829 1.1607277 7253489
0.013021115 0.016510062 1.158807 8436213
0.022937179 0.014010578 1.1578051 12051453
0.037461814 0.018099681 1.1575658 10082302
0.045282446 0.017172664 1.1575327 10607102
0.053744942 0.016124614 1.1574982 7515119
0.060777567 0.015383437 1.1587995 6068200
-0.003472399 0.023518212 1.1577219 6001365
0.00096430723 0.023411855 1.1576903 6396124
0.11357181 0.026480921 1.1567112 6447199
-0.0078575443 -0.20830092 1.1728492 3039391
-0.00029096566 -0.20786414 1.1742771 3039135
0.01112795 -0.20875603 1.1727139 3104930
-0.036629036 -0.19644187 1.1727127 2776478
-0.030259663 -0.19742858 1.1746938 2842271
-0.020381177 -0.1992375 1.1768544 2907807
-0.011196584 -0.20130092 1.1773593 2908063
-0.0011919905 -0.2023564 1.1784179 2973600
0.0091459602 -0.20163625 1.1778477 3105187
0.019072801 -0.20155141 1.1768471 3236773
0.028801855 -0.20046636 1.1760566 3237029
0.039745022 -0.20081227 1.1760479 3171237
0.049353585 -0.20206289 1.1737095 3171236
0.058904156 -0.20075023 1.173017 3105444
0.067777924 -0.19950315 1.1719856 3171493
-0.048584208 -0.18718803 1.1757253 2841758
-0.040535018 -0.18966341 1.1765381 2907551
-0.031631075 -0.19089647 1.1793308 2842271
-0.020966878 -0.19230446 1.1804671 2908064
-0.014247108 -0.1935901 1.1804535 2973857
0.0071166903 -0.19410223 1.1803013 3105444
0.020008672 -0.19341166 1.1801789 3237030
0.030040149 -0.19409245 1.1793205 3302823
0.039716937 -0.19354692 1.1791046 3171495
0.049106285 -0.19237727 1.1785265 3105703
0.058805987 -0.19287479 1.1782566 3105703
0.068607405 -0.19267002 1.1762724 3105702
0.076976888 -0.19045231 1.1733516 3105958
-0.059690006 -0.17927273 1.1740168 2973598
-0.051703341 -0.18105099 1.1783636 2907551
-0.041842684 -0.18308875 1.1803493 2908065
0.070614219 -0.18420583 1.1794995 3237288
0.079430059 -0.18377873 1.1769716 3302823
0.088116869 -0.18203625 1.1738642 3237287
-0.068815202 -0.16775018 1.1749469 3105183
-0.061408535 -0.17120117 1.1782564 2974112
-0.053147644 -0.17354017 1.1801462 2842786
0.081101619 -0.1769833 1.1791962 3171750
0.089804403 -0.17362338 1.1776911 3172008
0.097876318 -0.1721949 1.1732484 3303081
-0.076725528 -0.15794681 1.1725178 3104930
-0.07050845 -0.16023219 1.1785418 3170978
0.092500962 -0.16530415 1.1787494 3303337
0.10029545 -0.1640406 1.1763984 3368873
0.10724131 -0.1629993 1.1731058 3237543
-0.086237513 -0.14487141 1.1741937 3040164
-0.079596587 -0.14875238 1.1753836 3105701
-0.073290221 -0.15319023 1.1796824 3302822
0.10209981 -0.15499558 1.1783588 3303597
0.1095245 -0.15288067 1.17387 3238059
0.11665586 -0.15004414 1.1720899 3303852
-0.088519461 -0.13844889 1.1751269 3106213
-0.080771506 -0.14054708 1.1793545 3172007
0.11067233 -0.14371201 1.1777463 3369387
0.11858453 -0.14377917 1.1738843 3435181
-0.09544719 -0.12812202 1.1724199 3237030
-0.08885771 -0.12882039 1.176725 3237800
-0.082545683 -0.13235155 1.1791178 3303594
0.11263595 -0.13770512 1.1777472 3500972
0.12111911 -0.13373066 1.1743073 3500976
0.12583318 -0.13108635 1.1694372 3500977
-0.096352607 -0.11878979 1.1739203 3237545
-0.091698475 -0.12044343 1.1779363 3303852
0.12315808 -0.12416284 1.1772504 3566772
0.12644029 -0.12469524 1.1732389 3566515
-0.098632678 -0.10902281 1.1737785 3369389
0.12424105 -0.11465687 1.1769513 3763639
0.12758757 -0.11395188 1.172012 3763639
-0.10510214 -0.095091574 1.1714858 3435181
-0.0997933 -0.098806188 1.1747973 3435438
0.1251467 -0.10359369 1.1766058 3895737
0.13009222 -0.10375139 1.1713927 3764149
-0.10443988 -0.088599145 1.1723492 3435438
-0.099052936 -0.08923474 1.1763899 3501231
0.12528019 -0.097974122 1.176433 3961530
0.13071147 -0.094283625 1.1710984 3961528
0.13795567 -0.091167264 1.1681211 3895735
-0.10393424 -0.07934282 1.1726625 3501489
-0.099639624 -0.079135068 1.1755062 3501490
0.12570731 -0.079991505 1.1758797 4159679
0.13126865 -0.084945783 1.1712579 3962041
0.1380087 -0.088934667 1.1680524 3895735
-0.10423675 -0.072026253 1.1714406 3501747
-0.099332862 -0.068872236 1.1739737 3567541
0.12510899 -0.073604695 1.1756891 4225473
0.12875813 -0.074317314 1.1716801 4159424
-0.097326711 -0.058803067 1.1725827 3764919
0.12506972 -0.064732283 1.175418 4422597
0.12899758 -0.064236343 1.17137 4357059
-0.096603617 -0.049054883 1.1721075 3896505
-0.091814309 -0.048912406 1.1766392 3962298
0.12519692 -0.054114547 1.1750923 4685767
0.12923703 -0.054155387 1.1710598 4422851
-0.094940595 -0.04002662 1.1699889 4027836
-0.089844421 -0.038221411 1.1752053 4028094
0.12355728 -0.04354855 1.1726635 4948684
0.12937114 -0.045733869 1.1677998 4751818
-0.093064725 -0.032016389 1.1681284 4093632
-0.087366939 -0.028524011 1.1738259 4094399
0.11707475 -0.032928184 1.1745083 5080784
0.12132324 -0.034244604 1.1697128 5211343
-0.083930679 -0.020210892 1.1720613 4094402
-0.077310815 -0.017225191 1.1745558 4226244
-0.070774049 -0.015680179 1.1754576 4620744
-0.016775651 -0.01585006 1.1750383 5412064
0.0057125604 -0.016389139 1.174878 6463211
0.013690778 -0.020417117 1.1749384 6397929
0.023390535 -0.020009011 1.1748497 6397929
0.032667901 -0.018320516 1.1747252 6003432
0.11427219 -0.023660518 1.1717458 5081042
0.11936472 -0.027056269 1.1663069 5081041
-0.075806193 -0.0096085593 1.169175 4160963
-0.067668147 -0.0087052956 1.1743623 4752075
-0.052543223 -0.0059962198 1.1750182 4949201
-0.045810103 -0.0067199096 1.1749873 5016022
-0.036263481 -0.0080887377 1.1742872 5213659
-0.026461711 -0.0092450306 1.1736811 5411552
-0.016633844 -0.010249197 1.1740655 5740773
-0.0065224804 -0.01047308 1.1747932 6003172
0.0035930034 -0.010724835 1.1743213 6331366
0.013668312 -0.011020772 1.1716498 6989552
0.023770293 -0.011254832 1.1719778 6792432
0.033848688 -0.011508882 1.1712559 5937640
0.042373531 -0.010729313 1.1734163 5806054
0.053124666 -0.009653829 1.1742994 5674725
0.059897825 -0.0086916313 1.1742167 5674983
0.1056575 -0.01231882 1.173968 5146841
0.11157996 -0.014698192 1.1682769 5080789
-0.072220013 -0.0012418702 1.1670234 4554184
-0.068731003 -0.00040697306 1.1699719 4751049
-0.053452745 -0.0004131645 1.1728536 4818129
-0.046018451 -0.00061368942 1.1720009 5015507
-0.036507249 -0.00093252957 1.1685342 5147609
-0.026412515 -0.0012100413 1.1671627 5346018
-0.016763235 -0.001743257 1.1697155 5937898
-0.006333163 -0.0027327538 1.1698861 6462952
0.0041308384 -0.0022633374 1.1689001 8303605
0.013491633 -0.0026219711 1.1678212 8501495
0.023316525 -0.0038603097 1.1669682 7252467
0.034641609 -0.0035633519 1.1677097 6069484
0.043819837 -0.0026694536 1.1684718 6135528
0.05394426 -0.003200613 1.171506 5741031
0.063348137 -0.0031813681 1.1730206 5543655
0.072863087 -0.0020820946 1.1739126 5477092
0.082956612 -0.00099765509 1.1738001 5739747
0.094319709 -0.0015199631 1.1737268 5280481
0.10344607 -0.0044770762 1.1700513 5015513
0.10886848 -0.00664974 1.1677663 4949463
-0.065360166 0.0052953064 1.1667696 4818122
-0.055905886 0.0060614869 1.1666719 5147606
-0.047202043 0.0065974668 1.1665871 4818639
-0.03855712 0.0046527907 1.1665785 5344472
0.0061278893 0.004140079 1.166243 12971007
0.010581807 0.0034748316 1.1662283 12905215
0.035151266 0.0028858632 1.1660532 5807584
0.048552796 0.0025646016 1.1659577 6004710
0.054638118 0.0033761114 1.165885 5807083
0.063502915 0.0057047158 1.1678785 5477863
0.072013952 0.005143255 1.1703633 5542628
0.083777405 0.001981467 1.1737026 5673698
0.09437786 0.0036396757 1.1720678 5804766
0.099925302 0.0013331175 1.1655915 5147865
0.066686645 0.013299264 1.1654869 5412324
-0.0075613726 -0.19654679 1.1844934 3039650
-0.0011297148 -0.19734576 1.1844673 3039650
-0.027681807 -0.18816596 1.1843953 2842271
-0.020912496 -0.18832824 1.184347 2973857
-0.010606386 -0.18962771 1.1855695 2973857
-0.00088893622 -0.19157435 1.1868165 3039395
0.0098077357 -0.18991953 1.1859329 3171237
0.019139376 -0.18874714 1.1851122 3237030
0.029498722 -0.18843061 1.1854931 3302569
0.037830293 -0.18877779 1.185233 3237546
-0.047096319 -0.17722292 1.1842133 2908065
-0.039544098 -0.17837113 1.184189 2973857
-0.030898696 -0.18031114 1.1851809 2973857
-0.021191558 -0.18241027 1.1862869 2973858
-0.012906326 -0.18337998 1.1881347 3105444
0.018790431 -0.18413979 1.1879088 3237030
0.030523878 -0.1829115 1.1877789 3302825
0.03946124 -0.18268016 1.1873938 3171754
0.049289994 -0.18348603 1.1856481 3171752
0.059635945 -0.18332873 1.1849735 3171753
0.068141907 -0.1804281 1.1844059 3237546
0.07640896 -0.17824921 1.1832738 3303592
-0.058046572 -0.16750365 1.1840022 2908579
-0.049891099 -0.16980727 1.1860094 2908579
-0.040087163 -0.17148404 1.1868932 3105444
-0.031472214 -0.17342469 1.1879762 3105443
0.063154489 -0.17614593 1.1873156 3303339
0.071228966 -0.17410742 1.1858559 3303082
0.079656772 -0.17226574 1.183637 3237545
0.085649006 -0.16944382 1.1829319 3303850
-0.066804461 -0.15601011 1.1837195 3302822
-0.06027852 -0.16040213 1.1860536 3040165
-0.053229257 -0.16429862 1.1878682 3040167
0.074689776 -0.16736507 1.1869564 3303598
0.080838054 -0.16354696 1.1858497 3238061
0.089433797 -0.16175079 1.1837785 3303596
0.097172268 -0.15956479 1.1825392 3369131
-0.076332338 -0.14525032 1.1834654 3171751
-0.069983833 -0.14899158 1.1849424 3368615
-0.063148744 -0.15273912 1.1875927 3171751
0.099154294 -0.15299216 1.1838233 3369134
-0.078139313 -0.13815473 1.1832626 3369130
-0.0720452 -0.14016828 1.1862777 3434922
0.10052143 -0.14331359 1.185065 3435183
-0.07964953 -0.12948051 1.1843432 3434923
0.10344244 -0.13628522 1.1849796 3501232
0.11027047 -0.13333578 1.1842237 3435694
0.11702164 -0.13183156 1.1815351 3501232
-0.087607786 -0.11815821 1.1837261 3369646
-0.081966996 -0.12199561 1.1854665 3435182
0.11422689 -0.12415818 1.1853244 3567282
0.11832661 -0.12378903 1.183098 3567027
-0.09570276 -0.1052933 1.1823958 3501231
-0.091190882 -0.10924687 1.1852325 3435439
0.11441503 -0.11623749 1.1850806 3829686
0.11957078 -0.11360347 1.183181 3829431
-0.095622413 -0.10191014 1.1822917 3501231
-0.091147102 -0.098726451 1.1838267 3567024
0.12210368 -0.10427205 1.1833204 3830201
-0.095287584 -0.087813646 1.1818581 3632818
-0.092060447 -0.088549845 1.1838561 3698612
0.12446728 -0.093740389 1.1823127 3896507
-0.095059894 -0.078228027 1.1815631 3633333
-0.091198809 -0.078430243 1.1843404 3764919
0.12454122 -0.083550863 1.1815003 4093886
-0.095302261 -0.069420986 1.1812958 3633334
-0.091218315 -0.06848713 1.1844366 3830201
0.12177251 -0.073839195 1.1819477 4291523
-0.090562604 -0.058249723 1.1825843 3896506
0.12152697 -0.063369736 1.181007 4619975
-0.087056346 -0.048782993 1.1823149 4028348
0.11594699 -0.051740475 1.1830964 5146320
0.1203136 -0.054096442 1.1821337 4883148
-0.085126817 -0.039459687 1.1805854 3962814
-0.080095232 -0.038142432 1.1830782 3963072
0.11515288 -0.042941827 1.1813328 5146577
0.11886082 -0.044714306 1.1793569 5080527
-0.083539195 -0.030435964 1.1800112 4028607
-0.07730411 -0.028773353 1.1820456 4291526
-0.02733667 -0.027926639 1.1834946 5147865
-0.019859916 -0.027879439 1.1834342 5344731
-0.0035372265 -0.027364984 1.1832902 5345501
0.0032549351 -0.027527802 1.1832418 5739743
0.013368308 -0.030042574 1.1819053 5936862
0.022423139 -0.030257635 1.1821742 5871068
0.03266076 -0.029364876 1.1830668 5739228
0.05080007 -0.028667547 1.1829029 5213656
0.11348706 -0.034024656 1.1809732 4949970
-0.075366952 -0.021435715 1.1796716 4422856
-0.066809773 -0.016823329 1.1812824 4686797
-0.056414671 -0.015938915 1.1813556 4884690
-0.04604385 -0.017579466 1.182825 4950486
-0.035616115 -0.018613979 1.1819408 5213659
-0.02709155 -0.020047076 1.1800501 5279707
-0.01695762 -0.021414824 1.1804124 5345244
-0.0067574829 -0.020030066 1.1802009 5411808
0.003070917 -0.021385483 1.1799631 5806052
0.012323039 -0.024760194 1.1790839 6068964
0.024348442 -0.025424585 1.1790098 6068963
0.034446135 -0.023257963 1.1797876 6003173
0.042948 -0.021716617 1.1805511 5608417
0.053149804 -0.021952011 1.1810783 5411038
0.060017541 -0.022095472 1.1826296 5279709
0.10473034 -0.021439254 1.1813345 5212630
0.11027575 -0.025215887 1.1796619 5015248
-0.062990837 -0.01129505 1.1792643 4949712
-0.056221522 -0.011457324 1.179216 4949713
-0.046067551 -0.011700734 1.1791437 5016279
-0.036674656 -0.012302004 1.1790882 5213659
-0.028042829 -0.013261162 1.1790497 5345501
0.044740669 -0.014441736 1.1785136 5871590
0.053215705 -0.014080726 1.1784359 5871847
0.063538477 -0.012034439 1.1802932 5543139
0.070850827 -0.011072025 1.1804922 5280225
0.095379159 -0.011621453 1.1820313 5411294
0.10118549 -0.013252154 1.1794888 5279196
0.073160425 -0.0060961172 1.178035 5411556
0.082790472 -0.0046344176 1.1779146 5412066
0.094072662 -0.0049048737 1.1778342 5477344
0.10078839 -0.0073225945 1.1778554 5213404
0.0002568718 -0.18684778 1.1921394 3105189
-0.019899009 -0.1778698 1.1930237 3039906
-0.010248281 -0.18022209 1.1934485 3039908
-0.00072921626 -0.18155256 1.1953201 3105447
0.0098749176 -0.18110956 1.1926386 3105702
0.018979643 -0.18010205 1.1917859 3171750
0.027972873 -0.17990455 1.1917092 3237289
0.039478607 -0.1783215 1.1915703 3237548
0.049701132 -0.17856655 1.1914974 3171752
0.058787815 -0.17878437 1.1914327 3171752
-0.047278278 -0.16579077 1.1918691 3039909
-0.039441459 -0.16668242 1.1927241 3105701
-0.03133741 -0.16947508 1.1944032 3105443
-0.021857599 -0.17505036 1.1959543 3040163
0.0089344261 -0.17487668 1.195707 3105960
0.02035732 -0.17403603 1.1955916 3105958
0.029481968 -0.17276822 1.1946807 3237545
0.039893635 -0.17199066 1.1934798 3237547
0.049937144 -0.1719341 1.1928935 3237544
0.060004339 -0.17194566 1.192899 3237545
0.068693459 -0.1701974 1.1917592 3303339
-0.058299221 -0.15609793 1.1916593 3172009
-0.049935348 -0.15938833 1.1940954 3105961
-0.040642239 -0.16177745 1.1956961 3171752
0.043372661 -0.16521618 1.1951408 3303337
0.050210528 -0.16538009 1.1950922 3303593
0.060327709 -0.16464566 1.1949902 3303594
0.069584683 -0.16229171 1.1935948 3303596
0.076419078 -0.16103134 1.1907512 3238062
-0.065479904 -0.14740595 1.19145 3434409
-0.059759736 -0.1492189 1.1942854 3237547
-0.051470123 -0.15175198 1.1954747 3237805
0.070729412 -0.15498064 1.1946129 3238318
0.080084465 -0.15230691 1.193337 3238572
0.090197563 -0.15238658 1.1915791 3434926
0.09670122 -0.15197532 1.1903149 3369134
-0.06759607 -0.13828689 1.1924192 3435179
-0.061683685 -0.14036724 1.1947622 3369388
0.084886871 -0.14569515 1.1942176 3500977
0.090583153 -0.14232405 1.1930692 3435186
0.096015476 -0.1425681 1.1900326 3500720
-0.075855978 -0.12735538 1.191919 3566511
-0.070210479 -0.130318 1.1936326 3566767
-0.063050345 -0.1330305 1.1949933 3500977
0.092231847 -0.13471651 1.193324 3501234
0.10015491 -0.13254967 1.190444 3501490
-0.085142903 -0.11399119 1.1905828 3566770
-0.078472875 -0.11865371 1.1932741 3632306
-0.071951039 -0.12369882 1.1947778 3632563
0.10217623 -0.12387893 1.1920022 3699127
0.10963172 -0.12283584 1.189793 3633076
-0.086210601 -0.10834731 1.1914191 3566770
-0.080205038 -0.10929745 1.1944023 3763892
0.10329542 -0.11479223 1.1931279 3633335
0.11000353 -0.11283418 1.1905696 3764407
-0.086088963 -0.098216362 1.1929092 3698868
-0.081751242 -0.098895133 1.1940964 3699126
0.10414936 -0.10284492 1.1927558 3962811
0.11067588 -0.10312565 1.191546 3830969
0.1183715 -0.10361521 1.1886656 3830714
-0.087040655 -0.088297009 1.1907355 3699126
-0.081766985 -0.088889949 1.1937906 3830712
0.11161507 -0.093192175 1.1918017 4028606
0.1197462 -0.093586624 1.1883482 3962300
-0.086230107 -0.078811772 1.1911163 3830970
-0.08130382 -0.078534402 1.1934702 3962813
0.11210643 -0.084128596 1.192121 4291522
0.11996716 -0.084016226 1.1884177 4094399
-0.086291648 -0.068739586 1.1909232 3962044
-0.081405237 -0.069088012 1.1931822 4093630
0.11394288 -0.073438153 1.1915128 4554438
0.11874042 -0.074413136 1.1877698 4357059
-0.085432641 -0.058729991 1.1902292 4093886
-0.08081679 -0.058029879 1.1928395 4291009
0.11235624 -0.062876552 1.1905799 4686026
0.11835718 -0.063206434 1.1874301 4685769
-0.083659716 -0.051547863 1.1886617 4159935
-0.078578331 -0.049113691 1.1914058 4225985
0.10533988 -0.052722771 1.1912138 5015248
0.11137418 -0.054223582 1.1885443 5014991
-0.075335912 -0.039397664 1.1903434 4292037
-0.070002913 -0.041680764 1.1922545 4619977
-0.04704769 -0.035392314 1.1918818 5279449
-0.039070189 -0.035583552 1.1918249 5016538
-0.026561162 -0.037023202 1.1917706 4950743
-0.017081564 -0.038926609 1.1917542 4950488
-0.0079830606 -0.03898827 1.1916846 5147351
0.0024862224 -0.038289413 1.191581 5278422
0.012990048 -0.040882662 1.1906884 5212886
0.022347992 -0.040470947 1.1897407 5278423
0.032341771 -0.039857917 1.1901436 5147094
0.04324019 -0.040487558 1.1913278 4885460
0.05275441 -0.039234206 1.1904871 4950741
0.061880596 -0.038915351 1.1911333 5016279
0.10407332 -0.042883772 1.1895223 5212370
0.11141922 -0.044296455 1.1869065 5212369
-0.073090166 -0.032489017 1.1899967 4423370
-0.070944794 -0.02935829 1.1894839 4554187
-0.046464056 -0.030392833 1.1914575 5147610
-0.036604881 -0.029953316 1.1896324 5081818
-0.02755552 -0.032444574 1.1896374 5016538
-0.01637282 -0.03127218 1.1896471 5278938
-0.0072549824 -0.030884385 1.1895635 5344730
0.003182739 -0.0320457 1.1884499 5673948
0.013344729 -0.034561567 1.1873797 5805277
0.022431413 -0.034779396 1.1873149 5541848
0.032680899 -0.0338891 1.1872071 5475544
0.042957343 -0.031863496 1.1870644 5213397
0.053599738 -0.032719828 1.1877131 5082070
0.063319713 -0.032119185 1.1893133 5016536
0.072319746 -0.030112401 1.190782 5213915
0.08308816 -0.029393591 1.1906754 5279453
0.094017901 -0.030111507 1.1906114 5213659
0.10337044 -0.033304162 1.1890347 5212628
0.10997164 -0.033469953 1.1865867 5146833
-0.070491351 -0.023464032 1.1876993 4554443
-0.045232661 -0.022251964 1.1874638 5016281
-0.037984885 -0.023334481 1.1874399 5147611
-0.006884573 -0.0249888 1.187246 5411294
0.064023703 -0.02214469 1.1866016 5148123
0.072745033 -0.022352174 1.1867394 5213915
0.082784653 -0.022775255 1.1882133 5213917
0.093543932 -0.022949614 1.188711 5213659
0.10149042 -0.02493348 1.1867259 5212887
0.09447445 -0.01605875 1.1861762 5279708
0.099017791 -0.016167663 1.1861438 5411037
-0.016204378 -0.17577484 1.2009345 3106213
-0.010482354 -0.17591201 1.2008938 3105959
0.00078267325 -0.17683607 1.2008336 3105706
0.011261325 -0.17643324 1.2007388 3105960
-0.026913194 -0.16865084 1.2008009 3105700
-0.019509772 -0.17005548 1.2015361 3105957
-0.010349784 -0.17027506 1.2014707 3106216
-3.8528815e-005 -0.17061704 1.2022506 3106217
0.010610878 -0.17036232 1.2019876 3171752
0.018515445 -0.17006813 1.2015786 3303337
0.029789155 -0.16772097 1.2003268 3369130
0.036655575 -0.16788559 1.2002778 3369132
-0.039243042 -0.15713409 1.2008792 3171753
-0.029609835 -0.15970691 1.20327 3171752
-0.019310566 -0.16017315 1.2052844 3172010
-0.010151016 -0.16164336 1.2062078 3172012
-9.9871308e-005 -0.1614449 1.2069185 3237802
0.010577472 -0.16101536 1.2062757 3303338
0.01977969 -0.16125798 1.2064109 3369133
0.030083731 -0.16132267 1.2046111 3369388
0.04021851 -0.16125058 1.2038383 3303853
0.049513407 -0.16035953 1.2016975 3369643
0.059625469 -0.1598421 1.2000867 3303851
-0.056696489 -0.14504589 1.2003132 3303598
-0.048643328 -0.14801508 1.2020558 3303341
-0.040095866 -0.14985953 1.2054753 3303340
-0.030765584 -0.1514394 1.2083089 3369132
-0.022641463 -0.15351951 1.2083086 3303600
0.010767141 -0.15432039 1.2080705 3303598
0.02343937 -0.15462416 1.2079802 3435186
0.030927505 -0.15480366 1.2079268 3369391
0.04071968 -0.1550384 1.207857 3369392
0.050594181 -0.15237823 1.2070824 3369390
0.060157441 -0.15164341 1.2033983 3435184
0.069549769 -0.15036133 1.1994834 3369392
-0.057476066 -0.13800007 1.2009043 3369646
-0.050364397 -0.14035052 1.2057227 3303853
-0.04315903 -0.14381033 1.208173 3173034
0.052732863 -0.14426556 1.2074331 3566773
0.060942203 -0.14317262 1.2066683 3566516
0.070772558 -0.14161159 1.2036084 3500977
0.080650002 -0.1425807 1.2008432 3500975
-0.067363307 -0.12582336 1.1998093 3632562
-0.058536962 -0.12902166 1.2028393 3501236
-0.050993629 -0.12924734 1.2073447 3501494
0.07324212 -0.13248663 1.2069117 3698612
0.080780119 -0.13307533 1.2045057 3567283
0.089676462 -0.13092591 1.2016656 3567283
0.097142734 -0.12813179 1.1985867 3501747
-0.0743277 -0.11600949 1.1995639 3895478
-0.068787761 -0.11860733 1.2021011 3698613
-0.059891663 -0.11965478 1.206232 3633080
0.074839413 -0.12589997 1.2066978 3699128
0.081472822 -0.12286836 1.2065529 3830713
0.090950735 -0.12274317 1.205274 3699126
0.097752661 -0.12173693 1.1983863 3633333
-0.075445406 -0.10797085 1.1993269 3961271
-0.068672076 -0.10844337 1.2042906 3896247
-0.061977543 -0.11109854 1.2073207 3764921
0.08153142 -0.1159213 1.2063401 3962300
0.092447393 -0.11368521 1.2057151 3896506
0.099988744 -0.11213522 1.2000762 3764920
-0.076574676 -0.098581284 1.2005494 3830712
-0.069667377 -0.098168373 1.2056518 4093627
0.09567295 -0.10289516 1.2058306 4028352
0.10103763 -0.1025776 1.2004427 3962812
-0.076725841 -0.088247739 1.2007349 3962556
-0.070274718 -0.089370646 1.2062768 4028606
0.095393255 -0.092486039 1.2055144 4357317
0.10176743 -0.092948548 1.2014765 4225985
0.10722175 -0.089458711 1.1973249 4225985
-0.076020487 -0.079257607 1.2004544 4028606
-0.071214125 -0.079384558 1.2064235 4094655
0.096110575 -0.08447098 1.2052637 4554695
0.10195969 -0.082592294 1.2005579 4554182
0.10818394 -0.081088409 1.1970613 4619462
-0.076461941 -0.068642497 1.198603 4159424
-0.068416804 -0.067658789 1.2048116 4160448
-0.062062874 -0.066161983 1.2059472 4554440
0.096888646 -0.071124494 1.2048495 4620747
0.10241701 -0.072342694 1.2025921 4686026
0.10874657 -0.073471576 1.196824 4619977
-0.075616375 -0.059015248 1.1978312 4291265
-0.067514263 -0.05905956 1.2030215 4357573
-0.06189876 -0.05925291 1.2057346 4751563
0.012278397 -0.058342677 1.2051237 4818903
0.019976769 -0.057759106 1.2050453 4819160
0.09524782 -0.06255912 1.2046005 4752590
0.10263303 -0.063147672 1.2023093 4817869
0.10779233 -0.065436855 1.1965858 4752076
-0.073401883 -0.049484301 1.1975223 4291778
-0.067365892 -0.048818342 1.2010353 4554440
-0.061707303 -0.051192332 1.2054867 4883149
-0.042986162 -0.044691145 1.2011387 5674209
-0.037245095 -0.044828769 1.2010978 5082331
-0.025937436 -0.047881264 1.2029698 4950745
-0.016681438 -0.04991455 1.2004913 4884953
-0.0074978527 -0.050131705 1.2002257 4753366
0.0028635198 -0.049246632 1.2013178 4884692
0.013402406 -0.051147658 1.2004482 4884692
0.022182204 -0.050615773 1.2010182 4884692
0.032424212 -0.049595524 1.2033639 4950484
0.043323524 -0.05086156 1.2015382 4950488
0.052114651 -0.050781853 1.2024606 4950489
0.062761188 -0.049557533 1.2033911 5411037
0.07175535 -0.049494948 1.2043856 5542623
0.085915469 -0.047818102 1.204223 5213404
0.093623228 -0.050883293 1.2042562 5081558
0.1018574 -0.053394631 1.201867 5015248
-0.067921907 -0.039151214 1.1971633 4685772
-0.045682073 -0.039186962 1.198081 5542365
-0.036718398 -0.039580587 1.1980746 4951002
-0.027989442 -0.040851679 1.1969013 4884951
-0.018774631 -0.042945478 1.196893 4753366
-0.0050146077 -0.042130783 1.1967599 4950484
0.0038477294 -0.042629361 1.1967055 5015763
0.033867963 -0.044207413 1.1965177 5015764
0.040734384 -0.044372011 1.1964688 4885461
0.052692175 -0.043677617 1.1963536 4884950
0.063518085 -0.042816944 1.1980892 5082072
0.072941884 -0.041813314 1.2009398 5542624
0.082510583 -0.043126509 1.203306 5279197
0.092667043 -0.042207561 1.2003967 5213144
0.099880055 -0.045026798 1.1960239 5212627
0.067273043 -0.035851792 1.1959996 5016538
0.073035821 -0.034273118 1.195906 5213917
0.082631387 -0.032023281 1.1957618 5345245
0.092929058 -0.034559041 1.1964254 5213917
0.18411075 -0.038650345 1.2031708 13158081
-0.010039259 -0.15652856 1.2123036 3303598
0.0026748599 -0.15683335 1.212213 3303850
-0.038220197 -0.14521803 1.2121793 3303853
-0.028487744 -0.14703619 1.2125157 3304111
-0.018956644 -0.14932944 1.2142599 3303857
-0.0098839216 -0.1498518 1.2148496 3303856
0.00054260716 -0.15012547 1.2150261 3369903
0.010957756 -0.14894006 1.2119066 3435441
0.020000227 -0.15006945 1.21187 3435187
0.03049024 -0.14968352 1.2117758 3500978
0.041009314 -0.14966044 1.2116923 3369649
0.047751538 -0.1482037 1.2115948 3435441
-0.046210602 -0.13755119 1.2120076 3370159
-0.039679199 -0.1384784 1.2119846 3370416
-0.02931528 -0.13892046 1.2141678 3436469
-0.018929815 -0.13940763 1.2168524 3502005
-0.0096450951 -0.13963021 1.2167863 3501749
0.00071754493 -0.14336084 1.2168189 3501493
0.011228545 -0.14001906 1.2153835 3567542
0.020524502 -0.14032555 1.2162577 3567541
0.030928005 -0.14047042 1.2149923 3633333
0.04126402 -0.14049704 1.2123481 3567541
0.049867891 -0.14000256 1.2113273 3633079
0.059953883 -0.13805941 1.2111887 3632566
-0.046394639 -0.12906961 1.2117498 3501750
-0.039526783 -0.12942815 1.214208 3567798
-0.031125112 -0.13009727 1.2166636 3633848
-0.017631458 -0.13363509 1.2166657 3633591
-0.010667913 -0.13380201 1.2166162 3699128
0.011410844 -0.13317055 1.2164233 3830714
0.021856152 -0.13342094 1.2163488 3764921
0.031374432 -0.1326994 1.2162519 3830712
0.041946292 -0.13204937 1.2157916 3830713
0.050658889 -0.13196765 1.2154109 3830458
0.060975589 -0.13200924 1.2133652 3764409
0.069119871 -0.13072488 1.2114482 3764407
-0.055152155 -0.1179935 1.2114799 3698874
-0.048537366 -0.11876713 1.2137027 3764923
-0.03997615 -0.11958027 1.2164116 3765435
-0.033659264 -0.12396497 1.216496 3699641
0.059961632 -0.12620923 1.2158288 3896252
0.070172913 -0.12206672 1.2130015 3831226
0.077526063 -0.12163642 1.2105483 3830458
-0.057561502 -0.10846813 1.2119974 3896508
-0.048388727 -0.1085223 1.2161396 4028352
-0.040513247 -0.10940753 1.2161047 4094143
0.07167118 -0.11222754 1.211736 4159936
0.081011191 -0.11123912 1.2102031 4028352
0.089076675 -0.11006456 1.2101036 3962559
-0.065330245 -0.098560311 1.2109656 4093628
-0.058425188 -0.09876705 1.211668 4028352
-0.048156448 -0.09922599 1.2155409 4094401
-0.041398287 -0.097778939 1.2157562 4225986
0.073371693 -0.10302738 1.2136501 4357317
0.081658646 -0.10223307 1.2127364 4225732
0.090481021 -0.10206418 1.209848 4159938
-0.06608966 -0.088798881 1.2106731 4028609
-0.057902955 -0.089025751 1.21198 3963330
-0.048544452 -0.089195706 1.2155498 4160708
-0.042200007 -0.092420332 1.2155986 4292035
0.076317906 -0.089457728 1.2145764 4620236
0.081692524 -0.09236031 1.2132332 4488649
0.090119712 -0.093305677 1.209583 4357318
-0.067002445 -0.078538358 1.2103665 4160449
-0.058378533 -0.078808866 1.2140045 4160708
-0.049081534 -0.079022974 1.215243 4489161
0.083024018 -0.083107613 1.2132574 4555212
0.091299757 -0.082201026 1.2092341 4620489
-0.15889603 -0.067568921 1.2157559 14082013
-0.065451354 -0.071199313 1.21013 4226242
-0.0572761 -0.069029309 1.2125006 4620234
-0.050113976 -0.067081317 1.214886 5079759
-0.016060831 -0.067510717 1.2146313 6791922
-0.0079091508 -0.06654539 1.2145377 5608162
0.0025361544 -0.066795781 1.2144634 5016279
0.012595586 -0.069111384 1.2130908 5608413
0.021091811 -0.067820966 1.2143488 4950485
0.028069127 -0.067407854 1.2142813 5016277
0.08601594 -0.072279155 1.2139747 4752847
0.091892056 -0.072530538 1.2106993 4620747
-0.057749994 -0.060156904 1.2107322 4948687
-0.047314085 -0.063279316 1.2147477 5408980
-0.025696086 -0.060724217 1.2125756 6134248
-0.017032279 -0.060473725 1.2119225 5344990
-0.0081014801 -0.060861353 1.2122215 4884696
0.0030632773 -0.061169829 1.2122273 4818902
0.013467235 -0.062764406 1.2092516 4818646
0.022624668 -0.061878461 1.2098672 4818646
0.032749608 -0.061649676 1.2108169 4884696
0.042845268 -0.061396528 1.2107655 5344733
0.052090906 -0.06161011 1.210342 5936870
0.061847106 -0.061237514 1.2129934 5608416
0.070966199 -0.060543161 1.2137341 5082072
0.083720058 -0.061715476 1.2106683 5016278
0.090010576 -0.063443311 1.2086707 4884178
-0.026117658 -0.054417238 1.2093076 5082331
0.0027780663 -0.055109922 1.2091016 4687574
0.025894651 -0.055664066 1.2089368 4687574
0.033836018 -0.055193871 1.20886 4819159
0.040920429 -0.056024261 1.2088298 4950233
0.053634554 -0.056329038 1.208739 5542369
0.062397979 -0.055254702 1.2086374 5805540
0.075292356 -0.053380288 1.2084787 5213659
0.082612604 -0.053555772 1.2084265 5147866
0.091428228 -0.05569372 1.2084225 5081557
0.00084816199 -0.13906269 1.2206883 3633335
-0.026422655 -0.12782218 1.220559 3699641
-0.018911408 -0.12845062 1.2205192 3765177
-0.0091885682 -0.12880778 1.2221016 3830714
0.0010846201 -0.1299724 1.2232901 3962299
0.011612216 -0.12772459 1.2209241 4028092
0.020406488 -0.12873903 1.2205049 3962300
0.029929543 -0.12859164 1.2208673 3962299
0.039528802 -0.12747374 1.2222533 3962299
0.051936589 -0.12677863 1.2199111 3896509
0.061728589 -0.12654753 1.2198272 3830714
-0.035914965 -0.11721957 1.2203095 3962813
-0.029384846 -0.11905107 1.2220929 3962813
-0.018446019 -0.12046059 1.2242733 4028350
-0.0092570018 -0.12280514 1.2242727 4093886
-0.0022477638 -0.12297316 1.2242228 4093886
0.011853917 -0.11980616 1.2240151 4291263
0.021199569 -0.12003018 1.2239485 4291265
0.030545216 -0.12025422 1.2238818 4291265
0.041059073 -0.12050625 1.223807 4225471
0.051453561 -0.1205814 1.2212262 4159424
0.060702413 -0.12070021 1.2196563 4028351
-0.036858194 -0.1078806 1.2200313 4159681
-0.031342812 -0.10967489 1.2229533 4159937
0.012048066 -0.11163232 1.2237636 4685507
0.021649547 -0.11092781 1.2236665 4685766
0.030527912 -0.11114063 1.2236034 4685768
0.0425478 -0.11151374 1.2235203 4685254
0.051782466 -0.11140035 1.223194 4553924
0.060936429 -0.11140414 1.2196203 4357059
0.066800863 -0.10920095 1.2192568 4291524
-0.037647791 -0.099920355 1.2201276 4291267
-0.031820148 -0.099087648 1.2229245 4291525
0.022728337 -0.10487822 1.2234731 5080013
0.029737573 -0.10504624 1.2234231 5013964
0.045035198 -0.10073953 1.2231712 5014215
0.052044436 -0.10090756 1.2231213 4948424
0.061345458 -0.10108542 1.2222532 4686025
0.068964005 -0.10071698 1.2205812 4554696
-0.04451137 -0.086735323 1.2194449 4423366
-0.039019257 -0.08896777 1.2213376 4489158
-0.03306821 -0.091857128 1.2235136 4554697
0.045284815 -0.090230323 1.2228479 6725605
0.052522153 -0.090637483 1.2228035 5541334
0.061639704 -0.09062238 1.2227314 4949456
0.071580537 -0.092066735 1.2211727 4752076
-0.045454614 -0.077396333 1.2191666 4751821
-0.039732456 -0.078796335 1.2218325 4817612
-0.013988612 -0.075957537 1.2228774 6133729
-0.0116522 -0.076013543 1.2228607 5804510
0.012861642 -0.077380091 1.2227098 6726116
0.021057576 -0.076797649 1.2226276 6791913
0.033907846 -0.077105701 1.222536 5673696
0.042530529 -0.080428012 1.2225698 5344728
0.053684153 -0.081084833 1.2225022 5475805
0.06186159 -0.081280865 1.2224439 5147095
0.072295941 -0.081487909 1.2211676 4949712
0.080924034 -0.078679033 1.2182125 4621777
0.18927927 -0.080830224 1.2214285 11781308
-0.047645167 -0.071521096 1.2190043 4883150
-0.038672052 -0.069795296 1.2188809 6001884
-0.027767481 -0.068503961 1.2187557 6133474
-0.016202515 -0.071627453 1.2203611 6067939
-0.0083439872 -0.071121946 1.2197746 6594284
0.0027074898 -0.070116453 1.2196569 6002915
0.013585564 -0.073687628 1.2185892 6857704
0.022655383 -0.07186909 1.2191292 6397928
0.031873628 -0.071389504 1.2202427 6397674
0.040909518 -0.071777485 1.2207172 6002659
0.052919015 -0.071769401 1.2211561 5476060
0.061987862 -0.071889453 1.2204049 5213402
0.072517276 -0.073332138 1.2213167 5081814
0.082590222 -0.072600707 1.2186291 4818898
0.19231766 -0.075937554 1.2212551 12896707
0.045700166 -0.065606929 1.2180896 6331369
0.055015355 -0.065830231 1.2180232 5805025
0.062001735 -0.065997705 1.2179734 5213658
0.073023401 -0.065226771 1.2178632 5213658
0.081352867 -0.06552995 1.2178069 5082070
-0.025527207 -0.11573686 1.229187 4160192
-0.018735142 -0.11636892 1.2291529 4159936
-0.0091613773 -0.11847541 1.2291421 4225472
0.001767749 -0.11951947 1.2290881 4225471
-0.025932675 -0.10810188 1.2289567 4160194
-0.018322321 -0.10887088 1.2289203 4291265
-0.0089385863 -0.10909582 1.2288535 4422851
0.0016282033 -0.10946224 1.2307026 4685254
0.012258362 -0.1060846 1.2285948 4882628
0.018123195 -0.10622519 1.2285531 4817092
0.034544729 -0.10661884 1.228436 4948684
0.039753456 -0.1096765 1.2284884 4816582
-0.026473297 -0.097921923 1.2286496 4291525
-0.018073516 -0.098331109 1.2288463 4422855
-0.0086913314 -0.098645031 1.230533 4619977
0.0018896051 -0.098983727 1.2320609 4883149
0.012425452 -0.099049918 1.2283784 5146063
0.021809187 -0.099274859 1.2283115 5211603
0.031192921 -0.099499807 1.2282445 5145806
0.039403684 -0.099696629 1.2281861 5014214
-0.033996843 -0.086909801 1.2283721 4555210
-0.027232626 -0.088714316 1.228374 4686540
-0.018210074 -0.089511231 1.2300427 4883407
-0.0085030869 -0.090518102 1.2322839 5014738
0.0020878855 -0.090771988 1.2322085 5541336
0.012666796 -0.089725651 1.229342 5672923
0.02203683 -0.089906268 1.2282734 5935587
0.031415708 -0.090120219 1.2279561 6132702
0.039626472 -0.090317041 1.2278975 7120103
0.049093753 -0.087024651 1.2277224 8699647
-0.034131184 -0.082683362 1.2282438 4818381
-0.027093383 -0.082852073 1.2281938 4752589
-0.018100644 -0.083067648 1.2281296 5081042
-0.011025706 -0.081673093 1.2280314 6462440
-0.001232421 -0.081125781 1.2279376 6857199
