# .PCD v0.7 - Point Cloud Data file format
VERSION 0.7
FIELDS x y z rgba
SIZE 4 4 4 4
TYPE F F F U
COUNT 1 1 1 1
WIDTH 174
HEIGHT 1
VIEWPOINT 0 0 0 1 0 0 0
POINTS 174
DATA ascii
-0.33106294 0.039906502 1.0266054 5134174
-0.32445639 0.038429089 1.0280932 5134176
-0.33158013 0.04457096 1.0262774 4871515
-0.34037867 0.022459149 1.0325828 4936281
-0.33014941 0.020113155 1.0348892 5199967
-0.32537809 0.020202205 1.03591 5397348
-0.3484078 0.029009566 1.0302463 4673880
-0.34044066 0.028538682 1.0300164 4870232
-0.33124509 0.028821208 1.0327131 5068382
-0.32176852 0.029399022 1.0352803 5068384
-0.31432295 0.031129248 1.0377766 4476504
-0.34859043 0.038386889 1.0283716 4607822
-0.34139329 0.038475528 1.0285484 4673623
-0.33063933 0.037927397 1.0308839 5134174
-0.32044476 0.039011635 1.0330234 4739419
-0.31309175 0.038971715 1.0359211 4081746
-0.34919071 0.04682634 1.0295566 4410445
-0.34040257 0.047915652 1.0283221 4213839
-0.33032054 0.048615664 1.0304552 4345429
-0.32046327 0.048386984 1.0325834 4016211
-0.31273887 0.048242129 1.0354307 3621193
-0.33984682 0.053362496 1.0281881 3884109
-0.33067206 0.054514594 1.0301054 3752784
-0.32047561 0.054637238 1.03229 3621192
-0.31333601 0.053681381 1.0338681 3686459
-0.35067943 0.010612808 1.0415986 4673626
-0.34213045 0.00972078 1.0405682 4870741
-0.33320168 0.0087305158 1.0427212 5265754
-0.32341272 0.0096385106 1.0450554 5397604
-0.31570369 0.012663215 1.0496013 4608350
-0.35089603 0.019422226 1.03712 4673629
-0.34224311 0.017938033 1.0368292 4870744
-0.33389691 0.016510464 1.0383472 5134174
-0.32197732 0.018759772 1.0414708 5397606
-0.31475195 0.019884408 1.047236 4476760
-0.30911699 0.024137005 1.0504826 4015442
-0.35869408 0.027760886 1.0396645 3883351
-0.35419762 0.027601413 1.0353136 4475995
-0.32098421 0.025262602 1.0407139 5068641
-0.31247395 0.028707199 1.0444834 4082513
-0.30758601 0.030159943 1.0500194 3752531
-0.35520175 0.037508458 1.0334085 4079443
-0.31048059 0.037816264 1.0439222 3621705
-0.30669096 0.035671338 1.04801 3751503
-0.31178802 0.045292675 1.0417578 3490378
-0.34171608 -0.0069188103 1.0561869 5002588
-0.33858728 -0.0068811774 1.0568572 5528419
-0.35216421 0.0025451705 1.0535023 4739163
-0.34444883 -0.00037323311 1.0522808 5002333
-0.33514908 -0.00056963041 1.0542307 5397092
-0.32643032 0.0016271137 1.0573908 5332066
-0.32087648 0.0029215142 1.0602057 4740695
-0.35246554 0.006265536 1.0478894 4082256
-0.34529757 0.0051157549 1.0476907 5068120
-0.32331452 0.0060061701 1.0544193 5200736
-0.31573731 0.0095584393 1.058069 4345175
-0.30928338 0.011675127 1.0617038 4278096
-0.3124429 0.018918037 1.054984 4147028
-0.30858809 0.018690564 1.060004 3819087
-0.30800465 0.026036419 1.0559573 3687502
-0.33697182 -0.018247653 1.0689955 5528423
-0.33276019 -0.017659001 1.0698727 5397348
-0.34595397 -0.010752626 1.0612568 4804702
-0.33655795 -0.010872118 1.0626872 5462626
-0.32790291 -0.01000433 1.0671473 5003105
-0.3201941 -0.0063179769 1.0695873 4804440
-0.35521564 -0.00074440613 1.0601671 3817824
-0.34853393 -0.0045946538 1.0576859 4673622
-0.33284813 -0.0044059791 1.0610465 5660265
-0.32562625 -0.0027651154 1.0625216 5069150
-0.31721619 0.00024275854 1.0662359 4475986
-0.31190208 0.0045915805 1.0671753 4014924
-0.31404629 0.0065038875 1.0645779 4606547
-0.30854794 0.0090244785 1.0661538 3620428
-0.34482974 -0.024827279 1.0747806 4079956
-0.33789119 -0.025837926 1.0739778 5266270
-0.33264229 -0.025222007 1.0774169 5002845
-0.34723589 -0.018788762 1.0719352 4079963
-0.33936703 -0.021384258 1.0716984 5330781
-0.3294245 -0.018966082 1.0754081 5002331
-0.32586691 -0.013022717 1.0742095 5001816
-0.3220416 -0.010070816 1.0761225 4540755
-0.31743836 -0.0032118112 1.0755637 4213074
-0.34144318 -0.034854922 1.0882609 5265766
-0.34211844 -0.03052731 1.0849892 5068639
-0.33350915 -0.028791958 1.0862702 4214103
-0.34904751 -0.024587277 1.0779589 1580089
-0.32847342 -0.022479337 1.082963 4145996
-0.3256675 -0.016700923 1.0826143 4212054
-0.34835222 -0.035845436 1.0898943 3618132
-0.34298176 -0.036877751 1.0910959 5199718
-0.33654201 -0.035703376 1.0924246 4214875
-0.34129769 -0.094820306 1.1105344 528927
-0.33628902 -0.095427342 1.1116385 1517876
-0.33964983 -0.1047823 1.1236383 4419983
-0.3540327 -0.098233782 1.1181964 1651559
-0.34804848 -0.097544894 1.1162319 1782104
-0.3357631 -0.10000792 1.116828 4154236
-0.33152899 -0.096371077 1.1214811 3028033
-0.346277 -0.090255857 1.1215391 2369321
-0.33787575 -0.090428829 1.1196659 2040105
-0.34539086 -0.071268149 1.1167508 4146252
-0.35582763 -0.10269631 1.1282569 5077683
-0.34887773 -0.10525513 1.1285037 4617364
-0.33966044 -0.10552131 1.130496 4549258
-0.33393174 -0.10019496 1.1287485 6582660
-0.3560186 -0.091441795 1.123597 7695014
-0.34864032 -0.08758606 1.1256852 2040625
-0.34058005 -0.086295724 1.1266741 2172202
-0.33394957 -0.091176338 1.1283253 2760198
-0.35207921 -0.11400545 1.137779 4683677
-0.34650609 -0.11393841 1.1389731 3831442
-0.3593117 -0.10726352 1.1347418 3299734
-0.35212067 -0.10944976 1.1349521 4683420
-0.34393635 -0.10980701 1.1376947 3960460
-0.36140576 -0.1862482 1.1524458 3829135
-0.35345814 -0.18567123 1.1541262 4223637
-0.34737 -0.1860465 1.1554514 3960467
-0.36222163 -0.17688952 1.1518353 3498881
-0.35390016 -0.17635134 1.1531882 3895695
-0.3463091 -0.17491104 1.1551614 3631246
-0.36150414 -0.16584967 1.1484044 3499128
-0.35441718 -0.16656566 1.14996 4025235
-0.34620097 -0.16542408 1.1535733 3499655
-0.36050892 -0.15656371 1.1461385 3826560
-0.35402468 -0.15650694 1.1480408 4156303
-0.34675863 -0.1568488 1.1521771 3630985
-0.3609215 -0.14691985 1.1486731 3893387
-0.35414505 -0.14659896 1.1485211 4157333
-0.34738898 -0.14591542 1.1520451 3762828
-0.35969752 -0.13834026 1.1505847 3762325
-0.35336173 -0.13587502 1.1480768 4420507
-0.34777278 -0.13586335 1.1516658 3828877
-0.36085147 -0.12454048 1.1496949 4222878
-0.35304487 -0.12646121 1.1476388 4552347
-0.34760502 -0.12667079 1.1518204 3631755
-0.36140299 -0.11691063 1.143488 3627913
-0.35251284 -0.11861511 1.1433609 4683676
-0.34613004 -0.11711123 1.1476716 3892613
-0.34452981 -0.10936718 1.1443043 3563127
-0.36409768 -0.19585079 1.1578723 3033484
-0.35645235 -0.19663465 1.1620033 2897991
-0.34650174 -0.1957365 1.163597 3891064
-0.33947307 -0.19481879 1.1667706 2638186
-0.36775452 -0.18688108 1.155207 666715
-0.35709152 -0.18899672 1.1575959 4813457
-0.34381449 -0.18589191 1.1603035 3499654
-0.33757356 -0.1855239 1.1653992 3561592
-0.36842296 -0.17550468 1.1545343 6722
-0.34396175 -0.17636541 1.1598288 3694979
-0.33795884 -0.17594558 1.1631465 3233144
-0.34244072 -0.16595259 1.1596713 3104639
-0.33853006 -0.16574246 1.1637594 2640231
-0.34313813 -0.15625945 1.1590706 2907007
-0.33983004 -0.15612656 1.1644289 3099492
-0.36509314 -0.14428112 1.1537975 4089741
-0.34362176 -0.14667347 1.1588866 3496061
-0.34038162 -0.14529391 1.1642721 4278874
-0.36284816 -0.13616951 1.1539024 2972810
-0.34449965 -0.13629702 1.159246 3757171
-0.34153277 -0.13718985 1.1636479 3748927
-0.36172912 -0.13038133 1.1538737 3630740
-0.34364411 -0.12900886 1.1576946 3953004
-0.35815018 -0.20264353 1.167218 984897
-0.34790832 -0.19864197 1.1692319 4350584
-0.33802602 -0.17451255 1.170915 4674411
-0.33859304 -0.16589747 1.1727816 6974583
-0.34032872 -0.15483841 1.1718944 3815753
-0.37079218 -0.14462024 1.1618037 5799072
-0.33890247 -0.14540017 1.1686902 5064001
-0.34049156 -0.17992283 1.1832647 7039097
-0.34098092 -0.17410225 1.1839128 7565430
-0.34160599 -0.16546652 1.1830356 8223350
-0.3409189 -0.15742424 1.1780312 9076613
