# .PCD v0.7 - Point Cloud Data file format
VERSION 0.7
FIELDS x y z rgba
SIZE 4 4 4 4
TYPE F F F U
COUNT 1 1 1 1
WIDTH 1131
HEIGHT 1
VIEWPOINT 0 0 0 1 0 0 0
POINTS 1131
DATA ascii
-0.021581545 0.026624404 0.99518681 4876167
-0.013792143 0.029650338 0.99417448 5138310
-0.0023318836 0.029450379 0.99403477 5138050
0.040325757 0.028706066 0.9935146 5006203
0.049962081 0.027606219 0.99380136 5202812
0.05798639 0.026106127 0.99337071 5203582
0.067779198 0.021944538 0.9971779 5597049
-0.028199524 0.032321669 1.0022793 5269636
-0.019701339 0.032783456 0.99965519 5204101
-0.010143175 0.032943882 0.99790251 5072257
-0.00033056829 0.032502361 0.997316 5006718
0.0092240674 0.03225141 0.99590141 4875393
0.018895503 0.032276995 0.99877912 4875390
0.029369507 0.032018341 0.99882656 4874877
0.039533351 0.031754561 0.9976542 5006460
0.046738859 0.030854709 0.998869 5202811
-0.10058235 -0.012537435 1.0088029 6980776
-0.094441287 -0.012428373 1.0075206 6129600
-0.099368662 -0.0059146956 1.0115826 7570324
-0.092057861 -0.0030397549 1.0077977 6651024
-0.085733779 0.0026245192 1.0069401 6781327
0.097644508 -0.0044366792 1.0048244 6854356
0.10924293 -0.0044754818 1.0065123 7111067
-0.081366457 0.0083845109 1.0078305 6583439
0.10075952 0.00674095 1.0052366 6845830
0.10899104 0.0040607229 1.0074166 7436672
-0.06882 0.019200519 1.0098526 6321290
-0.062631972 0.019971393 1.0087314 5795463
0.080033615 0.017309867 1.0083728 5860223
0.089618154 0.012389645 1.0062029 6649473
0.097119965 0.011772528 1.010329 6977411
-0.069164485 0.023777299 1.0098215 7372164
-0.059733205 0.023868628 1.0084478 6123396
-0.050273649 0.028133616 1.0103621 5729669
-0.04172549 0.028563686 1.0102607 5336195
-0.035033923 0.030701451 1.0054185 5270149
0.070130989 0.024522252 1.0042716 5532277
0.077657826 0.021660887 1.0090678 5860472
-0.050666288 0.033287577 1.0115405 6714755
-0.041601676 0.033129416 1.01143 5794947
-0.030787166 0.03455364 1.0091466 5466498
-0.020301964 0.036909021 1.0077889 5466240
-0.009799012 0.037288092 1.008794 5334655
0.00064873789 0.037196927 1.0071628 5138044
0.0097153829 0.037717529 1.0076314 5072252
0.019383933 0.037340961 1.0068274 5072247
0.029024467 0.036614947 1.0063478 5137530
0.039289661 0.035850875 1.0098858 5137788
0.048225172 0.032341875 1.0073086 5268347
0.11603311 -0.012283742 1.01384 7374502
-0.099895395 -0.0022768676 1.0204238 9214113
-0.091029845 0.0014198273 1.0183372 6978442
0.11217008 -0.010268435 1.0138264 7112109
0.11673151 -0.0061266422 1.014271 8686741
-0.089053623 0.0071784481 1.0187471 7636109
-0.083642848 0.011154577 1.0176537 7437970
0.11692619 0.0019853413 1.0133836 9277068
0.082881138 0.018864267 1.0142914 5992060
0.089441478 0.016768105 1.016858 6451580
0.096293405 0.015449062 1.0155611 6516347
-0.058731385 0.026535317 1.015856 6254982
-0.055001684 0.031059019 1.0216709 6648965
-0.039152652 0.029382139 1.0145173 5270660
0.064359754 0.029709518 1.0161902 5662844
0.070204996 0.028246552 1.0162615 5794679
0.078745335 0.025277428 1.0151446 5926261
0.086893268 0.021610349 1.0181569 6253428
-0.048850358 0.035506658 1.0162008 7043204
-0.03974152 0.036032505 1.0164852 6188928
-0.029297728 0.038972251 1.0171944 5991293
-0.019493785 0.040955015 1.0171077 5794427
-0.0097196894 0.04072734 1.0161898 5597052
-0.0015431447 0.040109433 1.0149043 5399930
0.0078018596 0.040250309 1.0135801 5203324
0.018516574 0.040063359 1.0134494 5269365
0.031225208 0.039912991 1.0142928 5334394
0.040409271 0.03881333 1.0162114 5466234
0.04694014 0.036910944 1.0170213 5597049
0.064409748 0.032639064 1.0160981 5991033
0.069058225 0.032566346 1.0183283 6055795
-0.017501678 0.042859577 1.0168228 6056827
-0.0084280232 0.043938376 1.0201756 5859449
-6.5486878e-005 0.043906458 1.0189694 5728377
0.0091129299 0.04324872 1.020474 5532027
0.019751299 0.042502724 1.0203617 5532021
-0.096986279 -0.00048036128 1.026191 7306630
-0.095002323 0.00046849251 1.0261362 7438985
-0.077115983 0.018144414 1.0313605 7044228
-0.073233761 0.01793395 1.0283159 6255491
0.091764867 0.019337885 1.0231686 6187632
0.097182989 0.019735076 1.0230871 6119529
-0.058686338 0.029929154 1.0247546 6780808
0.059974473 0.030219041 1.0232341 5465215
0.083630867 0.024845645 1.0281032 6056820
0.089705378 0.023988172 1.0263516 5988198
-0.046152215 0.037971623 1.0243442 7108737
-0.03969558 0.04084713 1.0274742 7108222
-0.031331304 0.041646935 1.0240407 6582396
0.051546521 0.037574463 1.0253633 5859705
0.056853008 0.035589136 1.024107 5728122
-0.026717309 0.045032658 1.0263778 6713719
-0.020268597 0.045881175 1.02767 6450807
-0.012074049 0.045908578 1.0259138 6122104
-0.0002256399 0.046686746 1.0257386 6122617
0.012114371 0.046998464 1.0259886 6057083
0.018450867 0.046761729 1.0268492 6057334
-0.082104445 0.017098725 1.0344584 7832202
0.083402231 0.028382935 1.031998 5792617
0.086378694 0.028331004 1.0319618 5724767
-0.038396049 0.044396721 1.0330502 7764863
-0.018485222 0.048017494 1.0326836 6384242
-0.0095558232 0.047861688 1.0325747 6121843
0.16209392 -0.081955321 1.053448 13950701
0.16512467 -0.082008205 1.053411 13160147
0.16416611 -0.078961082 1.0533283 13423577
0.16309768 -0.091430724 1.0607347 12898285
0.16706327 -0.092493378 1.060217 12832198
0.16172837 -0.08550825 1.0587091 10136266
0.16848625 -0.08610107 1.0587488 13159885
0.16220321 -0.079193078 1.059864 12175571
0.1675196 -0.078332081 1.0562675 13093836
-0.14207724 -0.10605196 1.0768849 1720740
-0.14273325 -0.099153534 1.0764662 3628972
-0.14364268 -0.092934653 1.0776964 4745397
0.16251914 -0.092920326 1.0697936 6256041
0.16702121 -0.095674358 1.0700223 12767188
0.16094947 -0.083749428 1.0715287 7312841
-0.14027077 -0.12992875 1.0888129 2903988
-0.13715434 -0.12998314 1.0887749 1324707
-0.14153622 -0.11790241 1.0877036 2904505
-0.14009051 -0.10921291 1.0860634 2644141
0.16241348 -0.11235885 1.0844092 5801403
0.16683985 -0.11278231 1.0843661 11779799
-0.13961379 -0.098189354 1.0838124 3039906
0.1617129 -0.10328366 1.0831345 3630254
0.16791126 -0.1042302 1.0824965 11516624
0.17502099 -0.10426928 1.0839963 13685195
-0.14193071 -0.08911097 1.0859237 2708908
0.16162799 -0.094843797 1.0819969 3762605
0.16630271 -0.098749392 1.0809335 10465738
0.16185017 -0.088167593 1.0776584 6721740
-0.13927843 -0.071779221 1.0869867 1588628
-0.136162 -0.071833596 1.0869486 3826867
-0.13390364 -0.14521101 1.0952119 3694011
-0.13879181 -0.13866025 1.0930687 7178192
-0.13353556 -0.13846418 1.0941502 2114980
-0.13880472 -0.12719251 1.0927112 1063065
-0.13436179 -0.13006082 1.0936446 2447769
-0.13820657 -0.11964481 1.0924681 2578847
-0.13565923 -0.11915023 1.095422 2907546
0.16207778 -0.12317991 1.0902541 6851775
0.16765273 -0.12285933 1.0886722 13029078
-0.13733579 -0.10954775 1.0928925 3104917
-0.13544522 -0.10660966 1.0950282 3170462
0.16086976 -0.1123706 1.0899323 3040417
0.17051271 -0.11590957 1.088419 13422807
0.1734854 -0.11283393 1.0882852 13619661
-0.13920888 -0.096996479 1.0925249 3104162
0.15976451 -0.10416109 1.0890471 2973607
-0.13839817 -0.088680372 1.0925053 3169952
0.1603796 -0.094000243 1.0908664 2843043
-0.14004192 -0.079003729 1.0913819 3301299
-0.12885576 -0.15688679 1.1055175 4750553
-0.12522496 -0.15911248 1.1075418 1196192
-0.13078725 -0.14969081 1.1021158 3036848
-0.1268618 -0.15186909 1.1073368 1789334
0.15725794 -0.15286732 1.1012472 12898004
-0.12953332 -0.13877749 1.1031824 2776475
0.15789725 -0.14381693 1.099856 9087435
0.16374175 -0.1393864 1.0962415 13488846
-0.13159996 -0.12801379 1.1026506 3038106
0.15791965 -0.13320199 1.0985241 4354994
0.16576652 -0.13144806 1.0959681 13752800
-0.13328961 -0.11823294 1.1038125 2973083
0.15807004 -0.12340758 1.0991249 2121388
-0.13795143 -0.10474569 1.0990041 3301280
-0.13460839 -0.10964003 1.1027527 3039132
0.15890855 -0.11543055 1.0967232 2646946
0.17524882 -0.11041338 1.0981929 13817039
-0.13784404 -0.098452561 1.0988065 3366820
-0.13524321 -0.098807484 1.1037873 3105183
0.15753449 -0.1030516 1.09989 3631271
0.17633685 -0.10832832 1.098114 13817037
-0.13765313 -0.087264791 1.0984551 3499424
-0.13493076 -0.088211946 1.1022521 3302563
0.15736522 -0.092824228 1.0988139 3369127
-0.13473597 -0.078726001 1.1016536 3434147
0.15945591 -0.083248943 1.099457 2908578
0.16522993 -0.080781944 1.0973964 8233160
-0.13921221 -0.06758099 1.0987186 3365295
-0.13387488 -0.068791531 1.1016791 3499689
0.16040762 -0.073698878 1.0988848 4024485
0.16537352 -0.072368264 1.0971321 11192030
-0.13749996 -0.058667436 1.1005629 2181536
-0.13225576 -0.0585794 1.1016941 3433908
0.15975814 -0.068180352 1.1010753 2708114
-0.13569207 -0.050355248 1.104283 8233201
-0.1319069 -0.051593639 1.102558 3564980
0.013472855 0.11874449 1.0931062 9935247
0.019199871 0.11954627 1.0930083 9934992
-0.11964826 -0.16784695 1.1164404 929696
-0.11544167 -0.16820118 1.1187068 1984411
0.14697166 -0.16851467 1.1153738 13424882
-0.12052663 -0.15834382 1.1138616 2512540
-0.11589576 -0.16022009 1.1171296 2906513
0.14836505 -0.16269457 1.1127287 8955594
0.15399666 -0.16156143 1.1090641 14080986
-0.12743098 -0.14412574 1.1141064 2381461
-0.1243817 -0.14929777 1.1161674 2776212
0.14873259 -0.15314186 1.1111898 3697834
-0.12776627 -0.13817447 1.1147588 2841752
-0.12566932 -0.14243144 1.1180333 2906774
0.15076162 -0.14324865 1.1113358 2646183
-0.12946174 -0.12755463 1.1154735 2907034
-0.1254874 -0.13177159 1.1176986 2775704
0.15150155 -0.13449527 1.1121539 3696546
0.1536258 -0.13001528 1.1114202 3761571
-0.13033715 -0.1181351 1.1137774 2973083
0.15539971 -0.12396893 1.1105419 3368880
-0.13126396 -0.10793108 1.1129262 3039134
0.15588896 -0.11238536 1.1097802 3500454
-0.13126667 -0.097494103 1.1123005 3171232
0.15497448 -0.10390174 1.1105407 3631529
-0.13168325 -0.088742658 1.1113325 3302564
0.15359141 -0.09362223 1.1059496 3697839
0.15404235 -0.093787253 1.1089507 3763633
-0.13158597 -0.078167975 1.1118019 3368355
0.15479656 -0.082557708 1.108305 3436468
0.16917275 -0.079176329 1.1083024 10992842
-0.12906961 -0.067797907 1.1114464 3697068
0.15292916 -0.069452398 1.1122081 3765679
0.15602553 -0.072156757 1.1074322 3830452
0.16889107 -0.074921429 1.1081731 11387079
-0.12786697 -0.060114801 1.1089902 3631022
-0.1256429 -0.056960873 1.1083632 3500456
0.15237431 -0.062619157 1.1091115 3830449
0.15904948 -0.063306659 1.106567 5207985
0.16560356 -0.064305186 1.1105521 10334913
-0.12787315 -0.048029941 1.1106859 3434161
0.15166347 -0.053686492 1.1085879 3893939
0.15873811 -0.054318801 1.1077155 8428221
-0.12791237 -0.037890486 1.1139436 6194370
-0.12331698 -0.035842162 1.1146787 4421311
0.14975171 -0.041766867 1.1102936 5734064
0.15600453 -0.045514237 1.1114223 10203587
-0.12187026 -0.029203005 1.1144533 6852289
0.14834104 -0.035888821 1.1080179 8955077
0.020276476 0.09600658 1.1087372 9737616
-0.089579344 -0.20476954 1.127856 7635861
-0.086169794 -0.20523784 1.1304954 8100012
-0.099632934 -0.19459409 1.1303349 10535920
-0.092682451 -0.19746503 1.1279817 5996227
-0.086108565 -0.20164967 1.1303827 6394567
-0.10955384 -0.18364066 1.1221151 8431615
-0.10256229 -0.18611884 1.1248741 1526185
-0.096369155 -0.18849081 1.1289594 1262491
0.12738685 -0.18958209 1.1272867 11717846
-0.11796216 -0.17494068 1.1219509 7571711
-0.11099852 -0.17728166 1.1234916 1917611
-0.10401675 -0.1798051 1.1272613 2379673
-0.097277068 -0.18279067 1.1299367 2644619
0.12909377 -0.18274102 1.1270516 5010097
0.13640745 -0.18000342 1.1237284 10599906
0.14351885 -0.17894433 1.1227472 14081762
-0.11087944 -0.16837271 1.1258687 2709143
0.13031727 -0.17216551 1.1267061 2909858
0.13692598 -0.17192577 1.1227942 4026283
0.14447205 -0.17236528 1.1190279 12307424
-0.1176156 -0.15463269 1.121313 2775446
-0.1132684 -0.15882954 1.1242993 2775442
0.13833982 -0.16298008 1.1233158 3105445
0.14323437 -0.16239157 1.1182321 2578854
-0.11949762 -0.1473352 1.1232644 2775449
-0.11526533 -0.14967239 1.1277988 2906778
0.14085458 -0.15318267 1.1243789 3564451
0.14417309 -0.15238857 1.1203096 3433893
-0.12318746 -0.13855976 1.1241786 2840984
0.14251094 -0.14498031 1.1257029 3565217
0.14626037 -0.14309706 1.12026 3499430
-0.12783419 -0.12665625 1.1205705 2841497
-0.12480538 -0.12829822 1.1265867 2907290
0.14874707 -0.13244812 1.1222309 3237547
-0.12783231 -0.11715271 1.121875 2973083
-0.12505198 -0.1175452 1.1262544 3038877
0.15201935 -0.12278523 1.1230704 3827369
0.15462033 -0.12196219 1.1168262 3564710
-0.12870406 -0.10713228 1.1228315 3039391
-0.12604843 -0.10897265 1.1266668 3170977
0.15245786 -0.11271346 1.1225686 3565735
0.15476626 -0.11341146 1.1165576 3500198
-0.12866326 -0.098876357 1.1247175 3170977
0.15287073 -0.10372593 1.121616 3631790
0.15395963 -0.10533936 1.1243206 3434923
-0.12865098 -0.088357992 1.1233888 3302823
0.15273206 -0.09226948 1.1214272 3566513
-0.12846638 -0.07840468 1.1217419 3368614
0.15198566 -0.083001837 1.1211861 3632560
-0.12781432 -0.07067053 1.1228263 3565995
0.15094469 -0.072858483 1.1196105 3895728
-0.12460243 -0.05563242 1.1239173 3697842
0.14875771 -0.062912047 1.1178607 4158132
-0.12281484 -0.047401011 1.1224008 3502262
0.14782415 -0.052193146 1.1187389 4027837
-0.12001488 -0.037956793 1.1214844 3698611
0.14321595 -0.040545344 1.1224365 4619197
0.14889733 -0.043917086 1.1169277 4946612
-0.12621081 -0.031529374 1.1175829 7180220
-0.11848173 -0.028440945 1.1245922 4815032
0.14323294 -0.034086876 1.1215678 5209534
0.14789334 -0.032646365 1.1141261 8425655
0.02136384 0.092056505 1.1118484 9474444
-0.062719554 -0.21528891 1.1375141 8300241
-0.080838218 -0.20689467 1.1338447 7642055
-0.073330693 -0.20761576 1.1359091 4815810
-0.066612586 -0.21113485 1.1374341 5210825
-0.089776985 -0.1948404 1.1332188 932767
-0.082845829 -0.19835129 1.1349251 2382238
-0.074251592 -0.20146731 1.1372299 2251168
0.10928737 -0.20141944 1.1348904 6518691
0.11512302 -0.20054035 1.1333593 11319227
-0.091365606 -0.18801478 1.1348938 2447513
-0.086004436 -0.19151126 1.1370691 2513045
0.11711189 -0.19234353 1.1334544 4617903
0.12411693 -0.19257455 1.1304234 10929103
-0.10063801 -0.17684262 1.1342511 2971544
-0.094784275 -0.18069157 1.1348424 2774929
0.11933435 -0.18313688 1.1325246 2909086
0.124226 -0.18234721 1.130103 3105187
-0.10796473 -0.16357359 1.1324753 2709911
-0.10340048 -0.16863737 1.1349293 2644371
0.12591954 -0.17254516 1.1303915 3368356
-0.11015934 -0.1568654 1.1341132 2775444
-0.10525016 -0.16104665 1.13503 2709910
0.13051927 -0.16273154 1.131012 3368613
0.13475539 -0.15989137 1.1292685 3499683
-0.11323018 -0.14825456 1.1335653 2841497
0.13247584 -0.15523611 1.1331545 3237027
0.13721655 -0.15269396 1.1303468 3302821
-0.11897413 -0.13659662 1.1323458 2645144
-0.11548681 -0.13830346 1.1348957 2775964
0.14051591 -0.14279397 1.1308448 3237542
0.14465365 -0.13931435 1.1298347 3106215
-0.12064997 -0.1281435 1.1329871 2907291
0.14205818 -0.13325654 1.1310129 3499683
0.14517391 -0.13137873 1.12939 3303338
-0.12145396 -0.11817728 1.1336324 3039134
0.14693658 -0.12291257 1.1293725 3499947
-0.1263873 -0.10387238 1.1308478 3236770
-0.12425917 -0.10809356 1.1342875 3236770
0.1488522 -0.1124293 1.1294278 3500458
-0.12627678 -0.097396515 1.1306444 3237027
-0.1245067 -0.097663596 1.1346323 3302821
0.15140429 -0.10191387 1.1295351 3632048
-0.12611102 -0.087682724 1.1303393 3302824
-0.12434959 -0.088457093 1.1343433 3302569
0.14982715 -0.093003593 1.1291733 3632047
-0.12638821 -0.078608975 1.1300598 3434408
-0.12352049 -0.076166779 1.1339494 3434665
0.14661881 -0.081915863 1.1285045 4026292
-0.12577948 -0.068255126 1.1297292 3631531
-0.12398916 -0.067336306 1.1336799 3631531
0.14684428 -0.073987313 1.1268798 4157366
-0.12566896 -0.061779268 1.1295258 4025255
-0.12240274 -0.05664352 1.1316109 3632304
0.14650309 -0.062209699 1.1260722 4289211
-0.11879677 -0.047735326 1.1307154 3568048
0.14353974 -0.051372468 1.1264389 4094399
0.14581279 -0.055756085 1.1278807 4224702
-0.11740693 -0.041770291 1.1287965 3764911
-0.11386181 -0.037440363 1.1311176 3895729
0.14113726 -0.04288733 1.1269932 4487616
-0.11827398 -0.023561426 1.1312412 6458567
-0.11341126 -0.027436584 1.1306998 3895996
0.14124176 -0.031888589 1.1255937 5735616
0.14815383 -0.02876991 1.1250081 9477559
-0.11777652 -0.020856768 1.132151 6852289
-0.11452585 -0.020913489 1.1321114 5933254
0.053842217 0.07760001 1.1228918 9474701
-0.025988989 -0.22600067 1.1493872 7248329
0.0068142433 -0.22818923 1.1482371 5801654
0.01484801 -0.22721714 1.1475708 5210039
0.027646849 -0.2280314 1.1487674 6328255
0.035311781 -0.22816512 1.1486739 7379645
0.046872087 -0.2282452 1.1485291 8430007
0.054801133 -0.22673619 1.1443787 8625323
-0.063850343 -0.21746826 1.1415988 9678537
-0.052944057 -0.21745548 1.1479895 4422071
-0.043600816 -0.21824828 1.1493697 2778029
-0.033870712 -0.2202324 1.1493077 2513574
-0.026304174 -0.22307551 1.1493 2315684
0.0036131013 -0.22432745 1.148958 2120102
0.015657993 -0.22453758 1.1488111 2185635
0.028816555 -0.22367233 1.1486164 2186146
0.034272823 -0.2248624 1.148584 2316696
0.049640045 -0.2229408 1.1483284 4486314
0.057180237 -0.22274035 1.1462249 5997746
0.068388678 -0.21995041 1.1468527 6063288
0.077096999 -0.21860248 1.1478434 6589614
0.085196167 -0.21896276 1.1477513 8757678
-0.069083169 -0.20541722 1.1412896 1855898
-0.062364534 -0.2079407 1.1445227 2249885
-0.054670662 -0.21025762 1.1485338 2381985
-0.046569653 -0.21250319 1.1492283 3039902
0.071169801 -0.21291526 1.1477414 2841504
0.07720159 -0.21247306 1.1476508 3302564
0.086787574 -0.2104274 1.1461308 4420011
0.096547186 -0.20990236 1.1416066 6984117
0.1060024 -0.20738493 1.1391207 6254993
-0.080038086 -0.19468454 1.1418948 2710418
-0.072323382 -0.19796965 1.1454821 2775447
-0.065603286 -0.20022693 1.1482875 2906776
0.089381687 -0.20255303 1.146786 3171492
0.097878814 -0.20141594 1.1438407 3237285
0.10618109 -0.20047967 1.1394747 3629215
-0.08275561 -0.18756495 1.1457096 2775191
-0.074647874 -0.19111751 1.148252 2906012
0.10001259 -0.19220284 1.1450603 3040421
0.10694086 -0.19074759 1.1415387 3105703
0.11280486 -0.19119489 1.1385291 2777257
-0.097904317 -0.17338413 1.1406577 2710677
-0.091160327 -0.1772745 1.1442244 2709909
-0.084973909 -0.18091217 1.1467311 2709910
0.10828096 -0.18228212 1.1448387 3368100
0.11583758 -0.18071748 1.1402981 3302561
-0.098981179 -0.16672555 1.1435765 2710421
-0.094193533 -0.1695319 1.1476942 2644886
0.11048978 -0.17451465 1.1460428 3040936
0.11855762 -0.17162302 1.1437616 3237031
0.12497375 -0.16892637 1.1406811 3368615
-0.10844417 -0.15362975 1.1401757 2776209
-0.10302922 -0.15805501 1.1449975 2841240
0.12076128 -0.16311263 1.1455563 3237287
0.12718916 -0.16116047 1.1402677 3302822
-0.10927341 -0.14682278 1.1445099 2710683
-0.1045991 -0.15010776 1.1473544 2841499
0.12962765 -0.15270838 1.1425291 3237541
0.13459671 -0.15020068 1.1385736 3237798
-0.11124816 -0.13821638 1.1448765 2907293
0.13149472 -0.14389646 1.1448202 3237797
0.13620739 -0.14159319 1.1396855 3303334
-0.11740645 -0.12654108 1.1405885 2907805
-0.11515876 -0.12802583 1.1466668 2907805
0.13823988 -0.13218839 1.1419233 3434407
-0.11772732 -0.11718348 1.1418253 3039392
-0.11506132 -0.11824459 1.1471609 3039391
0.14034486 -0.12265961 1.1414722 3500202
0.14447555 -0.11998909 1.1359047 3631274
-0.1206963 -0.10790853 1.1434417 3170979
0.14249872 -0.11236645 1.1432519 3631791
0.14582667 -0.11203722 1.1374182 3566510
-0.1209088 -0.097521231 1.144302 3105957
0.14185053 -0.10128313 1.1416916 3632305
0.14699334 -0.10265768 1.1356655 3501227
-0.12114833 -0.087566376 1.1417075 3237546
0.14153662 -0.09223707 1.1405342 3698099
0.14608224 -0.092854582 1.1354381 3698094
-0.12035599 -0.077827744 1.141632 3434923
0.14293787 -0.08297357 1.1407731 3895479
0.14506911 -0.085207492 1.1348122 3895477
-0.11979086 -0.06736432 1.1419177 3566256
0.14340644 -0.071641043 1.1417478 4027579
0.14586723 -0.071212947 1.1383678 4157882
-0.11865395 -0.05850096 1.1408701 3567024
0.14152327 -0.062089548 1.1409638 4159422
0.14579305 -0.062449653 1.1364945 4289724
-0.1161999 -0.048779026 1.1383382 3567791
-0.11299621 -0.046734165 1.1435701 3764403
0.1399661 -0.052074973 1.1391802 4356797
-0.11118033 -0.038024656 1.1371765 3830196
0.13745549 -0.042480871 1.137979 4619718
-0.10949192 -0.027082868 1.1391528 3896507
0.13357453 -0.030509003 1.1381443 4817095
0.13805033 -0.031265311 1.1348867 4948420
-0.11692833 -0.017748244 1.1400478 6916535
-0.10945369 -0.018418431 1.1396657 5210049
0.13286403 -0.024041183 1.1400639 5013440
0.13730137 -0.023774855 1.1376644 5998788
0.033771884 0.051608451 1.1348214 5859448
0.041945525 0.051484905 1.1328629 6122362
0.047544643 0.051609926 1.1357894 6319482
0.058727041 0.052806623 1.139612 5330522
0.034410145 0.055995218 1.1331518 5792108
0.042241771 0.056686737 1.1324968 5527648
0.047619101 0.055972852 1.1356523 5067354
-0.020207413 -0.22597989 1.1523145 4354997
-0.012841544 -0.22707275 1.154256 4684224
-0.0029597273 -0.22699696 1.1526601 4289976
0.0080496836 -0.22490475 1.151921 2054307
0.018469861 -0.22563541 1.1518111 2777510
0.023940369 -0.2268286 1.1517786 4026798
0.04040806 -0.22711593 1.1515778 5604271
0.044278614 -0.22553688 1.1514792 4881326
-0.039007902 -0.2153019 1.152221 3039902
-0.031069223 -0.21634224 1.1526526 2710943
-0.022598993 -0.21831042 1.1554121 2645152
-0.012728791 -0.22123429 1.1587417 2514339
-0.0027945405 -0.22132078 1.1580843 2514851
0.0071447091 -0.21903755 1.1563522 2842787
0.017007515 -0.21885514 1.1540196 2908579
0.026690003 -0.21861392 1.1543779 3039651
0.036884412 -0.21945974 1.1553862 2908578
0.046244446 -0.2187593 1.154995 2778020
0.056273263 -0.21734622 1.1525004 2646433
0.065783381 -0.22024056 1.1510401 5012145
0.077288918 -0.22172198 1.1509397 8955830
-0.051889427 -0.20665172 1.1524011 2841242
-0.042057645 -0.2088311 1.1543927 2775960
-0.033047907 -0.21020243 1.1562551 2841500
-0.023631487 -0.21242097 1.1599398 2907551
0.0080710519 -0.21223724 1.1595302 3105184
0.017289536 -0.21202967 1.1594063 3170722
0.027238712 -0.21220323 1.1592849 3302053
0.037381556 -0.21182756 1.159144 3170723
0.047899179 -0.21108994 1.158987 3105188
0.057221152 -0.21051317 1.1571351 3170467
0.066780232 -0.21059239 1.1531279 3236258
0.076957606 -0.20739029 1.1509417 3171236
-0.06831266 -0.19503158 1.151962 2906776
-0.061806858 -0.19734481 1.1530948 2907033
-0.053328343 -0.19836164 1.1567111 2841497
-0.044103384 -0.20248418 1.1598907 2775704
0.058323696 -0.20500825 1.1586646 3105443
0.067167409 -0.20516255 1.1585567 3105443
0.078007422 -0.20167477 1.157046 3105956
0.086376302 -0.19906187 1.1533191 3105956
-0.07910385 -0.18386608 1.1517513 2644884
-0.072058603 -0.187462 1.1547754 2775705
-0.063704103 -0.19039565 1.1574286 2841497
0.081727013 -0.19436324 1.1580344 3172006
0.089411274 -0.19214728 1.1568669 3040421
0.095281519 -0.18997909 1.1542231 2974628
-0.0877368 -0.17493367 1.1515826 2645144
-0.081086509 -0.17672139 1.1546142 2710425
-0.075811483 -0.17948653 1.1561468 2776216
0.098899007 -0.18139742 1.1541594 3171493
0.10387503 -0.17935327 1.1508806 3237026
-0.090605319 -0.16678753 1.1539547 2710424
-0.084224425 -0.16898331 1.1579014 2710937
0.10196479 -0.17482027 1.1571671 3302823
0.10832436 -0.17094645 1.1538056 3172005
0.11416198 -0.1679351 1.1527947 3172006
-0.09911631 -0.15534206 1.1511165 2841498
-0.094702564 -0.15778422 1.1560624 2907290
0.11099708 -0.16392449 1.1567122 3303592
0.11728485 -0.16069499 1.1551973 3237544
0.12342428 -0.15666369 1.1483228 3303337
-0.10071506 -0.14680564 1.1525859 2973342
-0.096098244 -0.1498103 1.15891 3038879
0.12105676 -0.1529787 1.1555756 3237544
0.12541075 -0.15016863 1.1508965 3303336
-0.10855137 -0.13514206 1.1516072 2973342
-0.10248384 -0.13827023 1.1561301 2973600
0.12899037 -0.14107089 1.151768 3368872
-0.10997806 -0.12721434 1.1527318 3039392
-0.10449259 -0.12795186 1.1583352 3236259
0.13047431 -0.13160482 1.1532048 3500460
0.13487093 -0.12942038 1.1473273 3434923
-0.11090671 -0.1175416 1.1529782 3170978
0.13167991 -0.12267096 1.1538279 3500719
0.1363738 -0.12035788 1.1503608 3500718
-0.1173154 -0.10635889 1.1498204 3237029
-0.11345048 -0.10760796 1.1558137 3237286
0.13689792 -0.111426 1.152849 3697329
-0.11716559 -0.097579725 1.1495447 3237543
-0.11450421 -0.096955612 1.1569957 3172263
0.13826491 -0.10235736 1.1520432 3697843
-0.11726581 -0.087849937 1.1522443 3303340
-0.11510912 -0.086658575 1.1571825 3303852
0.13822244 -0.091901809 1.1521178 3764149
-0.11720069 -0.078186035 1.1489403 3500716
-0.11435855 -0.076618358 1.1568598 3501229
0.14132307 -0.081567511 1.1503266 3764661
-0.11669741 -0.070144862 1.1486831 3566512
-0.11341295 -0.066644266 1.1528982 3632306
0.13851486 -0.071316607 1.1499418 3896764
-0.11264727 -0.057040121 1.1525888 3698357
0.13273047 -0.061109629 1.1518945 4291265
0.13647318 -0.062516749 1.1463637 4225217
-0.11088756 -0.04807746 1.1519231 3764408
0.13366812 -0.051547024 1.1509172 4554434
0.13620059 -0.051505391 1.1448802 4488640
-0.10773961 -0.037398584 1.1523504 3895997
-0.10352409 -0.034172956 1.1553979 4027323
0.13344797 -0.040780395 1.1495836 4817354
-0.10607836 -0.028005667 1.1485676 3962044
-0.10200755 -0.026687667 1.1543447 4093118
0.12437117 -0.028201327 1.1523086 5014224
0.12966633 -0.031150609 1.1483308 4751563
-0.10482001 -0.01766149 1.1468948 4290235
-0.099879459 -0.017477222 1.1513621 4158908
-0.093616545 -0.015186638 1.1546794 4028609
0.12280504 -0.02119378 1.1503311 4817874
0.12942608 -0.02118843 1.1450214 5145287
-0.097409643 -0.010941558 1.1489922 4487616
-0.091930695 -0.0082409456 1.1531073 4356800
0.11416348 -0.0085393414 1.1498243 5276623
0.120405 -0.011775777 1.1461293 5604813
0.12976842 -0.01319994 1.1446568 6720449
-0.089692809 -0.0012541637 1.154195 5671109
0.1124177 -0.0029004738 1.1510999 5802961
0.11871856 -0.0039076582 1.1469536 6787017
0.036631797 0.014227077 1.1521028 12972031
-0.018465418 0.025035597 1.1504666 5869264
0.013892405 0.020887427 1.1521848 7515376
0.021378707 0.020388342 1.152105 8764660
0.030976418 0.019778758 1.1520017 10146554
0.037591595 0.018631674 1.1519532 10870005
-0.076115221 0.03416235 1.1449127 8028800
-0.070985705 0.034438752 1.1448388 7305855
-0.014030964 0.026164435 1.1523759 5671370
-0.010714575 0.026106566 1.1523355 5869265
0.012500168 0.025701515 1.1520524 6988787
0.016922023 0.025624357 1.1519985 7185904
0.10329907 0.032959931 1.1506693 6314850
-0.069680557 0.039416708 1.1446669 8028802
0.10026411 0.036549978 1.150596 6117979
0.076387912 0.047235437 1.1425624 5593178
0.078583613 0.047197126 1.1425356 5658970
-0.018157143 -0.2153556 1.1639639 2973083
-0.012629696 -0.2165612 1.1639311 2973595
-0.0031869588 -0.21627489 1.1644689 2973598
-0.037934825 -0.20391908 1.1638591 2842012
-0.031580161 -0.2054164 1.1638249 2776219
-0.022263855 -0.20801075 1.1653118 2907806
-0.012673642 -0.20950562 1.1668713 2907807
-0.0021246029 -0.21022457 1.1669348 2973599
0.0067599672 -0.20812477 1.164088 3039136
0.017526716 -0.20730188 1.1645923 3170723
0.027496736 -0.20737743 1.1638006 3236770
0.037293032 -0.20710871 1.1630003 3170979
0.046341505 -0.2070533 1.1628834 3170980
0.053025525 -0.20550619 1.16275 3171236
-0.048876174 -0.19485499 1.1637158 2842012
-0.042188637 -0.19719087 1.1651589 2842011
-0.032602172 -0.19958469 1.166119 2842012
-0.024321035 -0.20112988 1.167601 2907805
0.022126371 -0.2033315 1.1670779 3302309
0.028142434 -0.20231602 1.1658262 3302308
0.036778964 -0.20238826 1.1643605 3171236
0.047517009 -0.20319179 1.162748 3171236
0.058185432 -0.20195258 1.164241 3105443
0.068030261 -0.20022312 1.1633946 3171492
0.074597612 -0.19848827 1.1622562 3040420
-0.069763124 -0.18339911 1.1636245 2841497
-0.061028898 -0.18628302 1.1641369 2907291
-0.052620299 -0.18903726 1.1654655 2907549
-0.045940079 -0.19027233 1.1675377 2907551
0.071291812 -0.1930598 1.1661313 3040420
0.078314357 -0.19140097 1.1640943 3106213
0.086151391 -0.18900335 1.1618133 3106214
-0.071130261 -0.17682786 1.1654382 2907290
-0.064574614 -0.17977358 1.1669474 2973340
0.082574524 -0.18435305 1.1657159 3302823
0.088628992 -0.1821499 1.1631688 3237030
0.094828069 -0.17884684 1.1631647 3237031
-0.088280156 -0.16311139 1.1632277 2841497
-0.079937279 -0.16671877 1.1637676 2842012
-0.073825352 -0.1689834 1.1662283 2907547
0.10013255 -0.17128426 1.162006 3368361
0.10525953 -0.16815205 1.1609194 3237285
-0.089658268 -0.15717189 1.1630599 2973085
-0.082847871 -0.15742955 1.1657196 3039135
0.10255257 -0.16422281 1.1608315 3368615
0.10914183 -0.16098569 1.1613742 3237799
0.11375883 -0.15776348 1.1604872 3303337
-0.096832663 -0.14410667 1.1627438 2973857
-0.091445193 -0.14768068 1.1643431 3039137
-0.085497148 -0.14858833 1.1667415 3104930
0.11127463 -0.15348542 1.1623865 3172264
0.11752854 -0.15074681 1.1608874 3238059
-0.097871192 -0.13585757 1.1635003 3039650
-0.093914084 -0.13942653 1.1665629 3105700
0.12095178 -0.14101946 1.1620283 3369132
0.12513539 -0.14132479 1.1598295 3434410
-0.10047176 -0.12722948 1.1639791 3171236
0.12299494 -0.13290274 1.1627959 3500719
0.12639053 -0.1306963 1.1614832 3435183
-0.10743341 -0.11508391 1.1619736 3302823
-0.10278296 -0.11706027 1.1646442 3171495
0.12732224 -0.12062415 1.1609752 3566514
-0.10901405 -0.1063782 1.1631776 3368873
-0.10533333 -0.10756377 1.1649141 3368875
0.13018116 -0.11151592 1.1596359 3697588
-0.10974789 -0.097264089 1.1641154 3303850
0.1319457 -0.10186765 1.1619426 3763892
0.13513826 -0.10134824 1.1584553 3698099
-0.11093082 -0.087074667 1.1627455 3435181
-0.10505433 -0.087591082 1.1650881 3435438
0.13314505 -0.091747276 1.1621834 3829942
0.13596418 -0.091337517 1.159276 3764149
-0.1097249 -0.077412985 1.1628289 3501229
0.13337289 -0.078395806 1.161764 3896505
0.13769096 -0.081421264 1.1596204 3830455
-0.10896447 -0.067582935 1.1620508 3632563
-0.1046556 -0.064226009 1.1643542 3567542
0.13110344 -0.071280733 1.1589981 4027837
0.13625419 -0.074970029 1.1576183 3896505
-0.10803668 -0.057550263 1.161521 3829940
-0.10454168 -0.057550266 1.1641445 3699127
0.12978189 -0.061608341 1.1599522 4291009
-0.10745202 -0.047439419 1.1606644 3895737
-0.10371847 -0.046594087 1.1637924 4027576
0.13024074 -0.051601648 1.1589671 4422849
-0.10616561 -0.040793259 1.1596403 4158911
-0.10159026 -0.037112325 1.1614684 4093372
0.13034436 -0.041877951 1.1581622 4817355
-0.097688153 -0.027798884 1.1606663 4093630
-0.092841245 -0.024365798 1.1629604 4094397
0.12308564 -0.03098432 1.1586375 5080014
0.12751603 -0.034333743 1.1564621 4883149
-0.095459186 -0.020276017 1.158864 4028348
-0.090891607 -0.017752022 1.1602279 4028864
0.11875319 -0.021282159 1.1579454 4949202
-0.087161936 -0.0082174912 1.1602014 4029123
-0.08287809 -0.0059904084 1.1622604 3963586
0.11284885 -0.011289604 1.1585983 5146069
0.1161809 -0.015835062 1.1560296 5080276
-0.086244397 -0.00047216564 1.158129 5342665
-0.079035886 0.0016761571 1.1619723 4882633
-0.015525988 0.0043349415 1.1610804 6070261
-0.0088474983 0.004218407 1.1609989 6528744
-0.0021690121 0.0041018799 1.1609175 8827627
0.013414124 0.0038299784 1.1607275 10340848
0.022148911 0.0030415952 1.1606408 8895736
0.029642325 0.0022112802 1.1605712 6266608
0.10401851 0.0016611964 1.1586404 5475287
0.10841835 -0.0019846335 1.1570305 5475028
-0.075486623 0.007540457 1.1597431 5999306
-0.06880825 0.0085330829 1.1596271 5540557
-0.060193233 0.011695623 1.1587516 5803727
-0.047414526 0.013300329 1.161207 4950220
-0.03847285 0.012020133 1.1611329 5016280
-0.02876468 0.01122728 1.1606338 5411294
-0.018742342 0.01098109 1.1586728 5806569
-0.0087344376 0.010870747 1.1601896 7120874
0.00087278336 0.0114685 1.1606489 12379901
0.011424334 0.010680974 1.1580114 13891069
0.021225508 0.010250226 1.157226 12969723
0.031194039 0.010341026 1.1579808 9946095
0.041265216 0.0099464431 1.1582679 10013177
0.05102893 0.011648469 1.1578494 7449069
0.057743557 0.013444066 1.1598629 5411552
0.10115545 0.0055517852 1.1570547 6526426
-0.045351334 0.018210791 1.1610276 6264275
-0.037776176 0.018803425 1.1584111 5803990
-0.028209001 0.019219257 1.1567755 5345755
-0.018182278 0.020305686 1.1566138 5412839
-0.0085771801 0.020746693 1.156978 5676266
0.00047309697 0.019741759 1.1592525 7253489
0.010277057 0.019330949 1.1572824 8436213
0.020204011 0.016895674 1.1562313 12051453
0.034700241 0.021079324 1.1559161 10082302
0.042526487 0.020203345 1.1558437 10607102
0.050995365 0.019210517 1.1557668 7515119
0.058039192 0.018515967 1.1570328 6068200
-0.0062671518 0.026230715 1.1562773 6001365
-0.0018300628 0.026153296 1.1562232 6396124
0.11074857 0.029956557 1.1546705 6447199
-0.0090620192 -0.20560358 1.1715485 3039391
-0.0014912998 -0.20511666 1.1729376 3039135
0.0099251121 -0.20593488 1.1713169 3104930
-0.037910633 -0.19393262 1.1715519 2776478
-0.031524979 -0.19487667 1.1735011 2842271
-0.021624055 -0.19661985 1.1756124 2907807
-0.012423743 -0.198623 1.1760719 2908063
-0.0024072258 -0.19961259 1.1770802 2973600
0.0079227732 -0.19882533 1.176457 3105187
0.017843641 -0.19867626 1.175406 3236773
0.027561266 -0.19752821 1.1745654 3237029
0.038506269 -0.19780269 1.1745013 3171237
0.048110802 -0.19899189 1.1721147 3171236
0.057648957 -0.19761734 1.1713731 3105444
0.066509046 -0.19631295 1.170296 3171493
-0.049910516 -0.18475533 1.1746203 2841758
-0.04184131 -0.18717766 1.1753936 2907551
-0.032915443 -0.18835104 1.1781416 2842271
-0.022236653 -0.18968877 1.1792245 2908064
-0.015508792 -0.19093055 1.1791775 2973857
0.0058568465 -0.19130334 1.1789169 3105444
0.018743258 -0.19052874 1.1787286 3237030
0.028774476 -0.19114453 1.1778196 3302823
0.038446277 -0.19053599 1.1775542 3171495
0.04782474 -0.18930539 1.1769279 3105703
0.057525981 -0.18973979 1.176609 3105703
0.067315653 -0.18947217 1.1745749 3105702
0.07565555 -0.18720153 1.1716106 3105958
-0.061076283 -0.17691359 1.1729641 2973598
-0.05305621 -0.1786373 1.1772711 2907551
-0.043172508 -0.18060954 1.1792079 2908065
0.06928353 -0.18099326 1.1777874 3237288
0.078083441 -0.18051006 1.1752144 3302823
0.086742796 -0.17871265 1.1720622 3237287
-0.070271663 -0.16545032 1.1739346 3105183
-0.062825918 -0.16885108 1.1772081 2974112
-0.054540455 -0.17113507 1.1790572 2842786
0.079721875 -0.1737026 1.1774271 3171750
0.088394783 -0.17028682 1.1758759 3172008
0.096434548 -0.16880819 1.1713916 3303081
-0.078258045 -0.15570013 1.1715404 3104930
-0.071995683 -0.15794152 1.177534 3170978
0.091042317 -0.16194959 1.1769162 3303337
0.098816365 -0.16063651 1.1745249 3368873
0.10573847 -0.15955175 1.1711966 3237543
-0.087846555 -0.14268616 1.1732578 3040164
-0.081174478 -0.14652304 1.1744159 3105701
-0.074817538 -0.15091723 1.1786849 3302822
0.10057156 -0.15157881 1.1764714 3303597
0.1079594 -0.149418 1.1719437 3238059
0.11506297 -0.14653601 1.1701261 3303852
-0.090165608 -0.13627815 1.1741992 3106213
-0.082382768 -0.13832337 1.1783885 3172007
0.10906703 -0.14023991 1.1758094 3369387
0.11695977 -0.14025758 1.1719072 3435181
-0.097174264 -0.1259982 1.171522 3237030
-0.090558603 -0.12665117 1.1757939 3237800
-0.084211588 -0.13013971 1.1781565 3303594
0.11099136 -0.13422032 1.1757972 3500972
0.11943083 -0.1301925 1.1723123 3500976
0.12410274 -0.1275202 1.1674167 3500977
-0.09813296 -0.11667125 1.173022 3237545
-0.093447797 -0.11829225 1.1770153 3303852
0.12142221 -0.12060994 1.1752398 3566772
0.12468741 -0.12112316 1.171212 3566515
-0.10047743 -0.10691944 1.1728867 3369389
0.12244157 -0.11109728 1.1749302 3763639
0.12575829 -0.11037323 1.1699736 3763639
-0.10704926 -0.093031995 1.1706196 3435181
-0.10169953 -0.096710041 1.1739061 3435438
0.12327322 -0.10002862 1.1745744 3895737
0.12819313 -0.10015696 1.1693362 3764149
-0.10642502 -0.08653491 1.1714762 3435438
-0.10101358 -0.087133072 1.1754898 3501231
0.12336913 -0.0944084 1.1743978 3961530
0.12874904 -0.090685524 1.1690338 3961528
0.13595755 -0.087523617 1.1660181 3895735
-0.10597822 -0.077275306 1.171782 3501489
-0.10167067 -0.077037945 1.1746038 3501490
0.12367605 -0.076423697 1.1738329 4159679
0.12924607 -0.081344157 1.1691855 3962041
0.13599566 -0.085290767 1.165948 3895735
-0.10633469 -0.069961548 1.170558 3501747
-0.1014387 -0.066774189 1.1730644 3567541
0.12303508 -0.070041031 1.173642 4225473
0.12666839 -0.070732057 1.169615 4159424
-0.09950541 -0.056692924 1.171658 3764919
0.12293652 -0.061169215 1.1733665 4422597
0.12684044 -0.060649924 1.1692983 4357059
-0.098848395 -0.046940498 1.1711739 3896505
-0.094037175 -0.04676424 1.1756812 3962298
0.12299273 -0.050551061 1.1730347 4685767
0.12701251 -0.050567795 1.1689817 4422851
-0.097255126 -0.037902754 1.1690421 4027836
-0.092144422 -0.036061417 1.1742318 4028094
0.12127186 -0.039997347 1.1706085 4948684
0.12707509 -0.042147398 1.1657165 4751818
-0.095441051 -0.029881492 1.1671679 4093632
-0.089737341 -0.026348829 1.1728346 4094399
0.11472958 -0.029418483 1.1724808 5080784
0.11896217 -0.030709833 1.1676644 5211343
-0.086364418 -0.018014453 1.1710483 4094402
-0.079751603 -0.014984228 1.1735075 4226244
-0.073220573 -0.013396092 1.1743753 4620744
-0.019225042 -0.013213851 1.1736817 5412064
0.0032651061 -0.013606258 1.1734076 6463211
0.011269653 -0.017582059 1.1734295 6397929
0.020965965 -0.017110713 1.1732913 6397929
0.030231357 -0.015361786 1.1731187 6003432
0.11185259 -0.020170838 1.1697276 5081042
0.1169395 -0.023536325 1.1642647 5081041
-0.078324072 -0.0073609352 1.1681151 4160963
-0.070165873 -0.0064017028 1.1732606 4752075
-0.055055812 -0.0035936311 1.1738381 4949201
-0.048318364 -0.0042733774 1.1737735 5016022
-0.038766678 -0.0055802688 1.1730255 5213659
-0.028960779 -0.0066729113 1.1723703 5411552
-0.019124739 -0.0076127201 1.1727053 5740773
-0.0090085668 -0.007770218 1.1733818 6003172
0.0011058198 -0.0079562068 1.1728586 6331366
0.011169152 -0.0081878975 1.1701361 6989552
0.021273982 -0.0083558485 1.1704128 6792432
0.031350024 -0.0085445344 1.1696399 5937640
0.039880451 -0.0077081546 1.1717565 5806054
0.050628684 -0.0065620318 1.1725844 5674725
0.057394911 -0.0055557117 1.1724669 5674983
0.10317542 -0.0088843629 1.1719875 5146841
0.10908434 -0.011228219 1.1662678 5080789
-0.074803568 0.0010277629 1.165941 4554184
-0.071305148 0.0018870533 1.1688713 4751049
-0.056012742 0.0019821748 1.1716752 4818129
-0.048581719 0.0018296838 1.1707848 5015507
-0.039086372 0.0015709773 1.1672701 5147609
-0.028997127 0.001358591 1.1658474 5346018
-0.019331738 0.00088977069 1.1683515 5937898
-0.0088946978 -3.1560659e-005 1.1684697 6462952
0.0015608771 0.00050557405 1.1674303 8303605
0.010918216 0.00020743906 1.166304 8501495
0.020746525 -0.00096724927 1.1654018 7252467
0.032073047 -0.00059597194 1.1660855 6069484
0.041248996 0.00035821646 1.1668006 6135528
0.051391944 -0.00010516495 1.1697836 5741031
0.060803059 -2.3722649e-005 1.1712503 5543655
0.070315033 0.0011381134 1.1720935 5477092
0.080400564 0.0022883341 1.1719291 5739747
0.091766305 0.0018401369 1.1717983 5280481
0.100893 -0.0010593981 1.1680781 5015513
0.10631781 -0.0031979159 1.1657667 4949463
-0.067987911 0.007609427 1.1656488 4818122
-0.058539458 0.0084372237 1.1655027 5147606
-0.049839839 0.0090299323 1.1653734 4818639
-0.041182563 0.0071417168 1.1653219 5344472
0.0035025682 0.0069204122 1.1647596 12971007
0.0079606017 0.0062842369 1.1647227 12905215
0.032532178 0.0058555007 1.1644231 5807584
0.045934856 0.0056216493 1.1642597 6004710
0.052014306 0.0064728037 1.1641557 5807083
0.060873717 0.0088603199 1.1661029 5477863
0.06940075 0.0083557814 1.1685448 5542628
0.081201382 0.0052726939 1.1718259 5673698
0.091782346 0.0069991201 1.1701363 5804766
0.097311787 0.0047252029 1.1636332 5147865
0.063995615 0.016474143 1.1636912 5412324
-0.0087834736 -0.19384131 1.1831849 3039650
-0.0023469543 -0.19459829 1.1831264 3039650
-0.028958429 -0.185592 1.1831845 2842271
-0.022188537 -0.18571012 1.1831019 2973857
-0.01186809 -0.18694162 1.1842728 2973857
-0.0021319324 -0.18882412 1.1854713 3039395
0.008549084 -0.18710002 1.1845325 3171237
0.017868586 -0.18586722 1.1836638 3237030
0.028227445 -0.18548289 1.1839919 3302569
0.036559679 -0.18577585 1.1836897 3237546
-0.048444651 -0.17477596 1.1830953 2908065
-0.040885307 -0.17587489 1.1830333 2973857
-0.032222498 -0.17775789 1.1839823 2973857
-0.022496372 -0.17979302 1.1850401 2973858
-0.014195713 -0.1807076 1.1868464 3105444
0.017503772 -0.1812607 1.1864598 3237030
0.029228143 -0.17995593 1.1862698 3302825
0.038161732 -0.17966649 1.1858391 3171754
0.047986552 -0.18040919 1.1840438 3171752
0.058327693 -0.18018477 1.1833165 3171753
0.066811547 -0.17722899 1.1827042 3237546
0.075058348 -0.17499685 1.181529 3303592
-0.059459038 -0.1651285 1.1829348 2908579
-0.051278621 -0.16737771 1.1849018 2908579
-0.041459579 -0.16898997 1.1857367 3105444
-0.032826759 -0.17087376 1.1867769 3105443
0.061811123 -0.17297783 1.185637 3303339
0.069864601 -0.1708875 1.1841352 3303082
0.078268833 -0.1689921 1.1818726 3237545
0.084238857 -0.16613154 1.1811355 3303850
-0.068293095 -0.15369248 1.1826906 3302822
-0.061726853 -0.15804054 1.1849939 3040165
-0.054643191 -0.16188993 1.1867746 3040167
0.073286861 -0.1641221 1.1852146 3303598
0.079404391 -0.16026458 1.1840746 3238061
0.087977596 -0.15841353 1.1819589 3303596
0.095695235 -0.15617774 1.1806792 3369131
-0.077892184 -0.14299525 1.1824793 3171751
-0.071511962 -0.14669417 1.1839259 3368615
-0.064639196 -0.15039556 1.1865435 3171751
0.097640812 -0.14959159 1.1819497 3369134
-0.07974644 -0.13591172 1.182282 3369130
-0.073624089 -0.13788377 1.1852671 3434922
0.098951019 -0.13990362 1.1831794 3435183
-0.081307746 -0.12724693 1.1833656 3434923
0.1018256 -0.13285638 1.1830754 3501232
0.10863031 -0.1298629 1.1822833 3435694
0.11535778 -0.12831615 1.1795597 3501232
-0.089342773 -0.11597715 1.1827829 3369646
-0.083668292 -0.11977668 1.1844968 3435182
0.11253227 -0.12065905 1.183359 3567282
0.11661815 -0.1202644 1.1811117 3567027
-0.097528219 -0.10316608 1.1814871 3501231
-0.092976272 -0.10708854 1.1843029 3435439
0.11266746 -0.11273745 1.1831102 3829686
0.1177962 -0.11007091 1.181183 3829431
-0.097470477 -0.099782526 1.1813807 3501231
-0.093008317 -0.096568845 1.1828914 3567024
0.1202688 -0.10072308 1.1813046 3830201
-0.097229883 -0.085684389 1.180938 3632818
-0.093987912 -0.0863984 1.1829201 3698612
0.12255847 -0.090176784 1.1802795 3896507
-0.097066283 -0.076097652 1.1806369 3633333
-0.093189895 -0.076273128 1.1833946 3764919
0.12256177 -0.079987444 1.1794614 4093886
-0.097367488 -0.067292541 1.1803662 3633334
-0.093273826 -0.066330299 1.1834857 3830201
0.11973202 -0.070293799 1.1799177 4291523
-0.092694372 -0.056089863 1.1816248 3896506
0.11941335 -0.059826691 1.1789727 4619975
-0.089251406 -0.04660061 1.1813326 4028348
0.11376826 -0.048232935 1.1810843 5146320
0.11814522 -0.050560888 1.1801006 4883148
-0.087391585 -0.037265878 1.1795883 3962814
-0.08235611 -0.035914425 1.1820549 3963072
0.11290779 -0.039440636 1.1793202 5146577
0.11661714 -0.04118998 1.1773264 5080527
-0.085865848 -0.028232306 1.1790013 4028607
-0.079631492 -0.026527919 1.1810032 4291526
-0.029663932 -0.025354356 1.1821978 5147865
-0.022188049 -0.0252584 1.1820996 5344731
-0.0058700098 -0.02463752 1.1818724 5345501
0.00092273951 -0.024756044 1.1817895 5739743
0.011045397 -0.027205512 1.1804029 5936862
0.020102687 -0.027361341 1.1806259 5871068
0.030338664 -0.026401296 1.1814661 5739228
0.048471969 -0.025585704 1.1812097 5213656
0.11118199 -0.030534729 1.1789644 4949970
-0.077754356 -0.019179121 1.1786156 4422856
-0.069219396 -0.014510088 1.1801804 4686797
-0.058830068 -0.013557829 1.1802003 4884690
-0.048441425 -0.015129849 1.1816179 4950486
-0.038011778 -0.016096793 1.1806813 5213659
-0.029487744 -0.017475277 1.178748 5279707
-0.019343399 -0.01877667 1.1790596 5345244
-0.0091537209 -0.017325513 1.1787957 5411808
0.00068198424 -0.018616892 1.1785085 5806052
0.0099513568 -0.021931648 1.1775842 6068964
0.02198031 -0.022517592 1.1774492 6068963
0.032067463 -0.02028469 1.1781747 6003173
0.040562849 -0.018687479 1.178894 5608417
0.050768513 -0.018856004 1.1793697 5411038
0.057644837 -0.018953778 1.180886 5279709
0.10234524 -0.018006541 1.1793635 5212630
0.10790663 -0.021747835 1.1776648 5015248
-0.065446928 -0.0089581385 1.17814 4949712
-0.058677033 -0.0090762675 1.1780574 4949713
-0.048522182 -0.0092534497 1.1779337 5016279
-0.039125968 -0.0097934529 1.1778308 5213659
-0.030488372 -0.010696284 1.1777489 5345501
0.042297624 -0.011402197 1.1768438 5871590
0.050769616 -0.010985933 1.1767229 5871847
0.061088104 -0.0088712946 1.1785265 5543139
0.068394937 -0.0078610778 1.1786878 5280225
0.092933819 -0.0082495734 1.1801026 5411294
0.098737694 -0.0098437741 1.1775316 5279196
0.070659496 -0.0028715804 1.1762164 5411556
0.080279052 -0.0013471395 1.1760464 5412066
0.091562212 -0.0015440136 1.1759087 5477344
0.09829361 -0.0039178357 1.175897 5213404
-0.00098999869 -0.1840872 1.1907859 3105189
-0.021199308 -0.17524043 1.1917679 3039906
-0.011531397 -0.17752947 1.192145 3039908
-0.0019944748 -0.17879674 1.1939688 3105447
0.0085927937 -0.17828606 1.1912333 3105702
0.0176863 -0.17721964 1.1903337 3171750
0.026677549 -0.17696351 1.1902112 3237289
0.03817185 -0.17530549 1.1900131 3237548
0.04839525 -0.17548385 1.1898884 3171752
0.057482716 -0.17564243 1.1897776 3171752
-0.048662357 -0.16334097 1.1907461 3039909
-0.04081564 -0.16418099 1.1915617 3105701
-0.032685112 -0.16691977 1.1932009 3105443
-0.023161363 -0.17243221 1.1947069 3040163
0.0076272222 -0.17205772 1.194303 3105960
0.01904365 -0.17114264 1.1941291 3105958
0.028155085 -0.16981581 1.1931713 3237545
0.038555223 -0.168971 1.1919171 3237547
0.048595045 -0.16884924 1.1912798 3237544
0.058661997 -0.16879508 1.1912341 3237545
0.067333624 -0.16699082 1.1900493 3303339
-0.059747271 -0.15372038 1.1905872 3172009
-0.051349834 -0.15695477 1.1929824 3105961
-0.042033315 -0.1592823 1.1945372 3171752
0.041998345 -0.16217303 1.1935569 3303337
0.048836794 -0.16229235 1.1934736 3303593
0.058948312 -0.16149196 1.1933198 3303594
0.068182528 -0.15907845 1.1918762 3303596
0.074994028 -0.1577751 1.1889973 3238062
-0.06698551 -0.14507556 1.1904098 3434409
-0.061239302 -0.14684956 1.1932169 3237547
-0.052927412 -0.14932781 1.1943655 3237805
0.069284655 -0.15175951 1.1928846 3238318
0.078615457 -0.14902551 1.1915598 3238572
0.088719808 -0.14904016 1.1897507 3434926
0.095214136 -0.14858717 1.1884531 3369134
-0.069156207 -0.13596997 1.1913848 3435179
-0.063218549 -0.13801037 1.1936989 3369388
0.083379008 -0.14238204 1.1924125 3500977
0.089047268 -0.13897449 1.1912335 3435186
0.094465576 -0.13918479 1.1881694 3500720
-0.077489741 -0.12509286 1.1909208 3566511
-0.071816392 -0.12801762 1.1926074 3566767
-0.064631887 -0.13068259 1.193933 3500977
0.090647519 -0.13135622 1.1914757 3501234
0.09854155 -0.12913933 1.1885545 3501490
-0.086870365 -0.11179031 1.1896249 3566770
-0.080156475 -0.11640769 1.1922848 3632306
-0.073594294 -0.1214093 1.193758 3632563
0.10051411 -0.12045472 1.1900978 3699127
0.10795132 -0.11936425 1.1878502 3633076
-0.087970622 -0.10615305 1.1904637 3566770
-0.081943929 -0.10706232 1.1934168 3763892
0.10157965 -0.11136028 1.1912131 3633335
0.10826177 -0.10935993 1.1886199 3764407
-0.087907568 -0.096020684 1.1919478 3698868
-0.083559535 -0.096670479 1.1931133 3699126
0.10235368 -0.099407867 1.1908305 3962811
0.10887567 -0.09964668 1.1895875 3830969
0.1165596 -0.10008762 1.1866685 3830714
-0.08893501 -0.086108975 1.1897738 3699126
-0.083642147 -0.086665779 1.1928023 3830712
0.10975128 -0.089707144 1.1898333 4028606
0.11786718 -0.090050459 1.1863388 3962300
-0.088184491 -0.076618433 1.1901455 3830970
-0.083248228 -0.076307617 1.1924742 3962813
0.11018508 -0.080640376 1.1901454 4291522
0.118026 -0.08047878 1.186402 4094399
-0.088312753 -0.066546977 1.1899474 3962044
-0.083412774 -0.066862248 1.1921817 4093630
0.1119486 -0.069938526 1.1895223 4554438
0.11673333 -0.070884265 1.1857554 4357059
-0.087522641 -0.056532383 1.1892437 4093886
-0.082898274 -0.055800706 1.1918302 4291009
0.11028831 -0.059388019 1.1885917 4686026
0.11627523 -0.059680499 1.1854118 4685769
-0.085804619 -0.049339715 1.1876634 4159935
-0.080725372 -0.046870906 1.1903805 4225985
0.10320913 -0.049279887 1.1892561 5015248
0.10923948 -0.050742779 1.1865567 5014991
-0.077551886 -0.037134521 1.1892965 4292037
-0.072194465 -0.039381705 1.1911817 4619977
-0.049282968 -0.032943808 1.190689 5279449
-0.041304775 -0.033083014 1.1905917 5016538
-0.028787058 -0.034441039 1.1904746 4950743
-0.019295443 -0.036282558 1.1904112 4950488
-0.010197197 -0.03628489 1.1902953 5147351
0.00026664045 -0.035517786 1.1901381 5278422
0.010782504 -0.038042944 1.1891935 5212886
0.020132629 -0.037570696 1.1881981 5278423
