# .PCD v0.7 - Point Cloud Data file format
VERSION 0.7
FIELDS x y z rgba
SIZE 4 4 4 4
TYPE F F F U
COUNT 1 1 1 1
WIDTH 1126
HEIGHT 1
VIEWPOINT 0 0 0 1 0 0 0
POINTS 1126
DATA ascii
0.14435524 -0.047653403 1.127546 4094399
0.14673942 -0.052019805 1.1288544 4224702
-0.11667851 -0.043671802 1.1335837 3764911
-0.11319353 -0.039322246 1.1359586 3895729
0.14178294 -0.039236512 1.1283308 4487616
-0.11789402 -0.02554708 1.136466 6458567
-0.11295889 -0.029304147 1.1357696 3895996
0.14163727 -0.028208576 1.1271883 5735616
0.14847362 -0.024930559 1.1265846 9477559
-0.11744102 -0.022854239 1.1374325 6852289
-0.11419072 -0.022840731 1.1373484 5933254
0.051929187 0.079425722 1.1282127 9474701
-0.021138187 -0.22633964 1.1486357 7248329
0.011684874 -0.22780138 1.1470003 5801654
0.019686546 -0.22664312 1.1462507 5210039
0.032514893 -0.22721191 1.1472582 6328255
0.040178932 -0.22718006 1.14706 7379645
0.051735286 -0.22701038 1.1467603 8430007
0.059573144 -0.22523697 1.1425419 8625323
-0.059273764 -0.2184379 1.1415517 9678537
-0.048283391 -0.21834072 1.1477959 4422071
-0.038907487 -0.21896601 1.1490333 2778029
-0.029139642 -0.22074033 1.148796 2513574
-0.021515895 -0.22342062 1.1486213 2315684
0.0084135542 -0.2240264 1.1478539 2120102
0.020457048 -0.22397636 1.1475426 2185635
0.033590622 -0.22282659 1.147194 2186146
0.03906972 -0.22389902 1.1470615 2316696
0.05438824 -0.22164494 1.1466475 4486314
0.061892956 -0.22123519 1.1444496 5997746
0.073047906 -0.21822229 1.1449943 6063288
0.081738785 -0.2167124 1.1459007 6589614
0.089841723 -0.21689779 1.1456931 8757678
-0.064762235 -0.20649719 1.1415945 1855898
-0.057948314 -0.20895115 1.1446782 2249885
-0.050153106 -0.21119586 1.1485318 2381985
-0.041997962 -0.21328375 1.1490661 3039902
0.075692639 -0.21115196 1.1460108 2841504
0.081712 -0.21057935 1.1458505 3302564
0.091231138 -0.2082952 1.1442522 4420011
0.10091451 -0.2074576 1.1396127 6984117
0.11027973 -0.20468232 1.1370615 6254993
-0.07593073 -0.19601732 1.1425964 2710418
-0.068100199 -0.1992195 1.146003 2775447
-0.061296299 -0.20139745 1.1486655 2906776
0.093668103 -0.20038462 1.1450574 3171492
0.10209821 -0.19899875 1.1420273 3237285
0.11031824 -0.19778489 1.137575 3629215
-0.078744501 -0.18904757 1.1466128 2775191
-0.070529796 -0.19248447 1.1489635 2906012
0.10405462 -0.18977301 1.1434344 3040421
0.11090179 -0.18808925 1.1398565 3105703
0.11673199 -0.18834162 1.1367596 2777257
-0.094255589 -0.17507955 1.1420957 2710677
-0.087383032 -0.17890689 1.1454806 2709909
-0.081087746 -0.182469 1.1478192 2709910
0.11210904 -0.17967585 1.1433359 3368100
0.11956806 -0.17784576 1.1387336 3302561
-0.09543182 -0.16851485 1.1451839 2710421
-0.090530194 -0.17131318 1.149171 2644886
0.11417061 -0.17189306 1.1446925 3040936
0.12214385 -0.16877809 1.1423732 3237031
0.12845904 -0.16587466 1.139272 3368615
-0.10521352 -0.15554844 1.1422168 2776209
-0.099641122 -0.15996781 1.1468613 2841240
0.12419278 -0.16026652 1.1443377 3237287
0.130505 -0.15805581 1.1390116 3302822
-0.1061259 -0.14886293 1.1467201 2710683
-0.101345 -0.15211254 1.1494246 2841499
0.13279632 -0.14960834 1.1414381 3237541
0.13765681 -0.14690435 1.137477 3237798
-0.10827568 -0.14031136 1.1473145 2907293
0.13450925 -0.14081407 1.1439103 3237797
0.13910154 -0.13829257 1.138769 3303334
-0.11473612 -0.12867375 1.1433834 2907805
-0.11237442 -0.13025066 1.1493949 2907805
0.14096662 -0.12890095 1.1411996 3434407
-0.11523635 -0.11935628 1.1448436 3039392
-0.11247561 -0.12048365 1.1501169 3039391
0.14286467 -0.11932157 1.1409444 3500202
0.14686152 -0.11643536 1.1353867 3631274
-0.11837695 -0.11018665 1.1467161 3170979
0.1448262 -0.10902885 1.1429362 3631791
0.14806604 -0.1084937 1.1370683 3566510
-0.11879566 -0.099828959 1.1478225 3105957
0.14392406 -0.097928673 1.141645 3632305
0.14901131 -0.099053346 1.1355208 3501227
-0.11927978 -0.089824036 1.1454656 3237546
0.14340439 -0.088866979 1.1407043 3698099
0.14789155 -0.089269251 1.1355354 3698094
-0.11869321 -0.080071591 1.1456079 3434923
0.14461401 -0.079583742 1.1411418 3895479
0.14670956 -0.081633046 1.1351025 3895477
-0.11834405 -0.069607928 1.1461316 3566256
0.14485785 -0.068269424 1.1423757 4027579
0.14726245 -0.067710795 1.1389744 4157882
-0.11740797 -0.060700465 1.1452771 3567024
0.14276397 -0.058744635 1.1418409 4159422
0.14697856 -0.058910031 1.1373084 4289724
-0.11519363 -0.050872389 1.1429417 3567791
-0.111962 -0.048881475 1.1481771 3764403
0.14097248 -0.048726887 1.1403135 4356797
-0.11041739 -0.039989468 1.1419662 3830196
0.13824473 -0.039163224 1.139371 4619718
-0.10893212 -0.02906289 1.1441759 3896507
0.13411587 -0.027283818 1.1398684 4817095
0.13856143 -0.027868904 1.136535 4948420
-0.11654987 -0.019912124 1.145388 6916535
-0.10906877 -0.020413823 1.1448914 5210049
0.13329618 -0.020878822 1.1419483 5013440
0.13769355 -0.020462476 1.1394972 5998788
0.032574788 0.052742958 1.1397942 5859448
0.040721551 0.052839041 1.1377254 6122362
0.046356484 0.0530155 1.1405795 6319482
0.057562739 0.054361403 1.1442807 5330522
0.033097807 0.057179824 1.1382196 5792108
0.040903449 0.058053076 1.1374774 5527648
0.046337426 0.057381034 1.1405438 5067354
-0.015318651 -0.22626346 1.1514859 4354997
-0.0079054888 -0.22724378 1.1533035 4684224
0.0019497052 -0.22692046 1.1515791 4289976
0.012901564 -0.22457752 1.1507436 2054307
0.023332292 -0.22508322 1.1504785 2777510
0.028825685 -0.22615847 1.1503457 4026798
0.045291469 -0.22609006 1.1499201 5604271
0.049126294 -0.22442701 1.1498073 4881326
-0.034338709 -0.21598926 1.1518918 3039902
-0.026374765 -0.21686992 1.1521937 2710943
-0.017827969 -0.21872053 1.1547939 2645152
-0.0078537408 -0.22150972 1.157923 2514339
0.0020701643 -0.22136921 1.1571321 2514851
0.01193455 -0.21883518 1.1553227 2842787
0.021758379 -0.21838863 1.1528647 2908579
0.031437673 -0.21794948 1.1531003 3039651
0.041660488 -0.21860099 1.1539533 2908578
0.050997488 -0.21769235 1.1534547 2778020
0.060959216 -0.21600845 1.1508613 2646433
0.07050705 -0.21866484 1.1492077 5012145
0.082038693 -0.21989799 1.1489203 8955830
-0.047395341 -0.20762208 1.1524453 2841242
-0.037493531 -0.20963696 1.1542548 2775960
-0.02843225 -0.21085876 1.1559651 2841500
-0.018921595 -0.21296087 1.1594718 2907551
0.012761472 -0.21209212 1.1586468 3105184
0.021970993 -0.2116853 1.1584057 3170722
0.031919014 -0.21164396 1.1581485 3302053
0.042048842 -0.21104905 1.1578822 3170723
0.05254551 -0.21008402 1.1576033 3105188
0.061826997 -0.20926595 1.155642 3170467
0.071329683 -0.20904858 1.1515079 3236258
0.081406586 -0.20558053 1.1492627 3171236
-0.064063422 -0.19634753 1.1524965 2906776
-0.057495534 -0.19854718 1.1534884 2907033
-0.04894866 -0.19946662 1.1569673 2841497
-0.039596368 -0.20346417 1.1599268 2775704
0.06283462 -0.2037757 1.1572855 3105443
0.071677305 -0.20373896 1.1570569 3105443
0.082419917 -0.19998688 1.155485 3105956
0.090680093 -0.19711056 1.1517098 3105956
-0.075088546 -0.18541265 1.1526905 2644884
-0.067928471 -0.18892673 1.1555359 2775705
-0.059478559 -0.19174232 1.1580087 2841497
0.085998394 -0.19262257 1.1565952 3172006
0.093617663 -0.19021693 1.1553783 3040421
0.099404216 -0.18786347 1.1527085 2974628
-0.083908655 -0.17666477 1.1528457 2645144
-0.07718128 -0.1783801 1.1557462 2710425
-0.071828805 -0.18106693 1.1571435 2776216
0.10283951 -0.17920746 1.1527983 3171493
0.10772601 -0.17698231 1.1495026 3237026
-0.086914733 -0.16863874 1.1554461 2710424
-0.080435529 -0.17078887 1.1592553 2710937
0.10580754 -0.17263791 1.1559185 3302823
0.11203759 -0.16855261 1.1525649 3172005
0.11779626 -0.16539493 1.1515477 3172006
-0.09570235 -0.15731457 1.15299 2841498
-0.091170773 -0.15977603 1.1578183 2907290
0.11460195 -0.16154452 1.1555997 3303592
0.12079912 -0.15814751 1.1540778 3237544
0.12675753 -0.15382811 1.1472191 3303337
-0.097459666 -0.14885049 1.1546801 2973342
-0.092694327 -0.15190178 1.1608704 3038879
0.12441302 -0.15036343 1.154587 3237544
0.12864237 -0.14735356 1.149918 3303336
-0.10555185 -0.13733703 1.1540792 2973342
-0.09935841 -0.14043909 1.1584467 2973600
0.13204178 -0.13820423 1.1509548 3368872
-0.1071291 -0.12946969 1.1554081 3039392
-0.1015529 -0.13021974 1.1609195 3236259
0.13334626 -0.12874451 1.1525935 3500460
0.13761488 -0.1263313 1.1467112 3434923
-0.10825716 -0.11982724 1.1558937 3170978
0.13437244 -0.11980382 1.1534101 3500719
0.13896865 -0.11731153 1.1499362 3500718
-0.11494202 -0.10871349 1.1530842 3237029
-0.11096976 -0.11001842 1.1589947 3237286
0.13933925 -0.10843055 1.152626 3697329
-0.11498038 -0.099929102 1.1530125 3237543
-0.11223059 -0.099421188 1.1604401 3172263
0.14050433 -0.099318601 1.1520151 3697843
-0.11524779 -0.090268813 1.1559405 3303340
-0.11304895 -0.08914648 1.1608763 3303852
0.14024337 -0.088870868 1.1523355 3764149
-0.115431 -0.080531776 1.1528635 3500716
-0.11251386 -0.079087764 1.1607792 3501229
0.14310139 -0.078434117 1.1507462 3764661
-0.11510023 -0.072477899 1.1527883 3566512
-0.11183242 -0.069006681 1.1570405 3632306
0.14007357 -0.068239227 1.1506392 3896764
-0.11127289 -0.059383824 1.1569464 3698357
0.13410351 -0.058205817 1.152907 4291265
0.13779861 -0.059404355 1.1472957 4225217
-0.10971109 -0.050372668 1.1564677 3764408
0.13482665 -0.04860533 1.152142 4554434
0.1372745 -0.048369884 1.1460747 4488640
-0.10678246 -0.039641898 1.1571035 3895997
-0.10259413 -0.036398631 1.1601698 4027323
0.13436218 -0.037817828 1.1510643 4817354
-0.10537091 -0.030130595 1.1535205 3962044
-0.10124969 -0.028860331 1.1592724 4093118
0.12506154 -0.025501564 1.1542035 5014224
0.13036232 -0.028244384 1.150088 4751563
-0.10435315 -0.019725986 1.1520742 4290235
-0.099356644 -0.019540004 1.1564788 4158908
-0.093098231 -0.017193928 1.1597657 4028609
0.12332162 -0.018485062 1.1524119 4817874
0.12986749 -0.018215604 1.1470165 5145287
-0.097057395 -0.012900032 1.1542304 4487616
-0.091580346 -0.010179333 1.1583346 4356800
0.11441009 -0.0060093105 1.1523163 5276623
0.12066685 -0.009025529 1.1484642 5604813
0.13003701 -0.010215327 1.1468349 6720449
-0.089474931 -0.0031735152 1.1595562 5671109
0.11256398 -0.00044000149 1.153747 5802961
0.11882705 -0.0012163445 1.149495 6787017
0.036456097 0.015040711 1.1561549 12972031
-0.018873192 0.024707563 1.1555023 5869264
0.013585143 0.021211244 1.1566942 7515376
0.021078471 0.0208738 1.1565036 8764660
0.030684542 0.020471461 1.1562589 10146554
0.037321057 0.019467048 1.156096 10870005
-0.076772764 0.032729864 1.1509281 8028800
-0.071651682 0.03311716 1.1507927 7305855
-0.014437608 0.025886126 1.1573788 5671370
-0.011121603 0.025899902 1.1572931 5869265
0.012090444 0.02599635 1.1566931 6988787
0.016511785 0.026014715 1.1565789 7185904
0.10268935 0.035218269 1.1542783 6314850
-0.07045383 0.038124427 1.1507204 8028802
0.099578962 0.038743556 1.1543294 6117979
0.075375557 0.04910098 1.1468655 5593178
0.077571005 0.0491101 1.1468087 5658970
-0.01333208 -0.21587063 1.1633531 2973083
-0.0077815149 -0.21695706 1.1632189 2973595
0.0016596261 -0.2164821 1.1636381 2973598
-0.033345111 -0.20485884 1.1637785 2842012
-0.026961476 -0.2062192 1.163625 2776219
-0.017573204 -0.20864816 1.1649271 2907806
-0.0079332031 -0.20997402 1.1663239 2907807
0.0026284829 -0.21046928 1.1662309 2973599
0.011427059 -0.20811522 1.1633167 3039136
0.022180067 -0.20707497 1.1636975 3170723
0.032137655 -0.20691967 1.1627723 3236770
0.041914236 -0.20642376 1.1618489 3170979
0.050957091 -0.20617282 1.1616135 3170980
0.057604689 -0.20448095 1.1614279 3171236
-0.044475298 -0.1960291 1.1639926 2842012
-0.037720997 -0.19825472 1.1652918 2842011
-0.028074104 -0.20046529 1.1660684 2842012
-0.019742768 -0.20186758 1.1674041 2907805
0.026729051 -0.20306611 1.1662145 3302309
0.0327047 -0.20189393 1.1649073 3302308
0.041319899 -0.2017481 1.163326 3171236
0.052049283 -0.20228502 1.161553 3171236
0.06270884 -0.20085366 1.1629333 3105443
0.072502621 -0.19889565 1.1619974 3171492
0.079015844 -0.19699533 1.1608132 3040420
-0.065597475 -0.18502191 1.1644467 2841497
-0.056798413 -0.18773013 1.1647756 2907291
-0.048316374 -0.19033459 1.1659278 2907549
-0.041583855 -0.19147468 1.1678817 2907551
0.075650334 -0.19172978 1.1648579 3040420
0.08260785 -0.18987489 1.1627675 3106213
0.090360746 -0.1872586 1.1604398 3106214
-0.067077249 -0.17852506 1.1664319 2907290
-0.060441077 -0.18136458 1.1677846 2973340
0.086740963 -0.18277726 1.1644975 3302823
0.092712283 -0.18038717 1.1619228 3237030
0.098839998 -0.17695352 1.161914 3237031
-0.084540106 -0.16512968 1.164771 2841497
-0.076116703 -0.16856998 1.1651156 2842012
-0.069925345 -0.17076024 1.1674415 2907547
0.10396811 -0.16925481 1.1608629 3368361
0.10901277 -0.16598973 1.1597823 3237285
-0.086044796 -0.15921861 1.1647609 2973085
-0.079194613 -0.1593926 1.1673234 3039135
0.10622295 -0.16211808 1.1598222 3368615
0.11274961 -0.15875471 1.1603534 3237799
0.11728533 -0.15541513 1.1594813 3303337
-0.093495607 -0.14630544 1.1648463 2973857
-0.088012829 -0.14979991 1.1662898 3039137
-0.082014658 -0.1506359 1.1685872 3104930
0.11473816 -0.15123615 1.1615131 3172264
0.12091203 -0.14833088 1.1599959 3238059
-0.094696634 -0.13810009 1.1658098 3039650
-0.090623759 -0.1416539 1.1687351 3105700
0.1241456 -0.13856183 1.1613193 3369132
0.12830409 -0.1387269 1.1590587 3434410
-0.097470969 -0.12954278 1.1665251 3171236
0.12602824 -0.13042337 1.1622498 3500719
0.1293584 -0.12811525 1.1609443 3435183
-0.10471299 -0.11750513 1.1648974 3302823
-0.099985838 -0.11944328 1.1674591 3171495
0.13007134 -0.11801647 1.1606604 3566514
-0.10645939 -0.10886532 1.166326 3368873
-0.10273108 -0.11001209 1.1679854 3368875
0.13271973 -0.1088208 1.1594974 3697588
-0.10737149 -0.099793091 1.167487 3303850
0.13431281 -0.099193133 1.1620061 3763892
0.13744555 -0.098525152 1.1584899 3698099
-0.10878683 -0.089602195 1.1663722 3435181
-0.10286917 -0.090047382 1.1686239 3435438
0.13530257 -0.089057803 1.1624683 3829942
0.13807228 -0.08852081 1.1595342 3764149
-0.107783 -0.079921529 1.1666663 3501229
0.13524425 -0.075698376 1.1623592 3896505
0.13959506 -0.078580648 1.1600882 3830455
-0.10723989 -0.070062116 1.166109 3632563
-0.10297124 -0.066668391 1.1684331 3567542
0.13278815 -0.068571121 1.1597912 4027837
0.13799576 -0.072116852 1.1582571 3896505
-0.10653034 -0.060002368 1.1658021 3829940
-0.1030004 -0.059988674 1.1683785 3699127
0.13127701 -0.058953788 1.1609892 4291009
-0.10616992 -0.049864233 1.1651754 3895737
-0.10241233 -0.049012218 1.1682725 4027576
0.13151205 -0.048919454 1.1602331 4422849
-0.10503753 -0.043170229 1.1642904 4158911
-0.10051581 -0.03943596 1.1661435 4093372
0.13140044 -0.039179724 1.1596552 4817355
-0.096821502 -0.030025393 1.1655086 4093630
-0.092016697 -0.026543863 1.1678182 4094397
0.1239218 -0.028457195 1.1604819 5080014
0.12839124 -0.031660143 1.1581701 4883149
-0.094775945 -0.022416994 1.1638538 4028348
-0.090244062 -0.019828513 1.165216 4028864
0.11937749 -0.018836141 1.1600749 4949202
-0.086716138 -0.010218598 1.1653636 4029123
-0.082452118 -0.0079490319 1.1674173 3963586
0.11327416 -0.008989498 1.1610402 5146069
0.1166653 -0.013402179 1.1583216 5080276
-0.085989982 -0.0024095476 1.1634613 5342665
-0.078776062 -0.00019770861 1.1672583 4882633
-0.015354235 0.0038339123 1.1655879 6070261
-0.0086765196 0.0038616583 1.1654153 6528744
-0.0019988082 0.0038894042 1.1652428 8827627
0.01358252 0.0039541423 1.16484 10340848
0.022329921 0.0033543184 1.1646192 8895736
0.029837452 0.0026857257 1.164431 6266608
0.10417525 0.0037657171 1.161503 5475287
0.10862814 0.0002527535 1.1597499 5475028
-0.075381666 0.0057909787 1.1651204 5999306
-0.068727836 0.0069281235 1.1649393 5540557
-0.060193956 0.01029297 1.1640242 5803727
-0.047419243 0.012112334 1.166347 4950220
-0.038454514 0.011025056 1.1661246 5016280
-0.028739605 0.010451049 1.1654785 5411294
-0.018742193 0.010464013 1.1633797 5806569
-0.0087142922 0.010531865 1.1647608 7120874
0.00088366121 0.011323422 1.1651068 12379901
0.011412194 0.010822259 1.162312 13891069
0.02120854 0.010618813 1.1613868 12969723
0.031182393 0.010904513 1.1620116 9946095
0.041262627 0.010718115 1.1621559 10013177
0.050981779 0.012637079 1.1616483 7449069
0.057684254 0.01452823 1.1636142 5411552
0.10120962 0.0076301023 1.1600469 6526426
-0.045462266 0.01706849 1.1662555 6264275
-0.03793788 0.017882884 1.1635536 5803990
-0.028404914 0.0185403 1.1618016 5345755
-0.018406384 0.019843616 1.1615328 5412839
-0.0088085681 0.020480677 1.1617799 5676266
0.00029120408 0.019616418 1.1639102 7253489
0.010073639 0.019460395 1.1618012 8436213
0.020034162 0.017262228 1.1605619 12051453
0.034433655 0.021760054 1.160153 10082302
0.042274833 0.021052971 1.1599565 10607102
0.050760835 0.0202429 1.1597441 7515119
0.05783442 0.019669481 1.1609001 6068200
-0.006624043 0.026027441 1.1611774 6001365
-0.0021874681 0.026045874 1.1610627 6396124
0.11025453 0.032282457 1.1581088 6447199
-0.0043403972 -0.20610531 1.1710432 3039391
0.0032367939 -0.20548946 1.172343 3039135
0.014644528 -0.20602643 1.1705525 3104930
-0.033424936 -0.19505502 1.1717024 2776478
-0.026994701 -0.19590767 1.1735442 2842271
-0.017031286 -0.19748789 1.1754827 2907807
-0.007785501 -0.19930463 1.1757731 2908063
0.0022624908 -0.20010361 1.1766251 2973600
0.012564149 -0.19908215 1.1758839 3105187
0.022464324 -0.19869736 1.1747054 3236773
0.032143235 -0.19732332 1.1737634 3237029
0.04308968 -0.19736293 1.1735479 3171237
0.052683372 -0.19829157 1.1710072 3171236
0.062179472 -0.19669724 1.1701717 3105444
0.070994586 -0.19517973 1.1690081 3171493
-0.045571595 -0.18620908 1.1751438 2841758
-0.037443444 -0.18847618 1.1757531 2907551
-0.028457999 -0.1895224 1.1783544 2842271
-0.017739609 -0.19065697 1.1792641 2908064
-0.010988435 -0.19175367 1.1790988 2973857
0.010374723 -0.1916649 1.1785467 3105444
0.023238227 -0.19061169 1.178206 3237030
0.033266731 -0.19099234 1.17715 3302823
0.042919062 -0.19017184 1.1767709 3171495
0.052260127 -0.18872747 1.1760495 3105703
0.061963055 -0.1889475 1.1755921 3105703
0.071716085 -0.18842424 1.1734352 3105702
0.079964958 -0.18590833 1.1704148 3105958
-0.056921236 -0.17857085 1.17382 2973598
-0.048808344 -0.18022254 1.1779789 2907551
-0.038859732 -0.18202806 1.1797378 2908065
0.073549435 -0.17998205 1.1768194 3237288
0.082301088 -0.17925194 1.1741421 3302823
0.090876684 -0.17719784 1.1709185 3237287
-0.066341095 -0.1673317 1.1751807 3105183
-0.058781318 -0.17064792 1.1782746 2974112
-0.050425097 -0.17279705 1.1799599 2842786
0.08382646 -0.17246419 1.1764919 3171750
0.09240362 -0.16882932 1.1749066 3172008
0.1003482 -0.1670762 1.1703521 3303081
-0.074562572 -0.1577011 1.1731218 3104930
-0.068172783 -0.15994675 1.1789777 3170978
0.094889544 -0.16046391 1.176107 3303337
0.10260072 -0.15893042 1.1736444 3368873
0.10945214 -0.15762156 1.170251 3237543
-0.084397726 -0.14493769 1.1752708 3040164
-0.07763128 -0.14865731 1.1762501 3105701
-0.07112544 -0.15301275 1.1803304 3302822
0.10419192 -0.14988488 1.1757793 3303597
0.11146987 -0.1474628 1.1712061 3238059
0.11848572 -0.14438874 1.1693627 3303852
-0.086837679 -0.13860409 1.1763928 3106213
-0.07895679 -0.14057948 1.1804296 3172007
0.11243754 -0.13835521 1.1752709 3369387
0.12027457 -0.13811427 1.1712652 3435181
-0.09409675 -0.12841658 1.1740506 3237030
-0.08741077 -0.1290272 1.1782179 3237800
-0.08096005 -0.13243347 1.1804138 3303594
0.11423471 -0.13229731 1.1753745 3500972
0.12253906 -0.1280109 1.1718735 3500976
0.12708616 -0.12512694 1.1669805 3500977
-0.095230371 -0.11914943 1.1757815 3237545
-0.090457797 -0.12076229 1.1796732 3303852
0.12436883 -0.11845846 1.1749984 3566772
0.12758845 -0.11880854 1.1709167 3566515
-0.097780719 -0.10944929 1.1759059 3369389
0.12518388 -0.10892162 1.1748984 3763639
0.12841627 -0.10801242 1.1699167 3763639
-0.10467322 -0.095656261 1.1740524 3435181
-0.099202804 -0.09929461 1.1771805 3435438
0.12577796 -0.097832486 1.1747912 3895737
0.13062707 -0.097734563 1.1694869 3764149
-0.10417382 -0.089168936 1.1750528 3435438
-0.098696403 -0.089744456 1.1789792 3501231
0.12575342 -0.092208914 1.1747453 3961530
0.13097978 -0.088248961 1.1693993 3961528
0.1380782 -0.084865138 1.1663635 3895735
-0.1039174 -0.079911478 1.1755698 3501489
-0.099577427 -0.079647809 1.178339 3501490
0.12567484 -0.07421349 1.1745983 4159679
0.13128258 -0.078905143 1.1697634 3962041
0.13806844 -0.082630955 1.1663452 3895735
-0.10444415 -0.072580591 1.1745223 3501747
-0.099582188 -0.069348529 1.1770377 3567541
0.12489744 -0.067843229 1.1745657 4225473
0.12848881 -0.06836319 1.1704758 4159424
-0.097880498 -0.05919848 1.1758426 3764919
0.12460884 -0.058971528 1.1744998 4422597
0.12844476 -0.058275051 1.1703933 4357059
-0.097435117 -0.049425673 1.1755787 3896505
-0.092567191 -0.049251381 1.1800249 3962298
0.12443753 -0.048349749 1.1744162 4685767
0.12840071 -0.048186913 1.170311 4422851
-0.096061394 -0.040309068 1.1736386 4027836
-0.090919688 -0.038479947 1.1788018 4028094
0.12246228 -0.037781738 1.1722612 4948684
0.12824163 -0.039693717 1.1672437 4751818
-0.094442062 -0.032209702 1.1719292 4093632
-0.088736482 -0.028688505 1.1776011 4094399
0.11572565 -0.02739092 1.1744676 5080784
0.11991786 -0.028479837 1.1695666 5211343
-0.085564166 -0.020244993 1.1759663 4094402
-0.078983285 -0.017132312 1.1784079 4226244
-0.072475724 -0.015425883 1.1792263 4620744
-0.018510547 -0.014076926 1.1778221 5412064
0.0039769914 -0.013983488 1.177241 6463211
0.012062801 -0.01778724 1.1770637 6397929
0.021744264 -0.01710628 1.1768082 6397929
0.030967645 -0.015156761 1.176554 6003432
0.11261757 -0.018145382 1.1719702 5081042
0.11769851 -0.021274239 1.166363 5081041
-0.077790327 -0.0093574598 1.1731776 4160963
-0.069584161 -0.0083440393 1.1782355 4752075
-0.054529883 -0.0052287132 1.1786786 4949201
-0.047781177 -0.0057630464 1.1785089 5016022
-0.038215335 -0.0068483949 1.177604 5213659
-0.028398577 -0.0077163428 1.1767935 5411552
-0.018541295 -0.0084538162 1.1769761 5740773
-0.0084157083 -0.0084113181 1.1775147 6003172
0.0016922094 -0.0083695427 1.1768533 6331366
0.01171984 -0.00832358 1.1739931 6989552
0.021828815 -0.0082824975 1.174132 6792432
0.03189503 -0.0082384497 1.1732216 5937640
0.040434286 -0.0072697252 1.175244 5806054
0.051166441 -0.0059143007 1.1759561 5674725
0.057907794 -0.0047615469 1.1757725 5674983
0.1037372 -0.0071017891 1.1746091 5146841
0.10961489 -0.0091860443 1.1687582 5080789
-0.074476935 -0.00084751099 1.1711543 4554184
-0.070957415 1.8015504e-005 1.1740572 4751049
-0.055633307 0.00037403405 1.1766599 4818129
-0.048213646 0.00040061772 1.1756679 5015507
-0.03876413 0.00042582303 1.1720226 5147609
-0.028693154 0.00046151131 1.1704619 5346018
-0.018986572 0.00014089793 1.1728261 5937898
-0.0085318461 -0.00056026876 1.1727842 6462952
0.0018948838 0.00022350252 1.1716194 8303605
0.011240063 0.00015103072 1.1703626 8501495
0.021077549 -0.00079271942 1.1693031 7252467
0.032402098 -0.00019608438 1.1698452 6069484
0.041564949 0.00093661994 1.1704609 6135528
0.05175541 0.00062052906 1.1732976 5741031
0.061182003 0.00086852163 1.1746411 5543655
0.070678174 0.002212964 1.1753852 5477092
0.080734111 0.0035813525 1.1751144 5739747
0.092103891 0.0033786371 1.1748226 5280481
0.10123748 0.00076122582 1.1709148 5015513
0.10667375 -0.0012070686 1.1684822 4949463
-0.06780564 0.0058828965 1.1709263 4818122
-0.058379546 0.0069150329 1.1706744 5147606
-0.049696885 0.0076958537 1.1704439 4818639
-0.041003395 0.0059942603 1.1702336 5344472
0.0036645839 0.0067384094 1.1690745 12971007
0.0081340643 0.0061984137 1.1689637 12905215
0.032702789 0.0063004941 1.1683286 5807584
0.046103917 0.0063561723 1.1679822 6004710
0.052162144 0.0073388815 1.1678177 5807083
0.060995389 0.0098689049 1.1697029 5477863
0.069563866 0.0094897896 1.1720191 5542628
0.081470601 0.0065836981 1.1750705 5673698
0.09198878 0.0085739121 1.1732819 5804766
0.097474888 0.0065696165 1.1666546 5147865
0.063923314 0.017601363 1.1674292 5412324
-0.00414907 -0.1946125 1.1829474 3039650
0.0023005148 -0.19523057 1.1827861 3039650
-0.024490889 -0.18679723 1.1834078 2842271
-0.01772178 -0.1867691 1.1832328 2973857
-0.0073626414 -0.18780717 1.1842376 2973857
0.0024264399 -0.189509 1.1852627 3039395
0.013054997 -0.18753639 1.1842232 3171237
0.022333745 -0.18608546 1.1832603 3237030
0.032685779 -0.18548815 1.1834601 3302569
0.041017391 -0.18559639 1.1830407 3237546
-0.044199295 -0.17639977 1.1838304 2908065
-0.036620114 -0.17733561 1.1836425 2973857
-0.027907457 -0.17905505 1.1844323 2973857
-0.018127136 -0.18090639 1.1853131 2973858
-0.0097850747 -0.18168545 1.1869873 3105444
0.021910731 -0.18155375 1.1861681 3237030
0.033601403 -0.17999539 1.1858535 3302825
0.042520188 -0.17950571 1.1853114 3171754
0.052332845 -0.17999707 1.1833693 3171752
0.06265603 -0.17953551 1.1825105 3171753
0.071066737 -0.17638624 1.1818554 3237546
0.079247929 -0.17395222 1.1806238 3303592
-0.05541499 -0.1669881 1.184042 2908579
-0.047162913 -0.16910742 1.1858473 2908579
-0.037301637 -0.17052898 1.1865139 3105444
-0.028617691 -0.17225194 1.1873953 3105443
0.066018909 -0.17231169 1.1849531 3303339
0.074005328 -0.17001596 1.1833942 3303082
0.082336031 -0.16788997 1.1810656 3237545
0.088233992 -0.16488653 1.1803168 3303850
-0.064489745 -0.15574037 1.1841831 3302822
-0.05780264 -0.1599997 1.1862966 3040165
-0.050615922 -0.16373745 1.1878926 3040167
0.077299289 -0.16320598 1.1845865 3303598
0.083318233 -0.15919358 1.1834564 3238061
0.091820814 -0.15711173 1.1812714 3303596
0.099471495 -0.15468293 1.1799423 3369131
-0.074313335 -0.14524812 1.1843498 3171751
-0.067837588 -0.14884275 1.1856247 3368615
-0.060853302 -0.15245646 1.1880635 3171751
0.10129563 -0.14808804 1.1813412 3369134
-0.07631845 -0.13820302 1.1843432 3369130
-0.070115611 -0.14011279 1.1872 3434922
0.10241889 -0.13840541 1.1827801 3435183
-0.078046314 -0.12960091 1.1856505 3434923
0.10514317 -0.13129801 1.1828034 3501232
0.11187201 -0.12814263 1.1819917 3435694
0.11852746 -0.12639017 1.1792163 3501232
-0.086323455 -0.11849447 1.1854386 3369646
-0.080547437 -0.12221089 1.1869876 3435182
0.11559425 -0.11888511 1.1832312 3567282
0.11963969 -0.11835151 1.1809398 3567027
-0.094793111 -0.10583417 1.1845521 3501231
-0.090121552 -0.10972291 1.1872147 3435439
0.11555965 -0.11095878 1.1831665 3829686
0.12060431 -0.10813961 1.1812345 3829431
-0.094807893 -0.10244861 1.1845244 3501231
-0.090393871 -0.099176414 1.1860507 3567024
0.12288154 -0.098746538 1.1815426 3830201
-0.09486948 -0.088342071 1.1844093 3632818
-0.091586307 -0.089032546 1.1863309 3698612
0.12493494 -0.088132925 1.1807349 3896507
-0.094911359 -0.078749627 1.1843309 3633333
-0.090994626 -0.078906275 1.1870321 3764919
0.12471306 -0.077929616 1.1801559 4093886
-0.095401064 -0.069949016 1.1842707 3633334
-0.091286048 -0.068972275 1.1873575 3830201
0.12168694 -0.068311661 1.1808769 4291523
-0.09094736 -0.058681462 1.1857297 3896506
0.12113561 -0.057834629 1.180182 4619975
-0.087708741 -0.049116764 1.1856146 4028348
0.11527786 -0.046415839 1.1826395 5146320
0.11968881 -0.048626583 1.1815436 4883148
-0.086069472 -0.039706614 1.1840653 3962814
-0.081030071 -0.038305663 1.186496 3963072
0.11420882 -0.037605371 1.1810936 5146577
0.11792634 -0.039228607 1.1790104 5080527
-0.084741943 -0.030631408 1.1836702 4028607
-0.078517847 -0.028841376 1.1856288 4291526
-0.028574251 -0.026631176 1.1861887 5147865
-0.021104086 -0.02637367 1.1859937 5344731
-0.00480734 -0.025400072 1.185565 5345501
0.0019846195 -0.025371857 1.1853895 5739743
0.012136473 -0.027572259 1.1838119 5936862
0.021197246 -0.027540147 1.1839112 5871068
0.031421382 -0.026381895 1.184638 5739228
0.049528334 -0.02517432 1.1841607 5213656
0.11229168 -0.028732419 1.1809696 4949970
-0.076828398 -0.021400906 1.1833894 4422856
-0.068372674 -0.016588546 1.1849502 4686797
-0.058006331 -0.015415795 1.1848547 4884690
-0.047568478 -0.016798474 1.1860974 4950486
-0.037134681 -0.017520979 1.1850004 5213659
-0.028610941 -0.018672332 1.1829226 5279707
-0.01843819 -0.019764103 1.1830692 5345244
-0.0082858149 -0.01809039 1.1827043 5411808
0.0015699649 -0.01916486 1.1822568 5806052
0.010893322 -0.022259019 1.1811323 6068964
0.022928936 -0.022585191 1.1808244 6068963
0.032975994 -0.020155229 1.1814684 6003173
0.04144505 -0.018394426 1.1821125 5608417
0.051657569 -0.018356383 1.1824487 5411038
0.058554612 -0.018342689 1.1838712 5279709
0.10320013 -0.016408004 1.1817794 5212630
0.10881499 -0.019989572 1.1799198 5015248
-0.064745992 -0.010911681 1.1829908 4949712
-0.057976879 -0.010883555 1.1828158 4949713
-0.047823213 -0.01084137 1.1825534 5016279
-0.038420025 -0.011178471 1.1823134 5213659
-0.029767323 -0.011894882 1.182096 5345501
0.042998143 -0.011028282 1.1802107 5871590
0.05145707 -0.010428868 1.1799874 5871847
0.061752681 -0.0081371441 1.1817034 5543139
0.069038212 -0.0069754571 1.1817915 5280225
0.093596958 -0.0068735704 1.1828717 5411294
0.099397182 -0.0082837269 1.1801873 5279196
0.071163349 -0.0018829107 1.1794081 5411556
0.080745533 -0.00015028566 1.1791464 5412066
0.092027381 -0.00010340661 1.1788548 5477344
0.098806344 -0.0023323298 1.1786983 5213404
0.003541559 -0.18487322 1.1906712 3105189
-0.016833656 -0.17648429 1.1921281 3039906
-0.0071155448 -0.17857489 1.1923232 3039908
0.0024700379 -0.17968053 1.1939905 3105447
0.013005672 -0.17888109 1.1911277 3105702
0.022061568 -0.17760056 1.190133 3171750
0.031042922 -0.1771501 1.1898974 3237289
0.04249607 -0.17524335 1.189586 3237548
0.052718282 -0.17520088 1.1893219 3171752
0.061804693 -0.17516312 1.189087 3171752
-0.044551946 -0.16515231 1.1917493 3039909
-0.036678862 -0.16584359 1.1924411 3105701
-0.028470863 -0.16844572 1.1939079 3105443
-0.018813681 -0.17378736 1.1951579 3040163
0.011951797 -0.17274755 1.1943552 3105960
0.023343027 -0.17158557 1.1940515 3105958
0.032410577 -0.17004304 1.1930045 3237545
0.042772472 -0.16894795 1.1916329 3237547
0.052797817 -0.16859752 1.1908658 3237544
0.062859841 -0.16832779 1.190688 3237545
0.071474575 -0.16631216 1.1894311 3303339
-0.055837557 -0.15576905 1.191963 3172009
-0.04734195 -0.15887837 1.1941702 3105961
-0.037958134 -0.16104221 1.1955465 3171752
0.046094298 -0.16211796 1.193386 3303337
0.052931957 -0.16208954 1.1932092 3303593
0.063021377 -0.16107051 1.1929404 3303594
0.072182164 -0.15842795 1.1914316 3303596
0.078924611 -0.15691337 1.1884941 3238062
-0.063257463 -0.14727867 1.1920842 3434409
-0.057437256 -0.14899436 1.1947727 3237547
-0.049060166 -0.15132086 1.1957526 3237805
0.073144123 -0.1511125 1.1925967 3238318
0.082396388 -0.14815031 1.1912129 3238572
0.092473008 -0.1479077 1.1892703 3434926
0.098937958 -0.14728647 1.1878978 3369134
-0.06560529 -0.13824645 1.1933012 3435179
-0.059594862 -0.14021289 1.195488 3369388
0.087030657 -0.14142837 1.1921581 3500977
0.092609383 -0.13787439 1.1909842 3435186
0.0979883 -0.13789813 1.1878446 3500720
-0.074170947 -0.12754157 1.1932029 3566511
-0.068414807 -0.13038306 1.1947451 3566767
-0.061158396 -0.13292429 1.1959126 3500977
0.094052501 -0.13023141 1.191384 3501234
0.10185736 -0.12777971 1.1884112 3501490
-0.083845742 -0.11441551 1.1923436 3566770
-0.077000476 -0.11894915 1.1948053 3632306
-0.0703151 -0.12384256 1.1960738 3632563
0.10366816 -0.11909312 1.1901314 3699127
0.11104925 -0.11779261 1.1878117 3633076
-0.085052498 -0.10882393 1.1933287 3566770
-0.078968041 -0.10967272 1.1961797 3763892
0.10455773 -0.11000632 1.1914456 3633335
0.11116012 -0.10780447 1.1888115 3764407
-0.085181825 -0.098729625 1.1950492 3698868
-0.080805495 -0.09931343 1.1961415 3699126
0.10507529 -0.098034464 1.1913331 3962811
0.11158317 -0.098105364 1.1899986 3830969
0.11923385 -0.098314703 1.1869686 3830714
-0.086446933 -0.088794358 1.193122 3699126
-0.081102438 -0.089308247 1.1960663 3830712
0.11225317 -0.088157788 1.1904658 4028606
0.12032572 -0.088247016 1.186857 3962300
-0.0858908 -0.079301141 1.1937062 3830970
-0.080930635 -0.078939222 1.195976 3962813
0.11250075 -0.079093501 1.1909846 4291522
0.12028439 -0.078678161 1.1871426 4094399
-0.086233228 -0.069232814 1.193746 3962044
-0.081297472 -0.069495261 1.1959074 4093630
0.11403044 -0.068344936 1.1905894 4554438
0.11878178 -0.069100976 1.1867384 4357059
-0.085663304 -0.059190046 1.1932671 4093886
-0.081020221 -0.058420096 1.1958085 4291009
0.11213637 -0.057813484 1.1899287 4686026
0.11808385 -0.057904556 1.1866636 4685769
-0.08411856 -0.051927716 1.1918333 4159935
-0.079055429 -0.049414825 1.1945399 4225985
0.1048563 -0.047876615 1.1909235 5015248
0.11087839 -0.049147736 1.1881109 5014991
-0.076102264 -0.039590519 1.1936426 4292037
-0.070673443 -0.041766096 1.1954036 4619977
-0.047911108 -0.034831692 1.1947587 5279449
-0.039933842 -0.034798548 1.1945524 5016538
-0.027393159 -0.035886411 1.1942377 4950743
-0.017866738 -0.037523266 1.1940054 4950488
-0.0087729003 -0.037329011 1.1937691 5147351
0.0016693724 -0.036335647 1.1934913 5278422
0.012221972 -0.038613558 1.1923486 5212886
0.021545563 -0.037919223 1.1912408 5278423
0.031524487 -0.037036322 1.1914761 5147094
0.042456448 -0.037387576 1.1924473 4885460
0.051915061 -0.035850193 1.1914629 4950741
0.061039552 -0.03529099 1.1919503 5016279
0.10328779 -0.038041297 1.1894821 5212370
0.11061931 -0.039188892 1.1867014 5212369
-0.074054472 -0.032615755 1.1934143 4423370
-0.072006121 -0.02941554 1.1929349 4554187
-0.047473416 -0.029809572 1.1944389 5147610
-0.037666123 -0.029053695 1.1924456 5081818
-0.028553117 -0.031290539 1.1922289 5016538
-0.017408729 -0.029806547 1.1920624 5278938
-0.008308202 -0.02916228 1.1918222 5344730
0.0021347487 -0.030006044 1.1904925 5673948
0.012340235 -0.032212175 1.1891804 5805277
0.021426644 -0.032174423 1.1889455 5541848
0.031643897 -0.030995794 1.1886721 5475544
0.041856185 -0.028681047 1.1883893 5213397
0.052528437 -0.02925396 1.1888247 5082070
0.062256552 -0.028418034 1.1902614 5016536
0.071223944 -0.026194036 1.1916121 5213915
0.081964575 -0.025172301 1.1913264 5279453
0.092906803 -0.02558282 1.1910474 5213659
0.10231239 -0.028476544 1.1892279 5212628
0.10886847 -0.028402627 1.1866573 5146833
-0.071748756 -0.023472257 1.1912785 4554443
-0.046541899 -0.021549672 1.190612 5016281
-0.039268803 -0.022428371 1.1904315 5147611
-0.0081438739 -0.023207985 1.1896346 5411294
0.062634572 -0.018369272 1.1877676 5148123
0.071359351 -0.018335953 1.1877422 5213915
0.08143276 -0.018511325 1.1890234 5213917
0.092200212 -0.018396027 1.1893213 5213659
0.10015957 -0.020111836 1.1871469 5212887
0.092892848 -0.011426568 1.1869291 5279708
0.097436056 -0.011407688 1.1868117 5411037
-0.013050025 -0.17446539 1.2000166 3106213
-0.0073281731 -0.17444162 1.1998687 3105959
0.0039548967 -0.17504889 1.1995825 3105706
0.014414852 -0.17435127 1.1993067 3105960
-0.02395153 -0.1676423 1.2002414 3105700
-0.016499735 -0.16885565 1.2008095 3105957
-0.007340014 -0.16881759 1.2005727 3106216
0.0029895818 -0.16888869 1.201157 3106217
0.013621112 -0.16833055 1.2007065 3171752
0.021505497 -0.16780642 1.2001609 3303337
0.032684788 -0.1651175 1.1987587 3369130
0.039551005 -0.16508897 1.1985812 3369132
-0.036590103 -0.15647936 1.2008088 3171753
-0.026846476 -0.15883505 1.2029643 3171752
-0.016502228 -0.15905845 1.20478 3172010
-0.0072899312 -0.16029248 1.2055027 3172012
0.0027635209 -0.1598292 1.2060351 3237802
0.013411021 -0.15908703 1.2052085 3303338
0.022617344 -0.15907533 1.2051709 3369133
0.032883599 -0.15881148 1.2031831 3369388
0.042996235 -0.15843877 1.2022282 3303853
0.052221183 -0.15724032 1.19994 3369643
0.062283102 -0.15640438 1.198158 3303851
-0.05437728 -0.14487405 1.2008383 3303598
-0.046214089 -0.14765544 1.2023655 3303341
-0.037556313 -0.14933673 1.2055858 3303340
-0.028134458 -0.15071855 1.2082123 3369132
-0.019957591 -0.15257025 1.2080165 3303600
0.013450013 -0.15243144 1.2071531 3303598
0.026121864 -0.1523788 1.2068256 3435186
0.033609774 -0.15234768 1.2066321 3369391
0.043401659 -0.152307 1.2063791 3369392
0.053182874 -0.14935511 1.2054865 3369390
0.062651321 -0.14827058 1.2016473 3435184
0.071929537 -0.14663872 1.1975927 3369392
-0.055339284 -0.13786785 1.2016054 3369646
-0.048076279 -0.14012642 1.2062385 3303853
-0.040733594 -0.14343774 1.2084773 3173034
0.055103615 -0.14119579 1.205985 3566773
0.063263923 -0.13985689 1.2050964 3566516
0.072988316 -0.13795325 1.2018952 3500977
0.082834959 -0.13858345 1.1989295 3500975
-0.065576844 -0.12595069 1.2009708 3632562
-0.056610383 -0.1289684 1.2037654 3501236
-0.048980333 -0.12908447 1.2081267 3501494
0.075267404 -0.12883946 1.2053622 3698612
0.082772173 -0.12916295 1.2028067 3567283
0.091551006 -0.12670235 1.1998558 3567283
0.098878317 -0.12363208 1.1967068 3501747
-0.07281214 -0.11633229 1.2010778 3895478
-0.067156069 -0.1188307 1.2034535 3698613
-0.058158427 -0.11972176 1.2073969 3633080
0.076678455 -0.12220758 1.2052709 3699128
0.083221994 -0.11898926 1.2050754 3830713
0.092667133 -0.11857046 1.2036277 3699126
0.099308088 -0.11721978 1.1966426 3633333
-0.074154988 -0.10832474 1.2010462 3961271
-0.067279086 -0.10871932 1.2058738 3896247
-0.060458228 -0.11125384 1.20872 3764921
0.083085306 -0.11204025 1.2050214 3962300
0.093921892 -0.10948642 1.2042497 3896506
0.10131037 -0.10759977 1.1985121 3764920
-0.075519152 -0.09900029 1.2025049 3830712
-0.068531133 -0.098509379 1.207489 4093627
0.096850783 -0.098615773 1.2045549 4028352
0.10210244 -0.098027244 1.1990793 3962812
-0.075951219 -0.088681795 1.2029308 3962556
-0.069368571 -0.089748353 1.2083273 4028606
0.096278742 -0.088214055 1.2044836 4357317
0.10258618 -0.088407248 1.200321 4225985
0.10786334 -0.0846738 1.1961523 4225985
-0.075499035 -0.079671428 1.2028445 4028606
-0.070579626 -0.079798259 1.2087208 4094655
0.096770287 -0.080178469 1.2044044 4554695
0.10247597 -0.078031622 1.1996377 4554182
0.1085896 -0.076276064 1.1960641 4619462
-0.076267265 -0.069033839 1.2012463 4159424
-0.068136968 -0.067965582 1.2073286 4160448
-0.061806425 -0.0663177 1.2083827 4554440
0.097172722 -0.066809505 1.2042834 4620747
0.10268911 -0.067821607 1.2018986 4686026
0.10893777 -0.068643063 1.1959919 4619977
-0.075701728 -0.059371788 1.200681 4291265
-0.067505322 -0.059306394 1.2057208 4357573
-0.061836608 -0.059403703 1.2083262 4751563
0.012262773 -0.056407008 1.2063888 4818903
0.019939328 -0.055606876 1.206184 4819160
0.095292322 -0.058289908 1.2042613 4752590
0.10264655 -0.058620106 1.2018235 4817869
0.1077584 -0.060634833 1.195956 4752076
-0.073756658 -0.049778134 1.2005513 4291778
-0.067676321 -0.049022932 1.2039684 4554440
-0.061871827 -0.051337384 1.2082604 4883149
-0.043421809 -0.044219285 1.2037238 5674209
-0.037680916 -0.044195436 1.2035755 5082331
-0.026260313 -0.046972033 1.205171 4950745
-0.017000079 -0.048689529 1.2024786 4884953
-0.0078206155 -0.048643883 1.2020413 4753366
0.0025311634 -0.047494341 1.2029649 4884692
0.013100179 -0.049080011 1.2018605 4884692
0.02187117 -0.04831589 1.202283 4884692
0.032123491 -0.047062803 1.204465 4950484
0.043017283 -0.047982305 1.2024131 4950488
0.051818665 -0.047677681 1.2031772 4950489
0.062443078 -0.04617751 1.2039419 5411037
0.071449205 -0.045885947 1.2047741 5542623
0.085552245 -0.04381074 1.2043929 5213404
0.093340725 -0.046659261 1.2042154 5081558
0.10159454 -0.048885077 1.20162 5015248
-0.068570949 -0.039290454 1.2003306 4685772
-0.046325244 -0.038725208 1.2008431 5542365
-0.037355829 -0.038867891 1.2006648 4951002
-0.028618786 -0.039867789 1.1993042 4884951
-0.019351613 -0.04170249 1.1990802 4753366
-0.0056241695 -0.040500723 1.1987159 4950484
0.0032459432 -0.040750045 1.1984891 5015763
0.033289403 -0.041483771 1.1977197 5015764
0.040155619 -0.041455243 1.1975422 4885461
0.052085478 -0.040424477 1.1972257 4884950
0.062914312 -0.039300814 1.1987838 5082072
0.072358832 -0.038098563 1.201485 5542624
0.082002848 -0.039196704 1.2036461 5279197
0.092073672 -0.037929002 1.2005745 5213144
0.099278063 -0.040446434 1.1960078 5212627
0.066436142 -0.032188181 1.1967871 5016538
0.072150499 -0.030447334 1.1966252 5213917
0.081676081 -0.027927496 1.1963584 5345245
0.092050306 -0.030188739 1.1967764 5213917
0.18342075 -0.03188058 1.201768 13158081
-0.0072044469 -0.15531501 1.2117116 3303598
0.0055092918 -0.15526217 1.2113831 3303850
-0.035683434 -0.14479664 1.2123597 3303853
-0.025900014 -0.14634916 1.2124772 3304111
-0.016278289 -0.14841378 1.2139947 3303857
-0.0071851406 -0.14869548 1.2144073 3303856
0.0032464433 -0.14868152 1.2143881 3369903
0.013564521 -0.14713557 1.2111079 3435441
0.022632368 -0.14801066 1.2108811 3435187
0.033104151 -0.14732966 1.2106051 3500978
0.043615181 -0.14701071 1.2103312 3369649
0.050311718 -0.14536427 1.2101448 3435441
-0.043883696 -0.1373542 1.2125098 3370159
-0.037330829 -0.13809775 1.2123467 3370416
-0.026919454 -0.13829896 1.2143304 3436469
-0.016475879 -0.13855594 1.216814 3502005
-0.007191442 -0.13851738 1.2165741 3501749
0.0032687588 -0.14195669 1.2163326 3501493
0.01365493 -0.13829097 1.2147837 3567542
0.022970594 -0.13835712 1.2154816 3567541
0.033348516 -0.13818263 1.2140244 3633333
0.043629803 -0.13786085 1.211193 3567541
0.052196085 -0.13710323 1.2100277 3633079
0.062220372 -0.1348763 1.2097505 3632566
-0.044305976 -0.12887743 1.2124504 3501750
-0.037385851 -0.12909909 1.2147746 3567798
-0.02892426 -0.12958819 1.2170612 3633848
-0.015340671 -0.13274662 1.2167367 3633591
-0.0083773378 -0.1327177 1.2165567 3699128
0.013668138 -0.13146517 1.2159773 3830714
0.024113132 -0.13142177 1.2157073 3764921
0.033604436 -0.13043249 1.2154542 3830712
0.044143874 -0.12947702 1.2148169 3830713
0.052842215 -0.12914327 1.21428 3830458
0.063115872 -0.12885045 1.2120469 3764409
0.071184233 -0.12729613 1.2100122 3764407
-0.053368621 -0.11804716 1.2125947 3698874
-0.04669442 -0.11868542 1.2146785 3764923
-0.038064655 -0.11931969 1.2172121 3765435
-0.031628981 -0.1235269 1.2170807 3699641
0.061989114 -0.12313793 1.2146611 3896252
0.072027534 -0.11864907 1.2117449 3831226
0.07931862 -0.11795833 1.2091691 3830458
-0.056029133 -0.10860691 1.213375 3896508
-0.046782091 -0.10849786 1.2173475 4028352
-0.038887274 -0.10916161 1.2171491 4094143
0.073230296 -0.10874588 1.2106792 4159936
0.082509086 -0.10746254 1.2089999 4028352
0.090535887 -0.10606106 1.2087811 3962559
-0.064085715 -0.098899402 1.2127128 4093628
-0.0571656 -0.098928809 1.2132847 4028352
-0.046817124 -0.099187568 1.2169586 4094401
-0.040098507 -0.097557403 1.2170844 4225986
0.074712567 -0.099547178 1.2127733 4357317
0.082955875 -0.098501198 1.2117277 4225732
0.09171439 -0.098020837 1.2086841 4159938
-0.065118939 -0.089158908 1.2126589 4028609
-0.05690597 -0.089186206 1.2138112 3963330
-0.047480874 -0.089174792 1.2172055 4160708
-0.041050266 -0.092221111 1.2170647 4292035
0.077300988 -0.085924752 1.2139579 4620236
0.082727276 -0.088645019 1.212451 4488649
0.091107175 -0.089272104 1.2086273 4357318
-0.066319451 -0.078923598 1.2126051 4160449
-0.057624489 -0.079034746 1.2160786 4160708
-0.048303492 -0.079016715 1.2171427 4489161
0.083803751 -0.079361618 1.2126639 4555212
0.091974303 -0.078133777 1.2085128 4620489
-0.1583626 -0.07065098 1.2199142 14082013
-0.064975709 -0.071540602 1.2125093 4226242
-0.056820169 -0.069196835 1.2147803 4620234
-0.049670823 -0.06710358 1.2170794 5079759
-0.015629563 -0.06657517 1.2161963 6791922
-0.0075107515 -0.065380514 1.2159768 5608162
0.0029342435 -0.065337114 1.2157069 5016279
0.013026027 -0.067339174 1.2140989 5608413
0.021505656 -0.065840416 1.2152318 4950485
0.028466452 -0.065231033 1.215047 5016277
0.086509392 -0.068472639 1.2135757 4752847
0.092327595 -0.068485931 1.2101891 4620747
-0.057571314 -0.060303602 1.2132255 4948687
-0.046979755 -0.063222654 1.2169777 5408980
-0.025484946 -0.060016092 1.2144727 6134248
-0.016845126 -0.059508912 1.2136683 5344990
-0.0079029966 -0.059653398 1.2137959 4884696
0.0032641524 -0.059649736 1.2135917 4818902
0.013650285 -0.060885537 1.2103916 4818646
0.02278981 -0.05975806 1.210861 4818646
0.032920677 -0.059267797 1.2116315 4884696
0.043002788 -0.05873147 1.2114025 5344733
0.052241206 -0.058676958 1.2108064 5936870
0.062031571 -0.058091566 1.2132879 5608416
0.071140409 -0.057159446 1.2138788 5082072
0.083861805 -0.057905547 1.2105554 5016278
0.09015885 -0.059411492 1.2084047 4884178
-0.026141353 -0.053651433 1.2113588 5082331
0.0027535101 -0.053531379 1.2106121 4687574
0.025869403 -0.053435333 1.2100146 4687574
0.033791967 -0.052741751 1.2098043 4819159
0.040894732 -0.053372905 1.2096262 4950233
0.05360847 -0.05332008 1.2092977 5542369
0.062335536 -0.051999196 1.2090615 5805540
0.075168163 -0.049762014 1.2087117 5213659
0.082488194 -0.049731605 1.2085226 5147866
0.091357701 -0.051621687 1.2083093 5081557
0.0033537205 -0.13774472 1.220297 3633335
-0.024213821 -0.12727077 1.2209218 3699641
-0.016690195 -0.12768796 1.220731 3765177
-0.0069331788 -0.12780876 1.2221279 3830714
0.0033887038 -0.12871221 1.2231023 3962299
0.013804086 -0.12611836 1.2205979 4028092
0.022613516 -0.12687691 1.2199956 3962300
0.032134034 -0.12647161 1.2201883 3962299
0.04172324 -0.1251173 1.2214251 3962299
0.054060958 -0.12402312 1.2188746 3896509
0.06383957 -0.1235166 1.2186179 3830714
-0.033997431 -0.1169347 1.2210888 3962813
-0.027387001 -0.11862262 1.2227106 3962813
-0.016374454 -0.11977455 1.224659 4028350
-0.0071260072 -0.12186074 1.2244375 4093886
-0.0001169797 -0.12183161 1.2242563 4093886
0.01388577 -0.11826782 1.2238654 4291263
0.023231141 -0.11822899 1.2236239 4291265
0.032576509 -0.11819015 1.2233824 4291265
0.043090053 -0.11814648 1.2231106 4225471
0.053432312 -0.11787297 1.2203404 4159424
0.062649786 -0.11769788 1.2186005 4028351
-0.03520247 -0.10762185 1.2210428 4159681
-0.029585816 -0.10932657 1.2238221 4159937
0.013850058 -0.11008817 1.2237986 4685507
0.023424983 -0.10911355 1.2235434 4685766
0.032303084 -0.10907666 1.2233139 4685768
0.044324998 -0.1091117 1.2230039 4685254
0.053545274 -0.10873293 1.2225127 4553924
0.06262707 -0.10840045 1.2187742 4357059
0.068420753 -0.10602657 1.2183549 4291524
-0.036208961 -0.099690966 1.2213365 4291267
-0.030354902 -0.098758839 1.2240455 4291525
0.024332991 -0.10303335 1.2234696 5080013
0.031342018 -0.10300423 1.2232884 5013964
0.046507839 -0.098267049 1.2228578 5014215
0.053516869 -0.098237924 1.2226766 4948424
0.062801301 -0.098136172 1.2216358 4686025
0.070374027 -0.097517408 1.2198347 4554696
-0.043444544 -0.086690903 1.2210822 4423366
-0.037858441 -0.088810995 1.2228229 4489158
-0.031790249 -0.091581114 1.2248235 4554697
0.046461917 -0.08775036 1.2227719 6725605
0.053705607 -0.08795397 1.2225866 5541334
0.062816322 -0.087682404 1.2223493 4949456
0.072762087 -0.08881291 1.2205775 4752076
-0.04464959 -0.077378035 1.2210362 4751821
-0.038841955 -0.078677177 1.2235647 4817612
-0.013170933 -0.075144157 1.2242068 6133729
-0.010834588 -0.075134456 1.2241464 5804510
0.01370041 -0.075811535 1.2235187 6726116
0.021874208 -0.07499855 1.2233011 6791913
0.034724094 -0.074945159 1.2229689 5673696
0.04343408 -0.078025088 1.2227696 5344728
0.054598313 -0.078368217 1.2224842 5475805
0.062775508 -0.078334242 1.2222729 5147095
0.073185764 -0.078220785 1.2208028 4949712
0.08167617 -0.075106069 1.2177567 4621777
0.19009086 -0.074299626 1.2189534 11781308
-0.047003731 -0.071564153 1.2210488 4883150
-0.038085431 -0.069585882 1.2208023 6001884
-0.027224824 -0.067987785 1.2205087 6133474
-0.01555011 -0.070822135 1.2218314 6067939
-0.0077209007 -0.070084095 1.221114 6594284
0.0032945406 -0.068767712 1.2208188 6002915
0.014244808 -0.072008513 1.2194717 6857704
0.023269676 -0.069949783 1.2198886 6397928
0.032490529 -0.06923791 1.2208451 6397674
0.041540995 -0.069383755 1.2211463 6002659
0.053551845 -0.06904988 1.221367 5476060
0.06260483 -0.068899468 1.2204485 5213402
0.07318525 -0.070067436 1.2211355 5081814
0.08318194 -0.068994462 1.2182829 4818898
0.19298959 -0.069321275 1.2188373 12896707
0.046109706 -0.063024148 1.2185748 6331369
0.055424616 -0.06298545 1.2183341 5805025
0.06241079 -0.062956423 1.2181535 5213658
0.073403031 -0.06187544 1.2178608 5213658
0.081735149 -0.061944347 1.2176464 5082070
-0.023489371 -0.11536234 1.2298079 4160192
-0.01668432 -0.11580338 1.2296358 4159936
-0.0070580896 -0.11764067 1.2294027 4225472
0.0038926899 -0.11837737 1.2291261 4225471
-0.024109133 -0.10773844 1.2297608 4160194
-0.016482521 -0.1082934 1.2295685 4291265
-0.0070990659 -0.10825441 1.229326 4422851
0.0035066977 -0.10836685 1.2309738 4685254
0.013998335 -0.10464684 1.2287515 4882628
0.019862993 -0.10462248 1.2286 4817092
0.036284029 -0.10455425 1.2281755 4948684
0.041575033 -0.10746552 1.2280631 4816582
