# .PCD v0.7 - Point Cloud Data file format
VERSION 0.7
FIELDS x y z rgba
SIZE 4 4 4 4
TYPE F F F U
COUNT 1 1 1 1
WIDTH 174
HEIGHT 1
VIEWPOINT 0 0 0 1 0 0 0
POINTS 174
DATA ascii
-0.25564331 -0.22778699 0.84458607 5134174
-0.24910879 -0.22999628 0.84390658 5134176
-0.25563961 -0.22344987 0.84640861 4871515
-0.26586157 -0.24574238 0.84424978 4936281
-0.25575042 -0.24921663 0.84317493 5199967
-0.25090018 -0.24975392 0.84313387 5397348
-0.27331641 -0.23856777 0.84665501 4673880
-0.26561853 -0.23915789 0.8446191 4870232
-0.25613445 -0.24041893 0.84522897 5068382
-0.24636155 -0.2413677 0.8457945 5068384
-0.23844779 -0.24118459 0.8472088 4476504
-0.27267534 -0.22933657 0.8490749 4607822
-0.26559445 -0.22958091 0.84779471 4673623
-0.25474739 -0.23147739 0.84741086 5134174
-0.24428289 -0.23180699 0.84767085 4739419
-0.23660636 -0.23338336 0.84869629 4081746
-0.27204069 -0.22229278 0.85386777 4410445
-0.26352012 -0.22106752 0.85145092 4213839
-0.25321332 -0.22173426 0.85156327 4345429
-0.2432397 -0.223222 0.85131794 4016211
-0.23522106 -0.22488247 0.85217792 3621193
-0.26233941 -0.21615332 0.85356081 3884109
-0.25290173 -0.21628854 0.85386336 3752784
-0.24254423 -0.21749866 0.85374928 3621192
-0.2354099 -0.21929963 0.85326421 3686459
-0.27585289 -0.26000583 0.84919477 4673626
-0.26777181 -0.26063615 0.84615481 4870741
-0.25879452 -0.26278478 0.84579402 5265754
-0.24871531 -0.26334497 0.84623253 5397604
-0.24004151 -0.26292542 0.84995186 4608350
-0.27575284 -0.25012207 0.84908766 4673629
-0.26751712 -0.25161511 0.84642226 4870744
-0.25926971 -0.2538524 0.84543443 5134174
-0.24681076 -0.25363648 0.8467074 5397606
-0.23863468 -0.25544345 0.85078114 4476760
-0.23206012 -0.25327605 0.85431033 4015442
-0.28194216 -0.2435289 0.85650653 3883351
-0.27829641 -0.24188715 0.85169125 4475995
-0.2451793 -0.24751499 0.84863389 5068641
-0.23580177 -0.24640124 0.85168684 4082513
-0.2299111 -0.247733 0.85617864 3752531
-0.2784 -0.23214048 0.85448033 4079443
-0.23284324 -0.23806897 0.8547008 3621705
-0.22870681 -0.24193743 0.85659748 3751503
-0.23358157 -0.23037128 0.85627913 3490378
-0.26674879 -0.28249329 0.85265154 5002588
-0.26357058 -0.2828646 0.85261655 5528419
-0.27627572 -0.27247453 0.85649854 4739163
-0.26928779 -0.27480429 0.85258996 5002333
-0.25988564 -0.27616486 0.85231596 5397092
-0.25055802 -0.27590337 0.85425401 5332066
-0.24449384 -0.27618775 0.85614848 4740695
-0.27706614 -0.26663601 0.85322362 4082256
-0.27022699 -0.26782033 0.85108703 5068120
-0.24748063 -0.27076808 0.85288531 5200736
-0.239023 -0.2694729 0.85607028 4345175
-0.23184054 -0.26941732 0.85885501 4278096
-0.23518685 -0.25983691 0.8567062 4147028
-0.23059729 -0.26240712 0.8602336 3819087
-0.22981906 -0.25405234 0.85971332 3687502
-0.26132071 -0.29849476 0.85807359 5528423
-0.25698164 -0.29850209 0.85823578 5397348
-0.27050403 -0.28803694 0.85632956 4804702
-0.26108602 -0.28910062 0.8556121 5462626
-0.25176254 -0.29060486 0.85813498 5003105
-0.24336381 -0.28865552 0.86028689 4804440
-0.2785356 -0.27828178 0.86156994 3817824
-0.27288398 -0.28084925 0.85636485 4673622
-0.25695044 -0.28271085 0.85618937 5660265
-0.24943848 -0.28214532 0.856713 5069150
-0.24022114 -0.28139439 0.8595503 4475986
-0.23433775 -0.27810249 0.86115754 4014924
-0.2366415 -0.27516192 0.86013466 4606547
-0.23069198 -0.27379552 0.86147803 3620428
-0.26882914 -0.30669045 0.86194146 4079956
-0.26229945 -0.30747339 0.8593803 5266270
-0.25651053 -0.3086324 0.86159456 5002845
-0.27093121 -0.29993862 0.86252773 4079963
-0.26358798 -0.30242333 0.85959262 5330781
-0.25294378 -0.30225003 0.86185843 5002331
-0.24894589 -0.29651967 0.86263084 5001816
-0.24452391 -0.2948606 0.86479878 4540755
-0.23928444 -0.28863144 0.86631328 4213074
-0.26445836 -0.32178062 0.86879158 5265766
-0.26514632 -0.31642869 0.86791313 5068639
-0.25629839 -0.31573951 0.8680228 4214103
-0.27239019 -0.30774751 0.86570323 1580089
-0.25116533 -0.30879003 0.86679691 4145996
-0.24777946 -0.3035602 0.8683998 4212054
-0.27106151 -0.3231591 0.87121689 3618132
-0.2657305 -0.32480064 0.87073016 5199718
-0.25906476 -0.32456073 0.87108475 4214875
-0.26782373 -0.38535702 0.86257106 528927
-0.26281157 -0.38656232 0.86225545 1517876
-0.26520929 -0.40016162 0.86947429 4419983
-0.27940318 -0.39138964 0.87044895 1651559
-0.27379704 -0.39010215 0.86779231 1782104
-0.26197702 -0.39298952 0.86474216 4154236
-0.2566103 -0.39195162 0.86953026 3028033
-0.27028668 -0.38600403 0.87522984 2369321
-0.26240516 -0.38561058 0.87178797 2040105
-0.26792741 -0.36691305 0.87900001 4146252
-0.28000355 -0.39980134 0.87774515 5077683
-0.27347329 -0.40243721 0.87543911 4617364
-0.26415312 -0.4038763 0.8751893 4549258
-0.25819871 -0.39852747 0.87476933 6582660
-0.27961284 -0.38765001 0.87852448 7695014
-0.27157626 -0.38538116 0.88050741 2040625
-0.26336858 -0.38494134 0.88028121 2172202
-0.25719523 -0.39026916 0.8782776 2760198
-0.27610123 -0.41428781 0.88048959 4683677
-0.27044007 -0.41494924 0.88042724 3831442
-0.28287166 -0.40665692 0.8821978 3299734
-0.2760666 -0.40895143 0.87997049 4683420
-0.26764145 -0.41077095 0.88055289 3960460
-0.29150161 -0.48513943 0.86424178 3829135
-0.28337392 -0.48564196 0.86434007 4223637
-0.27724043 -0.4867751 0.86409754 3960467
-0.29126918 -0.4764663 0.86789495 3498881
-0.28283569 -0.47687048 0.86761212 3895695
-0.27490291 -0.47671881 0.86841208 3631246
-0.28980863 -0.46508521 0.86947674 3499128
-0.28270048 -0.46665978 0.86908579 4025235
-0.27391586 -0.46752703 0.87107158 3499655
-0.2880924 -0.45580167 0.87127221 3826560
-0.28142187 -0.45681861 0.87164164 4156303
-0.27365819 -0.45921373 0.87364423 3630985
-0.28690076 -0.44828755 0.87773103 3893387
-0.28025866 -0.44816345 0.87634778 4157333
-0.27297288 -0.44935107 0.87835717 3762828
-0.28434211 -0.44150406 0.88284951 3762325
-0.27826849 -0.43839723 0.88040662 4420507
-0.27219486 -0.44017521 0.88242328 3828877
-0.28394961 -0.42872149 0.88823557 4222878
-0.27689227 -0.42979011 0.88400328 4552347
-0.27089137 -0.4320249 0.88647646 3631755
-0.28461137 -0.41911206 0.88617015 3627913
-0.27614272 -0.42088312 0.88350534 4683676
-0.26899013 -0.42167437 0.88663554 3892613
-0.2670545 -0.41330051 0.88667572 3563127
-0.29438311 -0.49605602 0.86543703 3033484
-0.28630283 -0.49885708 0.86716712 2897991
-0.2761915 -0.49910188 0.86691725 3891064
-0.26866981 -0.49993321 0.86866331 2638186
-0.29732329 -0.48671919 0.86769778 666715
-0.28674603 -0.49003881 0.86670566 4813457
-0.2729257 -0.48891848 0.86770272 3499654
-0.26591712 -0.49107072 0.87106395 3561592
-0.29671273 -0.47621804 0.87213349 6722
-0.27199599 -0.48017842 0.87141061 3694979
-0.26551372 -0.48148447 0.87327933 3233144
-0.26927355 -0.47084334 0.87543678 3104639
-0.26473349 -0.47260886 0.87832123 2640231
-0.26888308 -0.46187937 0.87921816 2907007
-0.26472765 -0.46425921 0.8833099 3099492
-0.28979814 -0.44806656 0.88422579 4089741
-0.26822624 -0.4532041 0.8832761 3496061
-0.2639817 -0.45447823 0.88794148 4278874
-0.28660196 -0.44093201 0.88734531 2972810
-0.2677677 -0.4440501 0.88823235 3757171
-0.2642315 -0.44691014 0.89111203 3748927
-0.28481111 -0.43577838 0.88957906 3630740
-0.26630965 -0.43686742 0.88982594 3953004
-0.28781238 -0.50649774 0.86951739 984897
-0.27696943 -0.50416285 0.87091136 4350584
-0.26409629 -0.48365939 0.88074052 4674411
-0.26329291 -0.4767631 0.88620138 6974583
-0.26380098 -0.46641409 0.89053059 3815753
-0.29406446 -0.45174128 0.89228743 5799072
-0.26180288 -0.45659107 0.89147806 5064001
-0.26508152 -0.49391562 0.88977957 7039097
-0.26474607 -0.48897967 0.89295173 7565430
-0.26445949 -0.48084113 0.89602059 8223350
-0.26365697 -0.47144035 0.89493632 9076613
