# .PCD v0.7 - Point Cloud Data file format
VERSION 0.7
FIELDS x y z rgba
SIZE 4 4 4 4
TYPE F F F U
COUNT 1 1 1 1
WIDTH 1126
HEIGHT 1
VIEWPOINT 0 0 0 1 0 0 0
POINTS 1126
DATA ascii
0.13759503 -0.14535004 1.1379136 3499683
0.14093176 -0.14366257 1.1365401 3303338
-0.12387466 -0.11203893 1.1238831 3039134
0.14326437 -0.13534069 1.1368371 3499947
-0.12762746 -0.097374804 1.1211259 3236770
-0.1260235 -0.10179902 1.1245947 3236770
0.14588189 -0.12501898 1.1372644 3500458
-0.12706286 -0.090919584 1.1210837 3237027
-0.12558214 -0.091385648 1.1251701 3302821
0.14913173 -0.11471044 1.1377854 3632048
-0.12621596 -0.081236757 1.1210203 3302824
-0.12477948 -0.082208499 1.12511 3302569
0.14819258 -0.10570677 1.137534 3632047
-0.12585533 -0.072162002 1.1209388 3434408
-0.12309085 -0.070000269 1.125062 3434665
0.14579818 -0.094412006 1.1369227 4026292
-0.12452216 -0.061871096 1.1208936 3631531
-0.12293805 -0.061155036 1.1249723 3631531
0.14667 -0.086488575 1.1355045 4157366
-0.12395756 -0.055415884 1.1208514 4025255
-0.1204938 -0.050560661 1.1232642 3632304
0.147186 -0.074702404 1.1349559 4289211
-0.11623813 -0.041909192 1.1228147 3568048
0.14495008 -0.063694417 1.1353875 4094399
0.14681908 -0.068252355 1.1368687 4224702
-0.11432154 -0.036019459 1.1211313 3764911
-0.11065064 -0.031991884 1.1237783 3895729
0.14309986 -0.05507499 1.1359867 4487616
-0.11410557 -0.017844714 1.1239461 6458567
-0.10949302 -0.022037476 1.1236278 3895996
0.14404555 -0.044085287 1.134858 5735616
0.15117757 -0.041444056 1.1347938 9477559
-0.11348617 -0.015199162 1.1249501 6852289
-0.1102514 -0.015480988 1.1251189 5933254
0.064677209 0.071246713 1.1291198 9474701
-0.037225287 -0.22652157 1.1432033 7248329
-0.0046431422 -0.23096307 1.1441205 5801654
0.003464601 -0.23053928 1.1439971 5210039
0.016071301 -0.23226428 1.1459972 6328255
0.023698729 -0.23292881 1.1463953 7379645
0.035211012 -0.23380965 1.1469948 8430007
0.043481041 -0.23277611 1.1434016 8625323
-0.073820651 -0.21522933 1.1331928 9678537
-0.063384444 -0.21609762 1.1402724 4422071
-0.054228429 -0.21756451 1.1422334 2778029
-0.044673268 -0.22021878 1.1427522 2513574
-0.037334021 -0.22358043 1.1431652 2315684
-0.0076143425 -0.2269026 1.1447246 2120102
0.0043716207 -0.22794686 1.1453502 2185635
0.017542645 -0.22799499 1.1460255 2186146
0.022895377 -0.2295607 1.146317 2316696
0.038341098 -0.22870764 1.1470989 4486314
0.04599978 -0.22899157 1.1454917 5997746
0.057306308 -0.22700025 1.1469073 6063288
0.066001818 -0.22628033 1.1484894 6589614
0.074046001 -0.22720103 1.1489117 8757678
-0.078188509 -0.20283994 1.1328325 1855898
-0.071885452 -0.20588608 1.1364315 2249885
-0.064648837 -0.20880894 1.1408746 2381985
-0.056783173 -0.21162525 1.142037 3039902
0.060495507 -0.22019386 1.1481402 2841504
0.066536203 -0.22017047 1.1484494 3302564
0.076318651 -0.21876743 1.1475999 4420011
0.08636862 -0.21883541 1.1437286 6984117
0.096116766 -0.21693419 1.1419183 6254993
-0.088402823 -0.19138515 1.1329839 2710418
-0.081183448 -0.19526701 1.1369824 2775447
-0.074832588 -0.19803953 1.1401614 2906776
0.079394266 -0.21110651 1.1486077 3171492
0.088124916 -0.21050659 1.1462445 3237285
0.096741706 -0.21006615 1.1424468 3629215
-0.090874866 -0.18416846 1.1367832 2775191
-0.083213478 -0.1883243 1.1397585 2906012
0.090796217 -0.20148927 1.1478175 3040421
0.098024815 -0.20045188 1.1447858 3105703
0.10403053 -0.20124793 1.1421509 2777257
-0.10465579 -0.16887426 1.131102 2710677
-0.098442629 -0.17329189 1.1350033 2709909
-0.092697352 -0.17739838 1.1378169 2709910
0.099717781 -0.19216502 1.148365 3368100
0.1076466 -0.19104263 1.1443598 3302561
-0.10546681 -0.16221423 1.1341023 2710421
-0.10116372 -0.16542524 1.1384528 2644886
0.10236633 -0.18459448 1.1498929 3040936
0.11074533 -0.18222752 1.1482064 3237031
0.11751956 -0.17992483 1.1456109 3368615
-0.11377056 -0.14842927 1.1304096 2776209
-0.10899971 -0.15331213 1.1354644 2841240
0.11340035 -0.17392698 1.1503407 3237287
0.12028129 -0.17232525 1.1455257 3302822
-0.11441839 -0.14166564 1.1348414 2710683
-0.11017667 -0.1453217 1.137903 2841499
0.12313533 -0.16410816 1.1481394 3237541
0.12851387 -0.1618765 1.1445733 3237798
-0.11582211 -0.13295141 1.1352838 2907293
0.12544309 -0.15549302 1.1507545 3237797
0.1306303 -0.15342478 1.1459906 3303334
-0.12087429 -0.12079597 1.1308855 2907805
-0.11913902 -0.12254988 1.1370592 2907805
0.13314661 -0.14422877 1.1485772 3434407
-0.12063783 -0.1114642 1.1323206 3039392
-0.11840831 -0.1128104 1.1377904 3039391
0.13592103 -0.13486251 1.1484889 3500202
0.14058246 -0.13237919 1.1432644 3631274
-0.12306826 -0.10203803 1.1339614 3170979
0.13864891 -0.1247801 1.1506475 3631791
0.14236932 -0.12457105 1.14505 3566510
-0.12262896 -0.091679543 1.1350523 3105957
0.13886169 -0.1136506 1.1493118 3632305
0.14428538 -0.11526339 1.1435992 3501227
-0.12201801 -0.081684127 1.1326846 3237546
0.13924184 -0.10458405 1.1483513 3698099
0.14406122 -0.10541811 1.143546 3698094
-0.12056084 -0.072024509 1.1328912 3434923
0.14125207 -0.095446698 1.1488998 3895479
0.14361492 -0.097708479 1.1430376 3895477
-0.1193043 -0.061633117 1.1334609 3566256
0.14242621 -0.084194988 1.150171 4027579
0.14512816 -0.083874181 1.146968 4157882
-0.11749956 -0.05285177 1.1326993 3567024
0.14125398 -0.074522391 1.1494939 4159422
0.14577495 -0.075092576 1.1453022 4289724
-0.11422719 -0.043277148 1.1305623 3567791
-0.11124393 -0.041560862 1.1360369 3764403
0.14050376 -0.064391367 1.1478515 4356797
-0.10842094 -0.032877482 1.1299821 3830196
0.13873735 -0.054624636 1.1467187 4619718
-0.10612518 -0.022119544 1.1323221 3896507
0.13567854 -0.04241728 1.146917 4817095
0.14029765 -0.043420244 1.1439381 4948420
-0.11295119 -0.012309402 1.1329565 6916535
-0.10553069 -0.0134902 1.1330417 5210049
0.13528517 -0.035953786 1.1489396 5013440
0.13987902 -0.035950582 1.1468384 5998788
0.042139359 0.046489164 1.13911 5859448
0.05039699 0.045835257 1.1376805 6122362
0.055786241 0.045514435 1.1409643 6319482
0.066747457 0.045857102 1.1455277 5330522
0.043183785 0.050852194 1.1375895 5792108
0.051070437 0.051009968 1.1374577 5527648
0.056166627 0.049863458 1.1409359 5067354
-0.031661563 -0.22695905 1.1464971 4354997
-0.024531484 -0.22859849 1.1488833 4684224
-0.01458374 -0.22917932 1.1479306 4289976
-0.0034326529 -0.22784381 1.1479532 2054307
0.0068980241 -0.22929496 1.1484985 2777510
0.012264726 -0.23086476 1.1487907 4026798
0.02865185 -0.23229246 1.149646 5604271
0.032619033 -0.23098473 1.1498349 4881326
-0.04964368 -0.21499991 1.145444 3039902
-0.041840155 -0.21659783 1.1463622 2710943
-0.033724315 -0.21920277 1.1496149 2645152
-0.024317555 -0.22286925 1.1535041 2514339
-0.014390597 -0.2236336 1.1534872 2514851
-0.0042263037 -0.22201407 1.1524546 2842787
0.0057584103 -0.22247308 1.1507682 2908579
0.015390028 -0.22291258 1.151756 3039651
0.02541431 -0.22448437 1.1533997 2908578
0.034805678 -0.22442901 1.1536299 2778020
0.045050185 -0.22366899 1.1518217 2646433
0.054416627 -0.22718894 1.1509099 5012145
0.065775998 -0.22946453 1.1515169 8955830
-0.061889734 -0.20548011 1.1449977 2841242
-0.05238219 -0.20837563 1.1475673 2775960
-0.043629408 -0.21040562 1.1499741 2841500
-0.034649767 -0.21334384 1.154205 2907551
-0.0030506169 -0.21535695 1.1558461 3105184
0.0061486247 -0.21578845 1.1563222 3170722
0.016049124 -0.21665101 1.1568389 3302053
0.026181133 -0.2169788 1.1573616 3170723
0.036711946 -0.21697137 1.1579012 3105188
0.046153411 -0.21700868 1.1566687 3170467
0.055928461 -0.21767533 1.1532857 3236258
0.066422388 -0.21514718 1.1518372 3171236
-0.077418327 -0.19273993 1.1437756 2906776
-0.071174204 -0.19552122 1.1452706 2907033
-0.063041866 -0.19719435 1.1494013 2841497
-0.05434918 -0.20200863 1.1530707 2775704
0.047525056 -0.21162412 1.1583961 3105443
0.056325503 -0.21239084 1.1588556 3105443
0.067453951 -0.20963681 1.1581304 3105956
0.076209068 -0.20754096 1.1550142 3105956
-0.08738631 -0.18084916 1.1431339 2644884
-0.080817387 -0.18498367 1.1465201 2775705
-0.072875515 -0.1885415 1.1496365 2841497
0.071589634 -0.20262191 1.1595299 3172006
0.079467267 -0.20092359 1.1589134 3040421
0.085633248 -0.19911839 1.156706 2974628
-0.095360696 -0.17133658 1.1426204 2645144
-0.089062259 -0.17364025 1.1460315 2710425
-0.084100544 -0.17679437 1.1478353 2776216
0.089823231 -0.19080937 1.1570795 3171493
0.095132485 -0.18905351 1.1541778 3237026
-0.097817898 -0.16305777 1.1449951 2710424
-0.091875851 -0.1657673 1.149292 2710937
0.093124762 -0.18452027 1.1604337 3302823
0.099941418 -0.18103415 1.1575823 3172005
0.10602458 -0.1784171 1.1570219 3172006
-0.10532348 -0.15099584 1.1418858 2841498
-0.10142241 -0.15383352 1.1470468 2907290
0.10288861 -0.17427215 1.160821 3303592
0.10946801 -0.17145914 1.1597919 3237544
0.11630809 -0.16773315 1.1534255 3303337
-0.10643047 -0.14239872 1.1434509 2973342
-0.10245654 -0.14583804 1.1499867 3038879
0.11372362 -0.16403246 1.1605957 3237544
0.11855823 -0.16144255 1.1562753 3303336
-0.11337228 -0.13020189 1.1422455 2973342
-0.10784371 -0.13383064 1.1470749 2973600
0.12268396 -0.15263414 1.1575911 3368872
-0.1143267 -0.12221724 1.1434634 3039392
-0.10928603 -0.12344185 1.14939 3236259
0.12471128 -0.14332351 1.1593448 3500460
0.12962477 -0.14133754 1.1538167 3434923
-0.11460845 -0.11250985 1.1438787 3170978
0.1264789 -0.1345087 1.1602561 3500719
0.13153803 -0.13246141 1.1571548 3500718
-0.12001805 -0.10085002 1.1405801 3237029
-0.11665118 -0.10247969 1.1467788 3237286
0.13250406 -0.12363704 1.1598828 3697329
-0.11925264 -0.092098854 1.1405228 3237543
-0.11705248 -0.091804527 1.1481426 3172263
0.13453585 -0.11467158 1.1593821 3697843
-0.11886775 -0.082439296 1.1434402 3303340
-0.11696553 -0.081495844 1.1485342 3303852
0.13520093 -0.10424175 1.1597017 3764149
-0.11792652 -0.072741628 1.1403774 3500716
-0.11551307 -0.071527772 1.1484987 3501229
0.13910981 -0.09411554 1.1583599 3764661
-0.11686072 -0.064751461 1.1403439 3566512
-0.1136308 -0.061569303 1.1448439 3632306
0.13703801 -0.083688699 1.1580378 3896764
-0.11219387 -0.052037474 1.1448125 3698357
0.13184614 -0.073143646 1.1598547 4291265
0.13584115 -0.074701086 1.1545451 4225217
-0.1097876 -0.04320772 1.1444744 3764408
0.13349551 -0.063652366 1.1591669 4554434
0.13641784 -0.063670948 1.1533086 4488640
-0.10595454 -0.032783739 1.1453569 3895997
-0.10173941 -0.029918149 1.1487457 4027323
0.13409784 -0.052872859 1.1580776 4817354
-0.10341123 -0.023458123 1.1419129 3962044
-0.099650264 -0.022537567 1.1479702 4093118
0.12573907 -0.039747812 1.1605088 5014224
0.13107195 -0.042981166 1.1568122 4751563
-0.10134348 -0.013196267 1.1405706 4290235
-0.096707463 -0.013441786 1.1453505 4158908
-0.090535685 -0.011656344 1.1491184 4028609
0.12478788 -0.032611646 1.1586012 4817874
0.13172986 -0.032964669 1.1537313 5145287
-0.093647137 -0.007049337 1.1433005 4487616
-0.088280514 -0.0048157498 1.1478233 4356800
0.11708081 -0.019379601 1.1578379 5276623
0.12331757 -0.022970594 1.1544776 5604813
0.13263895 -0.025013775 1.153579 6720449
-0.085648522 0.001976341 1.1492184 5671109
0.11564285 -0.013658553 1.1591316 5802961
0.12212035 -0.015021548 1.1553777 6787017
0.041299243 0.0086743608 1.1556487 12972031
-0.01270524 0.02331695 1.1507177 5869264
0.019110695 0.016896807 1.1544213 7515376
0.026534511 0.015880048 1.1548128 8764660
0.036054239 0.014606729 1.1553147 10146554
0.042564645 0.013003625 1.1556659 10870005
-0.069106832 0.036534876 1.141674 8028800
-0.06397672 0.036455333 1.1419377 7305855
-0.0083398987 0.024097852 1.1529355 5671370
-0.0050397348 0.023810327 1.1531078 5869265
0.018061431 0.021797694 1.1543136 6988787
0.022461651 0.021414332 1.1545432 7185904
0.10903671 0.022750698 1.158964 6314850
-0.062327001 0.041332871 1.1419685 8028802
0.10626484 0.026543811 1.1587802 6117979
0.08375445 0.039015815 1.1494784 5593178
0.085939407 0.038825452 1.1495925 5658970
-0.029665612 -0.21672878 1.1585032 2973083
-0.024243057 -0.2183149 1.1587985 2973595
-0.014858883 -0.21869618 1.1599511 2973598
-0.048568111 -0.20394492 1.1573938 2842012
-0.04234184 -0.20587949 1.1577342 2776219
-0.033342406 -0.2091434 1.159757 2907806
-0.024000194 -0.21133111 1.1618961 2907807
-0.013551891 -0.21278286 1.1626232 2973599
-0.0043764431 -0.21125159 1.1604061 3039136
0.0063645439 -0.21118911 1.1616232 3170723
0.016336715 -0.21194246 1.1614749 3236770
0.026159965 -0.21234018 1.161315 3170979
0.035179138 -0.21291178 1.1617835 3170980
0.041947223 -0.21183085 1.1621182 3171236
-0.058833178 -0.19414094 1.1567599 2842012
-0.052430164 -0.19696343 1.1585755 2842011
-0.043113369 -0.20003599 1.1600951 2842012
-0.03507264 -0.2021814 1.1620712 2907805
0.011049883 -0.20759663 1.164494 3302309
0.017190617 -0.20697802 1.1636574 3302308
0.025880024 -0.20762238 1.1627507 3171236
0.036621343 -0.20913945 1.1618156 3171236
0.04722755 -0.20867391 1.1640229 3105443
0.057201665 -0.20761719 1.1638547 3171492
0.063932717 -0.20632161 1.1631839 3040420
-0.078839511 -0.18126091 1.1555928 2841497
-0.070374966 -0.18475446 1.156599 2907291
-0.062279586 -0.18811166 1.1584017 2907549
-0.055850383 -0.1898478 1.1608708 2907551
0.060755886 -0.20075187 1.1669652 3040420
0.067994215 -0.19954649 1.1654254 3106213
0.076109812 -0.19765618 1.1637123 3106214
-0.079872534 -0.17464659 1.1574696 2907290
-0.073646724 -0.17806943 1.1593285 2973340
0.072608277 -0.19284427 1.1674852 3302823
0.078953654 -0.19101889 1.165387 3237030
0.085350081 -0.18815538 1.1658611 3237031
-0.095864788 -0.15973097 1.1544832 2841497
-0.087840915 -0.16391939 1.1554745 2842012
-0.082073227 -0.16665035 1.1582701 2907547
0.091222301 -0.18095905 1.1652268 3368361
0.096611246 -0.17817059 1.1645479 3237285
-0.096820995 -0.15370792 1.1543678 2973085
-0.090234384 -0.1544895 1.1574545 3039135
0.094190001 -0.17406169 1.1643785 3368615
0.10093424 -0.17130156 1.1654218 3237799
0.10580848 -0.1683917 1.1649113 3303337
-0.10305212 -0.14017184 1.1538993 2973857
-0.098037958 -0.14414185 1.1557577 3039137
-0.092336863 -0.14550674 1.1585126 3104930
0.10350156 -0.16398856 1.1667473 3172264
0.1100128 -0.16166312 1.1657201 3238059
-0.10357393 -0.13188656 1.1547827 3039650
-0.10007992 -0.13578019 1.1580087 3105700
0.11400795 -0.15222102 1.1673099 3369132
0.11829703 -0.15277418 1.1653789 3434410
-0.10560659 -0.12310933 1.155297 3171236
0.11654419 -0.14428225 1.1683999 3500719
0.12016141 -0.14229244 1.1673616 3435183
-0.11157708 -0.11047284 1.1531352 3302823
-0.10725851 -0.1128187 1.1560526 3171495
0.1218086 -0.13230154 1.1671538 3566514
-0.112637 -0.10170303 1.1544408 3368873
-0.10916825 -0.10317479 1.1563826 3368875
0.12536353 -0.12339008 1.1662182 3697588
-0.11280854 -0.092579663 1.1555451 3303850
0.12762514 -0.11393394 1.168862 3763892
0.13106887 -0.11357086 1.1656011 3698099
-0.11320159 -0.082308218 1.1543436 3435181
-0.10754138 -0.083276868 1.1570476 3435438
0.12949263 -0.10392795 1.1694195 3829942
0.13251887 -0.10365941 1.1667106 3764149
-0.11134841 -0.072757155 1.1547339 3501229
0.13065667 -0.090619035 1.1693325 3896505
0.13489068 -0.093895666 1.1674007 3830455
-0.10987039 -0.062990628 1.1542398 3632563
-0.10550429 -0.059986286 1.1568953 3567542
0.12906474 -0.083311588 1.1665955 4027837
0.134032 -0.087322883 1.1654637 3896505
-0.10822833 -0.053038422 1.1540087 3829940
-0.10492225 -0.05333183 1.1568516 3699127
0.12834509 -0.073590823 1.1676912 4291009
-0.10690099 -0.042978115 1.1534318 3895737
-0.10333313 -0.042454656 1.1568131 4027576
0.12954856 -0.063623175 1.1669754 4422849
-0.10510002 -0.036419038 1.1526507 4158911
-0.1004152 -0.033100918 1.1548569 4093372
0.13036728 -0.053916559 1.1664097 4817355
-0.095843285 -0.024067633 1.1545293 4093630
-0.090935752 -0.021024562 1.1572121 4094397
0.12385203 -0.042555757 1.1666738 5080014
0.12817785 -0.046162695 1.16471 4883149
-0.092992917 -0.016684718 1.1530535 4028348
-0.088364005 -0.014511086 1.1547687 4028864
0.12024575 -0.032564342 1.1659338 4949202
-0.083999872 -0.0052601919 1.1552089 4029123
-0.079719514 -0.0033763126 1.1575923 3963586
0.11500566 -0.022199839 1.1664412 5146069
0.11818257 -0.026915781 1.1639857 5080276
-0.082422033 0.0024409816 1.1533842 5342665
-0.075353339 0.0040086806 1.1577345 4882633
-0.011889784 0.0022619516 1.1610054 6070261
-0.0052439738 0.0016829446 1.1613522 6528744
0.0014018416 0.0011039451 1.1616991 8827627
0.016908739 -0.00024706125 1.1625085 10340848
0.025556158 -0.0016390309 1.1629668 8895736
0.032963812 -0.0029868484 1.1633612 6266608
0.10709463 -0.0086696297 1.1662205 5475287
0.11133251 -0.012580954 1.1648118 5475028
-0.071273446 0.0096537545 1.1558787 5999306
-0.064549908 0.010181688 1.1562173 5540557
-0.055700507 0.012753822 1.1559747 5803727
-0.04303214 0.013418704 1.1592867 4950220
-0.034213111 0.01152157 1.1597595 5016280
-0.02456978 0.010065377 1.1598691 5411294
-0.014479976 0.0091606677 1.1585535 5806569
-0.004624825 0.0083256438 1.1607099 7120874
0.0049494887 0.0082450509 1.1618022 12379901
0.015573895 0.0067766085 1.159833 13891069
0.025353378 0.0056806207 1.1596714 12969723
0.035233326 0.0050635859 1.1610699 9946095
0.045213278 0.00396429 1.1619966 10013177
0.055076528 0.0049910769 1.1622494 7449069
0.061750326 0.006276466 1.164734 5411552
0.10461417 -0.0045596585 1.1645461 6526426
-0.04063189 0.018176369 1.1593573 6264275
-0.032877836 0.018291034 1.1572499 5803990
-0.023217514 0.018072024 1.1562452 5345755
-0.01315132 0.018461585 1.1567566 5412839
-0.0035835197 0.018226631 1.1577501 5676266
0.0052073761 0.016551368 1.1605793 7253489
0.015069185 0.015497826 1.1592366 8436213
0.024854848 0.012398884 1.1587707 12051453
0.039591528 0.015569799 1.1594908 10082302
0.047327589 0.014153354 1.1599028 10607102
0.055695724 0.01257576 1.1603489 7515119
0.06257692 0.01136896 1.1620499 6068200
-0.00086406432 0.023549214 1.1573302 6001365
0.0035513174 0.023164533 1.1575606 6396124
0.11598395 0.019160345 1.1633651 6447199
-0.02044772 -0.20778021 1.1668878 3039391
-0.012969652 -0.2078476 1.1687738 3039135
-0.001553487 -0.20942633 1.167874 3104930
-0.048371423 -0.19413391 1.1653067 2776478
-0.04220752 -0.19555692 1.1676409 2842271
-0.032609332 -0.19802451 1.1703447 2907807
-0.023617286 -0.20067096 1.1713492 2908063
-0.013779886 -0.20237376 1.1729778 2973600
-0.0034017088 -0.20229481 1.1730413 3105187
0.0065539596 -0.20281571 1.1726364 3236773
0.016361449 -0.20233014 1.1724521 3237029
0.027242642 -0.20336367 1.1730877 3171237
0.036880367 -0.20517172 1.1712983 3171236
0.04651811 -0.20444965 1.1712064 3105444
0.055498201 -0.20374401 1.1707344 3171493
-0.059894521 -0.18420514 1.1678113 2841758
-0.052077744 -0.18719706 1.1690458 2907551
-0.043453429 -0.18904075 1.1723354 2842271
-0.032985386 -0.19113827 1.174073 2908064
-0.026369352 -0.19284369 1.1744307 2973857
-0.0051082429 -0.19469601 1.1755404 3105444
0.0077852663 -0.19481578 1.1762024 3237030
0.017789306 -0.19610997 1.1759281 3302823
0.027476467 -0.19617036 1.1763018 3171495
0.036937818 -0.19558302 1.1763113 3105703
0.046586767 -0.19668466 1.1766088 3105703
0.056484789 -0.1970593 1.1752174 3105702
0.065137409 -0.19531751 1.1728519 3105958
-0.070366427 -0.1755757 1.1656245 2973598
-0.062784195 -0.17793524 1.170398 2907551
-0.053207245 -0.18062676 1.1729211 2908065
0.058809388 -0.18880102 1.1787503 3237288
0.067772359 -0.1888815 1.1767626 3302823
0.076723173 -0.1876303 1.1742191 3237287
-0.078803465 -0.16352159 1.1662712 3105183
-0.07183902 -0.16749403 1.1699368 2974112
-0.063868538 -0.17038369 1.172262 2842786
0.069721133 -0.18224819 1.1792371 3171750
0.078690007 -0.17941453 1.1783302 3172008
0.087090209 -0.17841259 1.1744102 3303081
-0.085931614 -0.15319553 1.1635987 3104930
-0.080245748 -0.15598163 1.1699289 3170978
0.081824914 -0.17130306 1.1797366 3303337
0.089811176 -0.170488 1.1778836 3368873
0.096995637 -0.16982341 1.1750355 3237543
-0.094703659 -0.13958177 1.1650019 3040164
-0.088399485 -0.14389481 1.1664968 3105701
-0.082652315 -0.14880155 1.1710616 3302822
0.092047051 -0.16161332 1.1801535 3303597
0.0998476 -0.15988483 1.1761644 3238059
0.10723545 -0.1574693 1.1748778 3303852
-0.096637875 -0.13304731 1.1659434 3106213
-0.089305922 -0.13570879 1.1705765 3172007
0.10132036 -0.1508819 1.18031 3369387
0.10943386 -0.15137334 1.1769259 3435181
-0.10273792 -0.12225541 1.1630641 3237030
-0.096478507 -0.12344871 1.1677372 3237800
-0.090553686 -0.12741485 1.170421 3303594
0.10364689 -0.14501156 1.1805648 3500972
0.1125527 -0.14151406 1.1777281 3500976
0.11770871 -0.13907953 1.1732088 3500977
-0.1031559 -0.11291491 1.1647199 3237545
-0.098865837 -0.11493415 1.1689675 3303852
0.11499469 -0.13215116 1.1810044 3566772
0.11847605 -0.13281269 1.1771846 3566515
-0.10481653 -0.1030229 1.1646649 3369389
0.11667794 -0.1227282 1.1809868 3763639
0.12035616 -0.12214143 1.1762731 3763639
-0.11026303 -0.088671163 1.1623083 3435181
-0.1054049 -0.092774712 1.165845 3435438
0.11828338 -0.11173937 1.1809479 3895737
0.12351805 -0.11210883 1.1760366 3764149
-0.10925554 -0.082250848 1.1633573 3435438
-0.10417414 -0.083300807 1.1676964 3501231
0.11877337 -0.10613707 1.1809113 3961530
0.12473667 -0.1026949 1.1759952 3961528
0.13232709 -0.099984497 1.1735269 3895735
-0.10820013 -0.073052309 1.1639107 3501489
-0.10408208 -0.073169269 1.1670094 3501490
0.12034138 -0.088209696 1.180794 4159679
0.1258578 -0.093415335 1.1764002 3962041
0.13252176 -0.097758763 1.1735123 3895735
-0.10797596 -0.065709308 1.16284 3501747
-0.10305032 -0.062918805 1.1657319 3567541
0.12015072 -0.081795424 1.1807135 4225473
0.12398635 -0.082659915 1.176914 4159424
-0.10034616 -0.052971199 1.1646926 3764919
0.12067516 -0.072934568 1.1806427 4422597
0.12486537 -0.072609916 1.1768483 4357059
-0.098995775 -0.043280568 1.1644833 3896505
-0.09449172 -0.04352586 1.1692946 3962298
0.12147638 -0.062341616 1.180567 4685767
0.12574437 -0.062559932 1.1767825 4422851
-0.096653312 -0.034336187 1.1626737 4027836
-0.091782719 -0.03295467 1.1682243 4028094
0.12064235 -0.051649142 1.1782858 4948684
0.12659581 -0.054103103 1.1737288 4751818
-0.094177291 -0.02642595 1.1611111 4093632
-0.088632613 -0.023407906 1.1672162 4094399
0.11472668 -0.040678922 1.1799823 5080784
0.11917008 -0.042168677 1.1754198 5211343
-0.084589243 -0.015295438 1.1658493 4094402
-0.077962115 -0.012780115 1.1688011 4226244
-0.071409613 -0.011666879 1.170126 4620744
-0.017599335 -0.015225984 1.1729221 5412064
0.0047807796 -0.017175794 1.1740903 6463211
0.012476934 -0.021698207 1.1745344 6397929
0.022170762 -0.021899596 1.1750333 6397929
0.031524915 -0.020796113 1.1755004 6003432
0.11267436 -0.031202458 1.1772693 5081042
0.1178696 -0.034807928 1.1720676 5081041
-0.075665802 -0.0051723644 1.1636945 4160963
-0.067818627 -0.00488168 1.1693769 4752075
-0.052623514 -0.0031425953 1.1709945 4949201
-0.045958482 -0.0042877719 1.1713486 5016022
-0.036489535 -0.0062409937 1.1711876 5213659
-0.026759028 -0.0079999939 1.1711407 5411552
-0.017053468 -0.0096276626 1.1720873 5740773
-0.007038286 -0.010501102 1.1734111 6003172
0.0030523632 -0.011379793 1.1735373 6331366
0.013234222 -0.012258269 1.171465 6989552
0.023263786 -0.01313366 1.172389 6792432
0.033332553 -0.014007576 1.1722636 5937640
0.041741811 -0.013807133 1.1749454 5806054
0.052465018 -0.013427213 1.176492 5674725
0.059277054 -0.012891687 1.1768351 5674983
0.10465604 -0.019385487 1.1792316 5146841
0.11075613 -0.022024199 1.1738511 5080789
-0.071446195 0.0029914752 1.1619515 4554184
-0.068098411 0.0035490021 1.165121 4751049
-0.053053532 0.0025267601 1.1689072 4818129
-0.045607645 0.00187511 1.1684947 5015507
-0.035940748 0.0010243952 1.1655947 5147609
-0.025817569 0.00013840944 1.1648214 5346018
-0.016392969 -0.0010493025 1.167932 5937898
-0.0060735419 -0.0026961714 1.1687014 6462952
0.0044400804 -0.0028674081 1.1683519 8303605
0.013809257 -0.0037937388 1.1678249 8501495
0.023572773 -0.0056313798 1.167531 7252467
0.034828395 -0.0060617104 1.1689527 6069484
0.043980781 -0.0057617202 1.1702808 6135528
0.053849559 -0.0069864169 1.1739001 5741031
0.063126989 -0.0075876936 1.1759725 5543655
0.072619572 -0.0071064383 1.1774549 5477092
0.082748845 -0.0066572875 1.177969 5739747
0.094041437 -0.0078920275 1.1785611 5280481
0.10317498 -0.011347115 1.1753697 5015513
0.10858221 -0.01381284 1.1733631 4949463
-0.064193621 0.0090877265 1.1622559 4818122
-0.054721732 0.0092592463 1.1627393 5147606
-0.046012416 0.0092480332 1.1631856 4818639
-0.037519418 0.0067637935 1.1636481 5344472
0.0069862804 0.0034470037 1.165965 12971007
0.011383315 0.0025032386 1.1662006 12905215
0.035834674 0.00037296861 1.1674769 5807584
0.049171783 -0.00078899413 1.168173 6004710
0.055288669 -0.00036075711 1.1684816 5807083
0.064142272 0.0013671592 1.1710525 5477863
0.072435334 0.00022417307 1.1740267 5542628
0.083756179 -0.0037343875 1.1779883 5673698
0.094518557 -0.002715677 1.1770264 5804766
0.10029736 -0.0052432045 1.1708415 5147865
0.067927957 0.0087904111 1.1690283 5412324
-0.020137131 -0.19629145 1.1787935 3039650
-0.013777344 -0.19749284 1.1791326 3039650
-0.039659128 -0.18666089 1.1776872 2842271
-0.032922357 -0.18724781 1.1780387 2973857
-0.022809606 -0.18921617 1.1798434 2973857
-0.013324693 -0.19179371 1.1816227 3039395
-0.0025124196 -0.1907987 1.1814162 3171237
0.0069063799 -0.19020039 1.18118 3237030
0.01722306 -0.19054359 1.1821848 3302569
0.025517721 -0.1914093 1.1824139 3237546
-0.058314767 -0.1745165 1.1765975 2908065
-0.050860282 -0.17613694 1.1769973 2973857
-0.042427436 -0.17863558 1.1784582 2973857
-0.032953627 -0.18136196 1.1800928 2973858
-0.024871901 -0.18288597 1.1824086 3105444
0.0066724978 -0.18563421 1.1840551 3237030
0.018445436 -0.18514436 1.1846528 3302825
0.027386893 -0.18546855 1.1848063 3171754
0.037235305 -0.18685792 1.1836317 3171752
0.047593109 -0.1873391 1.1835786 3171753
0.056280479 -0.18496914 1.1835853 3237546
0.064719722 -0.18329363 1.1829978 3303592
-0.068611667 -0.16412526 1.1759554 2908579
-0.060751189 -0.16697517 1.1783922 2908579
-0.051141348 -0.16928196 1.1798203 3105444
-0.042744443 -0.17178106 1.1813705 3105443
0.051398642 -0.18043771 1.1862893 3303339
0.059657335 -0.17888393 1.1853602 3303082
0.068302132 -0.17753433 1.1836901 3237545
0.074488759 -0.17508215 1.1834078 3303850
-0.076610714 -0.15210013 1.175413 3302822
-0.070522308 -0.15693763 1.1780313 3040165
-0.063850343 -0.16130373 1.1801736 3040167
0.063453816 -0.17239481 1.1868182 3303598
0.069881782 -0.1689508 1.1861671 3238061
0.07868208 -0.16766 1.1846535 3303596
0.086601704 -0.16594204 1.1839277 3369131
-0.085423827 -0.1407593 1.1748364 3171751
-0.079419851 -0.14491998 1.1766036 3368615
-0.073002994 -0.14913985 1.1795707 3171751
0.088903323 -0.15953274 1.185477 3369134
-0.086774155 -0.13356151 1.1746879 3369130
-0.081010774 -0.13601145 1.1780143 3434922
0.090786457 -0.14998472 1.1870179 3435183
-0.087809667 -0.12483156 1.1758738 3434923
0.094135031 -0.14315371 1.1872668 3501232
0.10116525 -0.14062592 1.1869864 3435694
0.10814753 -0.13949862 1.1847401 3501232
-0.095002264 -0.11302128 1.1750413 3369646
-0.08972533 -0.11723837 1.1770271 3435182
0.10560563 -0.13173801 1.1885297 3567282
0.10984829 -0.1315853 1.1865606 3567027
-0.10219254 -0.099649578 1.1735241 3501231
-0.098114178 -0.1039324 1.1765341 3435439
0.10629629 -0.12384166 1.188478 3829686
0.11171076 -0.12150162 1.1869495 3829431
-0.10189754 -0.096276812 1.1735021 3501231
-0.097336262 -0.09341076 1.1753731 3567024
0.114801 -0.1123524 1.187452 3830201
-0.10066839 -0.082223624 1.1734101 3632818
-0.097620487 -0.083199248 1.1755798 3698612
0.11786646 -0.10197309 1.1868271 3896507
-0.09983255 -0.07266745 1.1733476 3633333
-0.096167609 -0.073164947 1.1763446 3764919
0.11861786 -0.091794804 1.1862527 4093886
-0.099514693 -0.063859127 1.1732668 3633334
-0.095579833 -0.06324394 1.1766659 3830201
0.11643113 -0.081938431 1.1867552 4291523
-0.094182551 -0.053034723 1.1750896 3896506
0.11688934 -0.07145828 1.18604 4619975
-0.090089366 -0.043803953 1.1752452 4028348
0.11192013 -0.05954279 1.1880574 5146320
0.1161837 -0.06215011 1.1873032 4883148
-0.087486908 -0.03458935 1.1738465 3962814
-0.082544848 -0.033638909 1.1766641 3963072
0.11177894 -0.050679684 1.1864504 5146577
0.11548398 -0.052644074 1.1846591 5080527
-0.085313886 -0.025674112 1.1735734 4028607
-0.079123661 -0.024446078 1.1760132 4291526
-0.029380281 -0.026772663 1.1804566 5147865
-0.021925081 -0.02719485 1.1808434 5344731
-0.0056233183 -0.027705781 1.1816841 5345501
0.0011361968 -0.02829469 1.182037 5739743
0.011137863 -0.031414956 1.1812487 5936862
0.020128984 -0.032204382 1.1820518 5871068
0.030328758 -0.031974673 1.1835732 5739228
0.048452795 -0.032417051 1.1845067 5213656
0.11069112 -0.041670159 1.1861953 4949970
-0.076596767 -0.017201073 1.1739266 4422856
-0.067885503 -0.013167687 1.1761491 4686797
-0.057479437 -0.01294063 1.1768619 4884690
-0.047338296 -0.015258089 1.1789091 4950486
-0.036959734 -0.016929679 1.1786247 5213659
-0.028440449 -0.018860094 1.1772133 5279707
-0.018451059 -0.020869397 1.1781478 5345244
-0.0081910398 -0.020125404 1.1785762 5411808
0.0015312973 -0.022091776 1.1788937 5806052
0.010594065 -0.026024617 1.1784911 6068964
0.022537775 -0.027442791 1.1791186 6068963
0.032683685 -0.025930978 1.1805462 6003173
0.041202098 -0.024942413 1.1818498 5608417
0.05131888 -0.025829211 1.1829787 5411038
0.058057461 -0.02643396 1.1849328 5279709
0.10272133 -0.028567858 1.1863203 5212630
0.1081149 -0.032653451 1.1848958 5015248
-0.06361714 -0.0078532994 1.1744885 4949712
-0.056880374 -0.0084402263 1.1748402 4949713
-0.046775211 -0.0093206167 1.1753677 5016279
-0.03745136 -0.010510541 1.1758585 5213659
-0.028908812 -0.012009993 1.1763127 5345501
0.043560673 -0.017757341 1.180089 5871590
0.052030809 -0.017928876 1.1805248 5871847
0.062327787 -0.016571812 1.1830401 5543139
0.069659844 -0.01607535 1.1836964 5280225
0.093968257 -0.018196151 1.1866819 5411294
0.099807054 -0.02014035 1.1844535 5279196
0.072417222 -0.011208825 1.1814952 5411556
0.082108498 -0.010353923 1.1819823 5412066
0.093336448 -0.011332132 1.1825684 5477344
0.099876553 -0.014167577 1.1829348 5213404
-0.012215961 -0.18725061 1.1871107 3105189
-0.031796291 -0.17704064 1.1869963 3039906
-0.022352792 -0.18000315 1.1879419 3039908
-0.013065575 -0.18196523 1.1903467 3105447
-0.0023107063 -0.18213946 1.1883129 3105702
0.0068738181 -0.18169078 1.1880275 3171750
0.015850062 -0.18205811 1.1884913 3237289
0.027418571 -0.18119977 1.1890746 3237548
0.037591949 -0.18208611 1.1896056 3171752
0.046634961 -0.18287396 1.1900777 3171752
-0.058257442 -0.16324311 1.1844871 3039909
-0.050557155 -0.16464216 1.1857872 3105701
-0.042758055 -0.16797061 1.1878823 3105443
-0.033752169 -0.1741598 1.1898685 3040163
-0.0030502323 -0.17591919 1.1914608 3105960
0.0083885472 -0.1757969 1.1920456 3105958
0.017612511 -0.17508863 1.1917092 3237545
0.028106086 -0.17494503 1.191149 3237547
0.038150989 -0.17550939 1.1911639 3237544
0.048179261 -0.17615443 1.1917691 3237545
0.057012908 -0.17493501 1.1911894 3303339
-0.068626493 -0.15287381 1.1838416 3172009
-0.060645346 -0.15672964 1.1866963 3105961
-0.051632006 -0.15972874 1.1887933 3171752
0.031888556 -0.16843566 1.1931684 3303337
0.038693551 -0.16902852 1.1935235 3303593
0.048824154 -0.16893032 1.1940415 3303594
0.05827643 -0.16713738 1.1932544 3303596
0.065336019 -0.16625571 1.1908525 3238062
-0.075231463 -0.14374486 1.1834025 3434409
-0.06981729 -0.14596766 1.1865318 3237547
-0.061787505 -0.14903945 1.1881552 3237805
0.059805628 -0.15993351 1.194505 3238318
0.06936805 -0.15782993 1.1938502 3238572
0.079545245 -0.15851232 1.1926968 3434926
0.086126789 -0.15848713 1.1918322 3369134
-0.076836422 -0.13453078 1.1844512 3435179
-0.071217269 -0.13702315 1.1870944 3369388
0.074506417 -0.15155135 1.1951658 3500977
0.080459073 -0.14852414 1.1944361 3435186
0.086040854 -0.14905176 1.1917237 3500720
-0.084360763 -0.12309368 1.1837085 3566511
-0.079023555 -0.12643768 1.1856878 3566767
-0.072140485 -0.12962069 1.1874106 3500977
0.082555115 -0.14104161 1.1949615 3501234
0.090757385 -0.13932325 1.1926092 3501490
-0.092707351 -0.10914867 1.1821258 3566770
-0.086513832 -0.11427192 1.1851032 3632306
-0.080419198 -0.11974507 1.1868776 3632563
0.093210831 -0.13082805 1.194482 3699127
0.10083713 -0.13021433 1.1927454 3633076
-0.093473971 -0.10346571 1.1830252 3566770
-0.087731287 -0.10484836 1.1863388 3763892
0.094817504 -0.12185282 1.195879 3633335
0.10177691 -0.12027245 1.1937704 3764407
-0.092818886 -0.093392633 1.1847502 3698868
-0.088611647 -0.094365433 1.1861781 3699126
0.096427545 -0.109978 1.1958306 3962811
0.10298589 -0.11064577 1.1950058 3830969
0.11079779 -0.11156374 1.1925789 3830714
-0.093022987 -0.083393551 1.18275 3699126
-0.087991804 -0.084375083 1.1860998 3830712
0.10451846 -0.10079773 1.1955432 4028606
0.11280501 -0.1016373 1.1925724 3962300
-0.091653854 -0.073987052 1.1833943 3830970
-0.086872354 -0.074064985 1.1860435 3962813
0.10554737 -0.091790736 1.1960974 4291522
0.113611 -0.092102818 1.1928726 4094399
-0.091082349 -0.063929103 1.1834272 3962044
-0.086373404 -0.064627163 1.1859649 4093630
0.10807312 -0.081227407 1.1958433 4554438
0.11302045 -0.082431003 1.1923716 4357059
-0.089567125 -0.053982019 1.1830137 4093886
-0.085084453 -0.053623453 1.1859097 4291009
0.10720047 -0.07057108 1.1950581 4686026
0.11335033 -0.071217969 1.1922649 4685769
-0.087262556 -0.04689718 1.1817185 4159935
-0.082217351 -0.044840138 1.1848154 4225985
0.10079798 -0.060009833 1.1955037 5015248
0.10687964 -0.06183634 1.1931652 5014991
-0.078323349 -0.035328947 1.1841695 4292037
-0.073267579 -0.037978981 1.1863427 4619977
-0.049988292 -0.033141375 1.187482 5279449
-0.04204914 -0.033833057 1.1878965 5016538
-0.029672641 -0.036055628 1.188555 4950743
-0.020345081 -0.038551062 1.1890604 4950488
-0.011280371 -0.039183743 1.1895318 5147351
-0.00080107804 -0.039143149 1.1900682 5278422
0.0095576914 -0.042374726 1.1897446 5212886
0.018963529 -0.04253469 1.189366 5278423
0.028932963 -0.042559445 1.1903777 5147094
0.039679423 -0.043895952 1.1921947 4885460
0.049286325 -0.043227967 1.1919513 4950741
0.058358483 -0.043496296 1.1931473 5016279
0.10024588 -0.05008027 1.193964 5212370
0.10763633 -0.051902391 1.1917592 5212369
-0.07563895 -0.028569952 1.1841147 4423370
-0.073277384 -0.025571235 1.1838021 4554187
-0.049072757 -0.028181367 1.1872072 5147610
-0.039112411 -0.028328449 1.1859835 5081818
-0.030251022 -0.031383805 1.1864712 5016538
-0.019038696 -0.030917726 1.1871741 5278938
-0.0099261701 -0.031102888 1.1876429 5344730
0.00046850368 -0.032897264 1.1871271 5673948
0.01050231 -0.036026739 1.1866076 5805277
0.019545317 -0.036814593 1.1870797 5541848
0.029817695 -0.036569066 1.1876032 5475544
0.040189065 -0.035191722 1.1881194 5213397
0.0506991 -0.036728144 1.1893817 5082070
0.060322072 -0.036770787 1.1915716 5016536
0.069322526 -0.035362534 1.1936194 5213915
0.080101222 -0.035320789 1.1941712 5279453
0.090949476 -0.036723632 1.1947424 5213659
0.10016598 -0.040467892 1.1936537 5212628
0.10688123 -0.041002143 1.1916004 5146833
-0.072353527 -0.019684345 1.1821824 4554443
-0.04710079 -0.020059682 1.1834804 5016281
-0.03994558 -0.021595433 1.1838639 5147611
-0.0090524815 -0.025199316 1.1854864 5411294
0.061803583 -0.026810624 1.1891345 5148123
0.070470899 -0.027569018 1.1897871 5213915
0.080356896 -0.028650887 1.1918467 5213917
0.091034621 -0.029511295 1.1929808 5213659
0.098949805 -0.031953134 1.1914281 5212887
0.092540905 -0.022645719 1.1906633 5279708
0.097062409 -0.023039646 1.1908994 5411037
-0.028468214 -0.17533304 1.195159 3106213
-0.022773694 -0.17582916 1.1954561 3105959
-0.011604359 -0.17745888 1.1960464 3105706
-0.0011345334 -0.17771442 1.1965857 3105960
-0.038689338 -0.16754809 1.1945494 3105700
-0.031445161 -0.16942951 1.1956924 3105957
-0.022329196 -0.17022371 1.1961682 3106216
-0.012125326 -0.17122854 1.1975533 3106217
-0.0014842665 -0.17163944 1.1979313 3171752
0.0064336057 -0.17183547 1.198001 3303337
0.017885864 -0.17017892 1.197477 3369130
0.024719281 -0.17077428 1.1978337 3369132
-0.050267443 -0.15528195 1.1941549 3171753
-0.040974747 -0.15850076 1.1970564 3171752
-0.030865662 -0.15965231 1.1996698 3172010
-0.02188747 -0.1617132 1.2011039 3172012
-0.011905205 -0.16216108 1.2024168 3237802
-0.0012024026 -0.16239208 1.2024215 3303338
0.0079419948 -0.16321576 1.2030994 3369133
0.018312901 -0.16389441 1.2019159 3369388
0.028461054 -0.16444547 1.2017504 3303853
0.037906304 -0.1641005 1.2001882 3369643
0.048110329 -0.16418985 1.1991951 3303851
-0.066875413 -0.14211097 1.192825 3303598
-0.059141766 -0.14561357 1.1949764 3303341
-0.050948463 -0.14805681 1.1988565 3303340
-0.041923281 -0.15027419 1.2022043 3369132
-0.033957973 -0.15286097 1.2026409 3303600
-0.00070995558 -0.15575762 1.2043763 3303598
0.011901362 -0.15685636 1.2050346 3435186
0.019353501 -0.1575056 1.2054235 3369391
0.029098608 -0.15835463 1.2059321 3369392
0.039147161 -0.1563068 1.2058082 3369390
0.048944123 -0.15610527 1.2027184 3435184
0.058618605 -0.15534252 1.1994004 3369392
-0.067253619 -0.13504258 1.1935288 3369646
-0.060607117 -0.13792698 1.1987077 3303853
-0.053791415 -0.14187923 1.2015038 3173034
0.041756641 -0.14835291 1.2064705 3566773
0.05004907 -0.14776433 1.2062212 3566516
0.060125045 -0.14676704 1.2037891 3500977
0.070073977 -0.14830299 1.2015963 3500975
-0.076286167 -0.12224929 1.1921239 3632562
-0.067874759 -0.1260536 1.1956009 3501236
-0.060648154 -0.12683904 1.2005416 3501494
0.062946759 -0.13787995 1.2074406 3698612
0.070566632 -0.13889596 1.2054754 3567283
0.079735011 -0.13725695 1.2032204 3567283
0.087532982 -0.13488016 1.2006563 3501747
-0.082604304 -0.11201377 1.1916873 3895478
-0.077399909 -0.11500278 1.1944903 3698613
-0.068853468 -0.11668622 1.1991192 3633080
0.064957201 -0.13140398 1.2074723 3699128
0.071761385 -0.12879355 1.207792 3830713
0.081289247 -0.12924066 1.2070836 3699126
0.088547111 -0.12853369 1.2006383 3633333
-0.083207712 -0.10391769 1.1915672 3961271
-0.076791316 -0.1049097 1.1969137 3896247
-0.070470244 -0.10803793 1.2002761 3764921
0.07226108 -0.12186116 1.2077413 3962300
0.08331193 -0.12030484 1.2078191 3896506
0.091263905 -0.11912554 1.2026765 3764920
-0.083828241 -0.094500609 1.1929336 3830712
-0.077232242 -0.094620161 1.1984466 4093627
0.08718361 -0.10974328 1.2083722 4028352
0.092875838 -0.10966156 1.2033224 3962812
-0.083352968 -0.084183417 1.193345 3962556
-0.077332914 -0.085815124 1.1992345 4028606
0.087566033 -0.099333055 1.2082771 4357317
0.094133645 -0.10011888 1.2046168 4225985
0.10003547 -0.09690088 1.2008781 4225985
-0.082078874 -0.07525178 1.1933117 4028606
-0.077661976 -0.075794309 1.1995523 4094655
0.088790119 -0.091375701 1.2082521 4554695
0.095019668 -0.089779668 1.2039473 4554182
0.10152619 -0.088604212 1.2008631 4619462
-0.081751391 -0.06459666 1.1916795 4159424
-0.074054018 -0.064239264 1.1983773 4160448
-0.067700863 -0.063167065 1.1999234 4554440
0.090413421 -0.078099154 1.2081889 4620747
0.095983356 -0.079619661 1.206238 4686026
0.10257079 -0.081034735 1.2008332 4619977
-0.080268398 -0.055028766 1.1911788 4291265
-0.072515622 -0.0556814 1.1968404 4357573
-0.067098424 -0.05627922 1.1998783 4751563
0.0068929521 -0.060026541 1.2037106 4818903
0.014603112 -0.059927125 1.2041044 4819160
0.08932206 -0.069444329 1.2080376 4752590
0.096782744 -0.070452735 1.2061778 4817869
0.10213007 -0.072952822 1.2007215 4752076
-0.077455774 -0.045651894 1.1912196 4291778
-0.071615383 -0.045433916 1.1951003 4554440
-0.066395581 -0.048243403 1.1998258 4883149
-0.047079209 -0.042851571 1.1967505 5674209
-0.041365743 -0.043349344 1.1970488 5082331
-0.030402862 -0.047142293 1.1995214 4950745
-0.021156102 -0.049706463 1.1975534 4884953
-0.012004286 -0.05049593 1.1978307 4753366
-0.0016938448 -0.050285459 1.1995583 4884692
0.0087411348 -0.052828953 1.1992754 4884692
0.017485972 -0.052861467 1.2003796 4884692
0.027609482 -0.052532427 1.2033542 4950484
0.038500916 -0.054446816 1.2021531 4950488
0.047207695 -0.05493794 1.2035995 4950489
0.057832997 -0.054403827 1.2051903 5411037
0.066736594 -0.054926187 1.2067204 5542623
0.080956727 -0.054140825 1.2074403 5213404
0.088444471 -0.057684988 1.207863 5081558
0.096638322 -0.060663581 1.2059124 5015248
-0.071337417 -0.035679124 1.1914231 4685772
-0.04923936 -0.037131559 1.1936637 5542365
-0.040333293 -0.038088199 1.1941825 4951002
-0.031644098 -0.039883468 1.1935031 4884951
-0.022592552 -0.042552374 1.1939963 4753366
-0.0088259671 -0.042602684 1.1947021 4950484
-2.4404377e-005 -0.043656763 1.1951647 5015763
0.029796999 -0.047116701 1.1967307 5015764
0.036630414 -0.047712047 1.1970874 4885461
0.048593048 -0.047769345 1.197701 4884950
0.05932558 -0.047624681 1.2000979 5082072
0.068602182 -0.047270332 1.2035272 5542624
0.077909797 -0.049227718 1.2064289 5279197
0.088261902 -0.048894502 1.2041519 5213144
0.095540255 -0.052078385 1.2001537 5212627
0.063623145 -0.04087114 1.1983949 5016538
0.069467261 -0.039656684 1.198681 5213917
0.079174235 -0.038012721 1.1991602 5345245
0.089236379 -0.041203536 1.2003785 5213917
0.17941189 -0.051151302 1.2124517 13158081
-0.021832045 -0.15673235 1.2073104 3303598
-0.0091790408 -0.15783472 1.2079709 3303850
-0.049201977 -0.14367077 1.2057642 3303853
-0.039638739 -0.14610375 1.2066386 3304111
-0.030391134 -0.14902489 1.2088951 3303857
-0.021420676 -0.15012819 1.2100124 3303856
-0.011061009 -0.15106066 1.2108039 3369903
-0.00042195432 -0.15047383 1.2083384 3435441
0.0085190805 -0.15216902 1.2088151 3435187
0.018999159 -0.15244217 1.2093551 3500978
0.029485155 -0.15307942 1.2098994 3369649
0.036297768 -0.1520482 1.210237 3435441
-0.056679141 -0.1355145 1.2052912 3370159
-0.050228078 -0.13685024 1.2056364 3370416
-0.040063381 -0.13798492 1.2084228 3436469
-0.029910546 -0.1391755 1.2117099 3502005
-0.020670459 -0.13998054 1.2121922 3501749
-0.01057882 -0.14435571 1.2127573 3501493
0.0001861034 -0.14165524 1.2120274 3567542
0.009374937 -0.14256258 1.2134471 3567541
0.019807434 -0.14333767 1.212801 3633333
0.030263962 -0.14396432 1.2107776 3567541
0.038928114 -0.14399287 1.210283 3633079
0.049104419 -0.14268589 1.21079 3632566
-0.056323808 -0.12703478 1.2052159 3501750
-0.049653623 -0.12787138 1.2080703 3567798
-0.041474387 -0.12911436 1.2110065 3633848
-0.02824977 -0.13349357 1.2117323 3633591
-0.021319702 -0.13409735 1.2120941 3699128
0.00072665885 -0.13485277 1.2132319 3830714
0.011121758 -0.13575841 1.2137744 3764921
0.020654611 -0.1356355 1.2142615 3830712
0.031254813 -0.13564329 1.214447 3830713
0.039962843 -0.13610271 1.2145883 3830458
0.050362762 -0.13675445 1.2131608 3764409
0.05867235 -0.13594887 1.2117622 3764407
-0.064348996 -0.11542647 1.2046767 3698874
-0.057942178 -0.11665688 1.2072717 3764923
-0.04962831 -0.1180584 1.2104669 3765435
-0.043610688 -0.12283269 1.2108278 3699641
0.049560197 -0.13095 1.2156909 3896252
0.060160678 -0.12740521 1.2135723 3831226
0.06766209 -0.12739187 1.2115722 3830458
-0.066193476 -0.10577994 1.2052665 3896508
-0.057310846 -0.10648986 1.2099457 4028352
-0.049517456 -0.10786804 1.2103602 4094143
0.062337052 -0.11765753 1.2126226 4159936
0.071796224 -0.11722977 1.2116719 4028352
0.079909846 -0.11656334 1.2120804 3962559
-0.073259234 -0.095385134 1.2039993 4093628
-0.066435695 -0.096039236 1.2051072 4028352
-0.056469772 -0.097216889 1.2095736 4094401
-0.049660929 -0.096202284 1.2102243 4225986
0.06448184 -0.10862064 1.2148436 4357317
0.07284224 -0.10833209 1.2144438 4225732
0.081817761 -0.10866378 1.212091 4159938
-0.073396116 -0.085591473 1.2038844 4028609
-0.065333799 -0.086357787 1.2056714 3963330
-0.056238409 -0.087184049 1.2097878 4160708
-0.050119631 -0.09080182 1.2101412 4292035
0.06819725 -0.0952833 1.2162526 4620236
0.073454484 -0.09849225 1.2151664 4488649
0.082013994 -0.099896438 1.2120044 4357318
-0.07365413 -0.075289875 1.2037575 4160449
-0.065300927 -0.076171547 1.207896 4160708
-0.056127559 -0.076993689 1.2096812 4489161
0.075349987 -0.089343794 1.2154806 4555212
0.083895534 -0.088883415 1.2119794 4620489
-0.16485381 -0.058664676 1.2039086 14082013
-0.071641952 -0.068059795 1.203781 4226242
-0.063508049 -0.066453919 1.2066834 4620234
-0.056398053 -0.065006115 1.2095351 5079759
-0.022484008 -0.067572355 1.2113011 6791922
-0.014297782 -0.067120239 1.2117155 5608162
-0.003902683 -0.068025887 1.2122581 5016279
0.0060597183 -0.070943341 1.2114351 5608413
0.014526915 -0.07021419 1.2132264 4950485
0.021507557 -0.0702397 1.2135843 5016277
0.078954637 -0.078740634 1.2166213 4752847
0.084992647 -0.079298958 1.2136971 4620747
-0.063325405 -0.05753728 1.2050924 4948687
-0.053365845 -0.06138587 1.2096506 5408980
-0.031539351 -0.060155213 1.2088296 6134248
-0.022852927 -0.060437977 1.2087001 5344990
-0.013997842 -0.061392374 1.2095219 4884696
-0.0028944667 -0.06240277 1.210186 4818902
0.0075532608 -0.064591967 1.2078003 4818646
0.01669337 -0.064295813 1.2089806 4818646
0.026736477 -0.064722642 1.210537 4884696
0.036812887 -0.065104276 1.2110932 5344733
0.046036359 -0.065891072 1.2112168 5936870
0.055617336 -0.066183522 1.2144527 5608416
0.064699806 -0.066078529 1.2157514 5082072
0.077520132 -0.067992508 1.2134252 5016278
0.083802104 -0.070074439 1.2117673 4884178
-0.031371415 -0.053773247 1.2056867 5082331
-0.0026145829 -0.056278624 1.2071877 4687574
0.020390887 -0.058282923 1.2083884 4687574
0.028336039 -0.058311958 1.2087958 4819159
0.035344437 -0.05958572 1.2091689 4950233
0.047997445 -0.060688086 1.2098293 5542369
0.056800336 -0.060165524 1.2102746 5805540
0.069771439 -0.059103463 1.2109275 5213659
0.077056497 -0.059738159 1.2113078 5147866
0.085707366 -0.06242609 1.2117805 5081557
-0.010419356 -0.14014862 1.2167246 3633335
-0.036886603 -0.12721409 1.2152261 3699641
-0.029439941 -0.12831302 1.2156197 3765177
-0.019872088 -0.12931125 1.2177702 3830714
-0.0097817481 -0.1311423 1.219542 3962299
0.00098893419 -0.1295168 1.2178595 4028092
0.0097131012 -0.1310744 1.2179422 3962300
0.019187339 -0.13153341 1.2188748 3962299
0.028734986 -0.13104826 1.2208557 3962299
0.041281592 -0.13109082 1.2192737 3896509
0.051056113 -0.13147473 1.2197787 3830714
-0.04567425 -0.11603242 1.2146525 3962813
-0.039390251 -0.11830471 1.2167798 3962813
-0.028712299 -0.1204409 1.2195758 4028350
-0.019702384 -0.12335853 1.2200695 4093886
-0.012726838 -0.12396626 1.2204336 4093886
0.0015297038 -0.12168942 1.221139 4291263
0.010830432 -0.12249973 1.2216244 4291265
0.020131158 -0.12331004 1.2221098 4291265
0.030594479 -0.12422163 1.222656 4225471
0.041102394 -0.12490159 1.2206984 4159424
0.050404739 -0.12557225 1.2196803 4028351
-0.046021163 -0.10664901 1.2145313 4159681
-0.040815137 -0.10884198 1.2177354 4159937
0.0022424255 -0.11354071 1.2210855 4685507
0.011857127 -0.11343999 1.221577 4685766
0.020692818 -0.11420978 1.2220383 4685768
0.032649532 -0.11533679 1.2226633 4685254
0.041876301 -0.11579849 1.2228907 4553924
0.051213246 -0.11631032 1.21987 4357059
0.057213608 -0.11447396 1.2199068 4291524
-0.04632283 -0.098658122 1.2147616 4291267
-0.040636119 -0.098247044 1.217919 4291525
0.01331665 -0.10746769 1.221586 5080013
0.020292196 -0.10807542 1.2219502 5013964
0.035813149 -0.10473575 1.2227085 5014215
0.042788696 -0.10534348 1.2230726 4948424
0.052096624 -0.10608968 1.2227566 4686025
0.059811056 -0.10616962 1.2215505 4554696
-0.052306022 -0.085056767 1.2139713 4423366
-0.047087513 -0.087665923 1.2161367 4489158
-0.041469544 -0.090964824 1.2185972 4554697
0.0367295 -0.09425883 1.22264 6725605
0.043917205 -0.09511964 1.2230177 5541334
0.053005777 -0.095676869 1.2234895 4949456
0.062915072 -0.097713947 1.2224938 4752076
-0.052652944 -0.075673342 1.2138501 4751821
-0.047201015 -0.077481017 1.2168198 4817612
-0.021442641 -0.076288007 1.2194614 6133729
-0.01911746 -0.076490581 1.2195828 5804510
0.0052290712 -0.0793937 1.2208622 6726116
0.013435086 -0.079326652 1.2212819 6791913
0.026223587 -0.080440819 1.2219493 5673696
0.034606915 -0.084299132 1.2224214 5344728
0.045682184 -0.085655034 1.2230039 5475805
0.053820319 -0.086364046 1.2234286 5147095
0.064280376 -0.087202914 1.2227721 4949712
0.073229179 -0.084886827 1.2204012 4621777
0.1808482 -0.093912154 1.23002 11781308
-0.054463115 -0.069669895 1.2136911 4883150
-0.04540984 -0.068510063 1.2141422 6001884
-0.034459051 -0.067905262 1.2146966 6133474
-0.023227971 -0.071780175 1.2169169 6067939
-0.015332118 -0.07175906 1.2168114 6594284
-0.0042530652 -0.071448863 1.2173756 6002915
0.006428916 -0.075676471 1.2168771 6857704
0.015543841 -0.074442789 1.2179981 6397928
0.024689153 -0.074565411 1.2196697 6397674
