# .PCD v0.7 - Point Cloud Data file format
VERSION 0.7
FIELDS x y z rgba
SIZE 4 4 4 4
TYPE F F F U
COUNT 1 1 1 1
WIDTH 1125
HEIGHT 1
VIEWPOINT 0 0 0 1 0 0 0
POINTS 1125
DATA ascii
-0.12648194 -0.080116965 1.1229037 3302821
0.14600244 -0.12032744 1.1404053 3632048
-0.12641521 -0.069906384 1.1188587 3302824
-0.12512036 -0.071005955 1.1229633 3302569
0.14561892 -0.11128108 1.140239 3632047
-0.12550059 -0.060870316 1.1188873 3434408
-0.12269014 -0.058924008 1.1230861 3434665
0.14392975 -0.099855356 1.1397116 4026292
-0.12354201 -0.050680287 1.1189846 3631531
-0.12199676 -0.050104227 1.1231002 3631531
0.14531027 -0.091985986 1.1384004 4157366
-0.12258428 -0.044271596 1.1190265 4025255
-0.11887856 -0.039662249 1.121559 3632304
0.14655428 -0.080248438 1.1379961 4289211
-0.11409554 -0.031283095 1.1212881 3568048
0.14498553 -0.069129303 1.1385112 4094399
0.1465441 -0.073807925 1.1399751 4224702
-0.11179118 -0.025504701 1.1197083 3764911
-0.10793371 -0.02173648 1.1224695 3895729
0.14365286 -0.060419433 1.1391736 4487616
-0.11052252 -0.0074069276 1.1227336 6458567
-0.10616879 -0.011870474 1.1224542 3895996
0.14528839 -0.049497161 1.1381882 5735616
0.15256803 -0.047296554 1.138288 9477559
-0.10976262 -0.0048146397 1.1237791 6852289
-0.10655492 -0.0052954853 1.1240054 5933254
0.073223941 0.070525758 1.1322767 9474701
-0.046893325 -0.22058126 1.14105 7248329
-0.014666463 -0.22701633 1.1425278 5801654
-0.0065470999 -0.22708794 1.1425614 5210039
0.0058897748 -0.22960114 1.144778 6328255
0.013453342 -0.23073494 1.1453116 7379645
0.024876706 -0.2323243 1.146117 8430007
0.033262592 -0.23176178 1.1426915 8625323
-0.082530968 -0.20697016 1.130484 9678537
-0.072306596 -0.2085475 1.1377478 4422071
-0.06329684 -0.2105916 1.1398634 2778029
-0.053933118 -0.21383047 1.1405312 2513574
-0.046821829 -0.21763875 1.1410435 2315684
-0.017395817 -0.22278813 1.1431223 2120102
-0.0055102101 -0.22456983 1.1439608 2185635
0.0076177842 -0.22543034 1.1448826 2186146
0.012858454 -0.22732338 1.1452566 2316696
0.028309342 -0.22742462 1.146338 4486314
0.035966251 -0.22815996 1.1448716 5997746
0.047343496 -0.22687846 1.1465218 6063288
0.056034338 -0.22670794 1.1482748 6589614
0.063997716 -0.22812316 1.1488374 8757678
-0.086127698 -0.19433376 1.130183 1855898
-0.080093153 -0.19779637 1.1338648 2249885
-0.07313583 -0.20120166 1.1384093 2381985
-0.065480523 -0.2045055 1.1396868 3039902
0.050917085 -0.22029284 1.1478918 2841504
0.056940824 -0.22064212 1.1483145 3302564
0.066805243 -0.21983136 1.1476648 4420011
0.076905698 -0.22047427 1.1439823 6984117
0.086784936 -0.21915437 1.1423769 6254993
-0.095625833 -0.18227789 1.1302733 2710418
-0.088735543 -0.18663472 1.1343621 2775447
-0.082628436 -0.18982285 1.1376278 2906776
0.070321947 -0.21238361 1.1488174 3171492
0.079117194 -0.21229462 1.1466254 3237285
0.087816946 -0.21234317 1.1429954 3629215
-0.09772674 -0.17496276 1.1341076 2775191
-0.09039215 -0.17960963 1.1371784 2906012
0.082302094 -0.20347413 1.148351 3040421
0.08963801 -0.20284984 1.1454674 3105703
0.095634103 -0.20398468 1.1429368 2777257
-0.11043683 -0.15879703 1.1283435 2710677
-0.10458145 -0.16362607 1.13231 2709909
-0.099152908 -0.16810483 1.1351839 2709910
0.091763087 -0.19471908 1.1491721 3368100
0.099821888 -0.1940428 1.1453295 3302561
-0.11089854 -0.1521309 1.1314038 2710421
-0.10688448 -0.15564343 1.1357974 2644886
0.094837971 -0.18734072 1.1508356 3040936
0.10337685 -0.18547352 1.1493337 3237031
0.11032798 -0.18356299 1.1468923 3368615
-0.11827329 -0.13782685 1.1277133 2776209
-0.11390804 -0.14304379 1.1328007 2841240
0.10649093 -0.17737317 1.1516119 3237287
0.11354894 -0.17614609 1.1469455 3302822
-0.11859363 -0.13108194 1.1322089 2710683
-0.11464292 -0.13502172 1.1353077 2841499
0.11684721 -0.1681461 1.1497059 3237541
0.12242004 -0.16621122 1.1462671 3237798
-0.11947191 -0.12230315 1.1327243 2907293
0.11962455 -0.15971544 1.1524618 3237797
0.12501976 -0.15791968 1.1478199 3303334
-0.12368737 -0.10981711 1.1283708 2907805
-0.12218252 -0.11173695 1.1345556 2907805
0.12804119 -0.14892173 1.150558 3434407
-0.12291051 -0.10053244 1.1299163 3039392
-0.12087385 -0.10206838 1.1354113 3039391
0.13138254 -0.13974227 1.1506286 3500202
0.13628729 -0.13749537 1.145521 3631274
-0.12479326 -0.090992562 1.1316186 3170979
0.13467747 -0.12986821 1.1529528 3631791
0.13851172 -0.12982981 1.1474289 3566510
-0.12374467 -0.080692038 1.1328355 3105957
0.13559411 -0.11875946 1.1517482 3632305
0.14101937 -0.12064241 1.1461204 3501227
-0.12247972 -0.070729002 1.1305938 3237546
0.13654479 -0.10972378 1.1508985 3698099
0.14139681 -0.11080182 1.1461753 3698094
-0.12044077 -0.061179195 1.1309378 3434923
0.13909718 -0.10073257 1.1515887 3895479
0.14143121 -0.10307453 1.1457465 3895477
-0.11856449 -0.050890487 1.1316495 3566256
0.14093007 -0.089587338 1.15301 4027579
0.14370826 -0.089399621 1.1498621 4157882
-0.1162134 -0.042228617 1.131022 3567024
0.14036295 -0.079854727 1.1524212 4159422
0.14492135 -0.080657423 1.1483089 4289724
-0.1123226 -0.03285069 1.129056 3567791
-0.10934719 -0.031376183 1.1346048 3764403
0.14026369 -0.069680512 1.1508807 4356797
-0.10588308 -0.022820219 1.1287036 3830196
0.13911822 -0.059812944 1.1498264 4619718
-0.10298175 -0.012247331 1.1312087 3896507
0.13680591 -0.047444046 1.1501063 4817095
0.14141229 -0.048697095 1.1472033 4948420
-0.10920817 -0.0020450726 1.1318266 6916535
-0.10187649 -0.0036783069 1.1320376 5210049
0.13676803 -0.040989622 1.1521947 5013440
0.14139347 -0.041245885 1.1501803 5998788
0.04902913 0.047092043 1.1415594 5859448
0.057257757 0.04594899 1.1402779 6122362
0.062552616 0.045265578 1.1436583 6319482
0.073423617 0.044890501 1.1484301 5330522
0.050366893 0.051398344 1.1401086 5792108
0.058249567 0.05107484 1.1401267 5527648
0.063197866 0.049583249 1.1436865 5067354
-0.041431654 -0.22139189 1.1444426 4354997
-0.034462467 -0.22348866 1.1469432 4684224
-0.024551995 -0.22466698 1.1461709 4289976
-0.013342786 -0.22401631 1.1464179 2054307
-0.0031323144 -0.22610208 1.1471404 2777510
0.0021220325 -0.22800007 1.1475154 4026798
0.018371951 -0.230436 1.1486617 5604271
0.022407047 -0.22937536 1.1489398 4881326
-0.058627535 -0.2083452 1.1431886 3039902
-0.050955225 -0.21042667 1.1442347 2710943
-0.043077979 -0.21355626 1.1476092 2645152
-0.033989534 -0.21783079 1.1516323 2514339
-0.024129167 -0.21920061 1.1517929 2514851
-0.013866919 -0.21819532 1.1509699 2842787
-0.0038978737 -0.21924685 1.1494659 2908579
0.0056680366 -0.22028467 1.1506293 3039651
0.015544051 -0.22248334 1.1524427 2908578
0.024915077 -0.22300485 1.1528497 2778020
0.03522006 -0.22285432 1.151243 2646433
0.044370476 -0.22693101 1.1504669 5012145
0.055556078 -0.22990316 1.1512611 8955830
-0.070259579 -0.19809017 1.1426212 2841242
-0.0609979 -0.2015879 1.1453354 2775960
-0.052433547 -0.20417392 1.1478827 2841500
-0.043733589 -0.20769899 1.1522477 2907551
-0.012353753 -0.21165761 1.1544584 3105184
-0.0032089083 -0.21265578 1.1551021 3170722
0.0066086976 -0.21412748 1.1557947 3302053
0.016689818 -0.21507967 1.1565037 3170723
0.027189031 -0.21572183 1.1572407 3105188
0.036632828 -0.21632388 1.1561853 3170467
0.046412945 -0.21755248 1.152979 3236258
0.057067607 -0.21565619 1.1517566 3171236
-0.084956065 -0.18441229 1.1412531 2906776
-0.078923307 -0.18758541 1.1428332 2907033
-0.070989855 -0.18979496 1.1470964 2841497
-0.062679701 -0.19516917 1.1508732 2775704
0.038296308 -0.21105126 1.1579995 3105443
0.047023073 -0.21235943 1.1586152 3105443
0.05831068 -0.21028389 1.1581305 3105956
0.067236155 -0.20869568 1.1552032 3105956
-0.094166383 -0.1719282 1.1405599 2644884
-0.087928712 -0.17649114 1.1440215 2775705
-0.080280513 -0.18055974 1.1472458 2841497
0.062838279 -0.20354976 1.1596872 3172006
0.070815265 -0.20233019 1.1592381 3040421
0.077121533 -0.200883 1.1571674 2974628
-0.10153464 -0.16194093 1.1400055 2645144
-0.095455788 -0.16466029 1.1435077 2710425
-0.090731531 -0.16813025 1.1453681 2776216
0.081802145 -0.19285004 1.1577141 3171493
0.087263927 -0.1913926 1.1549329 3237026
-0.10352831 -0.15355209 1.1424278 2710424
-0.097847067 -0.15666378 1.1468043 2710937
0.085415088 -0.1868093 1.1612012 3302823
0.092485659 -0.18371761 1.1585182 3172005
0.098726772 -0.18147191 1.1581019 3172006
-0.11022291 -0.1410225 1.1393158 2841498
-0.10660306 -0.14414613 1.1445165 2907290
0.095776074 -0.17718202 1.1618885 3303592
0.10253344 -0.17476627 1.1610152 3237544
0.10971031 -0.17140064 1.1548212 3303337
-0.11083402 -0.13239025 1.140958 2973342
-0.10720483 -0.13613287 1.1475276 3038879
0.1072174 -0.16762239 1.1619833 3237544
0.1122839 -0.16528895 1.1577841 3303336
-0.11699475 -0.11978 1.1397616 2973342
-0.1117925 -0.1237893 1.1446522 2973600
0.11691253 -0.15676327 1.1592777 3368872
-0.1174842 -0.1117648 1.1410522 3039392
-0.11264361 -0.11335597 1.147058 3236259
0.11946912 -0.14761248 1.161175 3500460
0.124601 -0.14587429 1.1557631 3434923
-0.11718175 -0.1020631 1.1415728 3170978
0.12175272 -0.13893208 1.1622198 3500719
0.12698653 -0.13716641 1.1592375 3500718
-0.12180547 -0.090061113 1.1383064 3237029
-0.11866523 -0.091956988 1.1445483 3237286
0.12843545 -0.12844601 1.1620835 3697329
-0.12050711 -0.081373014 1.1383634 3237543
-0.11844155 -0.081291787 1.1460259 3172263
0.13101928 -0.11961696 1.1617233 3697843
-0.11959091 -0.071785435 1.1413974 3303340
-0.11773401 -0.071012266 1.1465365 3303852
0.13231252 -0.10925114 1.1621742 3764149
-0.118001 -0.06213266 1.1384635 3500716
-0.11567627 -0.061151844 1.1466419 3501229
0.13685666 -0.099369757 1.1610215 3764661
-0.1164497 -0.054222703 1.1385411 3566512
-0.11311985 -0.051290262 1.143137 3632306
0.13543093 -0.088832974 1.1607795 3896764
-0.11110427 -0.041864336 1.1432412 3698357
0.13085717 -0.078009263 1.1626186 4291265
0.1348522 -0.079753712 1.1573676 4225217
-0.10815815 -0.033195276 1.1430489 3764408
0.13309504 -0.068630092 1.1620703 4554434
0.13612403 -0.068767428 1.156268 4488640
-0.10371471 -0.023034818 1.144122 3895997
-0.09939938 -0.020467222 1.1476216 4027323
0.13437434 -0.057897024 1.1611154 4817354
-0.10054127 -0.013847463 1.1408329 3962044
-0.096849583 -0.013220683 1.1469698 4093118
0.12678547 -0.044310886 1.1635387 5014224
0.13198216 -0.047826353 1.1599063 4751563
-0.097826198 -0.0037180707 1.1396466 4290235
-0.09330751 -0.0042955726 1.1445096 4158908
-0.08711274 -0.0029295906 1.1484127 4028609
0.12630826 -0.037110765 1.1616951 4817874
0.13330911 -0.037837848 1.1569526 5145287
-0.089823984 0.0019183829 1.1425904 4487616
-0.084420063 0.0037731677 1.1472384 4356800
0.11943834 -0.023425005 1.1609383 5276623
0.12550873 -0.027356148 1.1576549 5604813
0.13470392 -0.029956296 1.156908 6720449
-0.081406578 0.010376938 1.14876 5671109
0.11832689 -0.017640255 1.1622699 5802961
0.12478098 -0.019358389 1.1586229 6787017
0.045564502 0.009232156 1.1576473 12972031
-0.0073410487 0.027199931 1.151871 5869264
0.023946438 0.018808387 1.1560975 7515376
0.031285465 0.017335542 1.1566167 8764660
0.040698335 0.015477315 1.1572825 10146554
0.047090866 0.013475522 1.1577375 10870005
-0.062645748 0.043934487 1.1419216 8028800
-0.057536114 0.043538652 1.1422807 7305855
-0.0029801382 0.027689651 1.154179 5671370
0.0002923971 0.02719909 1.1544099 5869265
0.023200139 0.023765124 1.1560259 6988787
0.02756352 0.02311103 1.1563337 7185904
0.1139568 0.01910466 1.1623935 6314850
-0.055593062 0.048305593 1.142398 8028802
0.1114254 0.023061901 1.1622009 6117979
0.089902021 0.036981814 1.1526212 5593178
0.09206868 0.036657028 1.152774 5658970
-0.039049469 -0.2114262 1.1565998 2973083
-0.033740439 -0.21334395 1.1569787 2973595
-0.024421118 -0.21431023 1.1583028 2973598
-0.057112481 -0.19749953 1.1552817 2842012
-0.051023494 -0.19981466 1.1557167 2776219
-0.042280741 -0.20364341 1.1578709 2907806
-0.033132564 -0.20642015 1.1601597 2907807
-0.022808276 -0.20851558 1.1610661 2973599
-0.013515216 -0.20752572 1.1590393 3039136
-0.0028160708 -0.20813273 1.1604583 3170723
0.0070926375 -0.20949301 1.1604886 3236770
0.01687463 -0.21048912 1.1605085 3170979
0.02583139 -0.21161602 1.1611396 3170980
0.032644991 -0.21095455 1.1616137 3171236
-0.06674663 -0.18708014 1.154567 2842012
-0.06056403 -0.19030738 1.1564702 2842011
-0.051483124 -0.19395937 1.1581292 2842012
-0.043628033 -0.19661266 1.1602314 2907805
0.002022875 -0.20486309 1.1634573 3302309
0.0082049901 -0.2046127 1.1627432 3302308
0.016854936 -0.20577797 1.1619924 3171236
0.027499948 -0.20793949 1.161242 3171236
0.038069922 -0.2081461 1.163653 3105443
0.048091289 -0.20769972 1.163684 3171492
0.054900557 -0.20681143 1.1631545 3040420
-0.085904241 -0.17298937 1.1531717 2841497
-0.077689499 -0.17700417 1.1542966 2907291
-0.069850355 -0.18086848 1.1562124 2907549
-0.063588113 -0.18301973 1.1587818 2907551
0.051996261 -0.2010968 1.1669388 3040420
0.059323151 -0.20032069 1.1655489 3106213
0.067570612 -0.19891283 1.16401 3106214
-0.08656843 -0.16634378 1.155104 2907290
-0.08060012 -0.17015983 1.1570402 2973340
0.06429626 -0.19393465 1.1677712 3302823
0.070780665 -0.1924794 1.1658133 3237030
0.077329315 -0.19001743 1.1664401 3237031
-0.10156075 -0.15044823 1.1519883 2841497
-0.093827873 -0.15512949 1.1530821 2842012
-0.088292763 -0.15823653 1.1559542 2907547
0.083640464 -0.18318762 1.1659981 3368361
0.08920154 -0.18072715 1.1654522 3237285
-0.10214563 -0.14437711 1.1519235 2973085
-0.095680133 -0.1455916 1.1551242 3039135
0.087038979 -0.17647634 1.1652844 3368615
0.093917377 -0.17414469 1.1664855 3237799
0.098968931 -0.17153332 1.1660997 3303337
-0.10752983 -0.1304812 1.1514926 2973857
-0.10280404 -0.13476923 1.1533993 3039137
-0.097251326 -0.13650838 1.156245 3104930
0.09689945 -0.16701634 1.1679422 3172264
0.10355905 -0.16508308 1.1670638 3238059
-0.10756273 -0.12218896 1.1524603 3039650
-0.10437588 -0.12632181 1.1557068 3105700
0.10809065 -0.15591978 1.1688359 3369132
0.11237473 -0.15671444 1.1669797 3434410
-0.10906621 -0.11330958 1.1530365 3171236
0.11108442 -0.14816254 1.1700637 3500719
0.1148357 -0.14638716 1.1691164 3435183
-0.11421224 -0.10031013 1.1509072 3302823
-0.11010218 -0.10294545 1.1538782 3171495
0.11709251 -0.13651413 1.1690534 3566514
-0.1147608 -0.091505736 1.1522925 3368873
-0.11142658 -0.093206681 1.1542821 3368875
0.12120152 -0.12782764 1.1682862 3697588
-0.11439735 -0.082400732 1.1534975 3303850
0.12398352 -0.11855508 1.1710796 3763892
0.12750567 -0.11836995 1.1678884 3698099
-0.11414017 -0.072112724 1.152406 3435181
-0.10860312 -0.073453352 1.1552044 3435438
0.12644625 -0.10868827 1.1717862 3829942
0.12953527 -0.10857761 1.1691377 3764149
-0.1117162 -0.062697366 1.1529398 3501229
0.12842081 -0.095475264 1.1718727 3896505
0.13248394 -0.098984778 1.1699835 3830455
-0.1096363 -0.053034984 1.1525848 3632563
-0.10514761 -0.05033062 1.1553558 3567542
0.12733072 -0.088056505 1.1691897 4027837
0.1320653 -0.092352301 1.1681057 3896505
-0.10738651 -0.043199994 1.1524981 3829940
-0.10416032 -0.043724123 1.1553991 3699127
0.12718378 -0.078321651 1.1703825 4291009
-0.10543747 -0.033234324 1.152061 3895737
-0.1019107 -0.032964677 1.1555145 4027576
0.12900627 -0.068439469 1.1698031 4422849
-0.10322522 -0.026790023 1.1513886 4158911
-0.098390602 -0.023787387 1.15372 4093372
0.13042593 -0.05879581 1.1693635 4817355
-0.093271084 -0.015047759 1.1535813 4093630
-0.088240243 -0.012338124 1.1563902 4094397
0.12461138 -0.047061101 1.1696349 5080014
0.12874663 -0.050905574 1.1677116 4883149
-0.089947872 -0.0078382716 1.1522434 4028348
-0.08522927 -0.0059694722 1.1540699 4028864
0.12163585 -0.036860786 1.1689414 4949202
-0.080318764 0.0029922053 1.1546974 4029123
-0.075978644 0.0045862794 1.157182 3963586
0.11702839 -0.026200943 1.1694684 5146069
0.11995906 -0.031076975 1.1670194 5080276
-0.078239299 0.010600723 1.1529905 5342665
-0.07117404 0.011688575 1.1574903 4882633
-0.0080104908 0.0060303211 1.1619313 6070261
-0.0014203219 0.0050424263 1.1623962 6528744
0.0051698475 0.0040545315 1.1628611 8827627
0.020546909 0.001749441 1.1639459 10340848
0.029082865 -0.00017342716 1.1645507 8895736
0.036385529 -0.0019757301 1.1650685 6266608
0.10996256 -0.012210667 1.1692536 5475287
0.11398072 -0.016359232 1.1678802 5475028
-0.066722363 0.01709225 1.1557758 5999306
-0.059986997 0.017204486 1.1562465 5540557
-0.050994232 0.019232929 1.1561995 5803727
-0.038375635 0.019087851 1.1597559 4950220
-0.029699486 0.016650155 1.1603725 5016280
-0.020166796 0.014605857 1.1606464 5411294
-0.010127245 0.013099261 1.1595101 5806569
-0.00038507301 0.011641048 1.1618414 7120874
0.0091434978 0.010963857 1.1631122 12379901
0.019694891 0.0088686049 1.1613261 13891069
0.029390674 0.0071782768 1.1613356 12969723
0.03918561 0.0059438571 1.1629121 9946095
0.049060106 0.0042268261 1.1640134 10013177
0.058960833 0.0046458021 1.1644629 7449069
0.065651029 0.005495131 1.1670868 5411552
0.10777023 -0.0079397634 1.1675799 6526426
-0.035691671 0.023688838 1.1599257 6264275
-0.027905572 0.023350611 1.1579657 5803990
-0.018258866 0.022551477 1.15714 5345755
-0.0081994822 0.022319406 1.1578447 5412839
0.0013150945 0.021489568 1.1590148 5676266
0.0099309087 0.019250937 1.1619892 7253489
0.019734386 0.017610013 1.1608198 8436213
0.029320166 0.01392331 1.1605024 12051453
0.044205945 0.016179465 1.161535 10082302
0.051831823 0.014288381 1.1620759 10607102
0.060077991 0.012197472 1.162661 7515119
0.066838488 0.010554738 1.1644769 6068200
0.0043615671 0.026639886 1.1587065 6001365
0.0087399809 0.025983542 1.1590154 6396124
0.12058547 0.015051298 1.1668829 6447199
-0.029467903 -0.20314443 1.1652573 3039391
-0.022045899 -0.20368834 1.1672823 3039135
-0.010731868 -0.20595303 1.1665791 3104930
-0.05647191 -0.18780041 1.1633083 2776478
-0.050452717 -0.18962154 1.1657413 2842271
-0.041077122 -0.19269909 1.1685964 2907807
-0.032284316 -0.19590066 1.1697392 2908063
-0.022602502 -0.19821851 1.1715326 2973600
-0.012242001 -0.19877508 1.1717918 3105187
-0.0023306087 -0.19989972 1.1715678 3236773
0.0074899672 -0.20001304 1.1715732 3237029
0.018273529 -0.20171657 1.1724011 3171237
0.027816068 -0.20409226 1.1707723 3171236
0.037479863 -0.20396011 1.1708696 3105444
0.046493743 -0.2038002 1.1705742 3171493
-0.067414872 -0.17721161 1.1657091 2841758
-0.059820462 -0.18068847 1.167056 2907551
-0.051390089 -0.18308975 1.1704856 2842271
-0.041105095 -0.18584125 1.1723952 2908064
-0.034613512 -0.18795168 1.1728576 2973857
-0.013530423 -0.19111213 1.174345 3105444
-0.00068348181 -0.19202699 1.1752473 3237030
0.0092265075 -0.19392772 1.1751461 3302823
0.018882886 -0.1945843 1.1757008 3171495
0.028360471 -0.19457683 1.1758945 3105703
0.037916735 -0.19626951 1.1763604 3105703
0.047798675 -0.19723457 1.1751509 3105702
0.056585692 -0.19600111 1.1729683 3105958
-0.077296861 -0.16793594 1.1634247 2973598
-0.069966711 -0.17080352 1.1683124 2907551
-0.060622443 -0.1741014 1.1709839 2908065
0.050553247 -0.18917051 1.1788207 3237288
0.059531569 -0.18977866 1.1770008 3302823
0.068589717 -0.18905127 1.1746402 3237287
-0.084994443 -0.15539563 1.1640503 3105183
-0.078357607 -0.15982389 1.1678004 2974112
-0.070624761 -0.16321924 1.1702417 2842786
0.061832596 -0.18330264 1.1795869 3171750
0.070973434 -0.18101367 1.1788808 3172008
0.079493664 -0.1804873 1.1751308 3303081
-0.091426663 -0.14462616 1.1613624 3104930
-0.086045235 -0.14781941 1.1677661 3170978
0.074569009 -0.17312394 1.1804382 3303337
0.082624592 -0.17277992 1.1787448 3368873
0.089890182 -0.17252687 1.1760397 3237543
-0.099378198 -0.13051645 1.1627558 3040164
-0.093378879 -0.13522205 1.1643195 3105701
-0.08803124 -0.14051755 1.1689352 3302822
0.085352734 -0.16408229 1.1811572 3303597
0.093320169 -0.16279338 1.1773353 3238059
0.1008651 -0.1608212 1.1762149 3303852
-0.10092844 -0.1238859 1.1637353 3106213
-0.093863741 -0.12703809 1.1684744 3172007
0.095258117 -0.15394029 1.1816101 3369387
0.10339078 -0.15489237 1.1783735 3435181
-0.10630225 -0.11271223 1.1608653 3237030
-0.10021918 -0.11433388 1.1656412 3237800
-0.094600387 -0.11868221 1.1683903 3303594
0.097932763 -0.14822613 1.1819754 3500972
0.10708863 -0.14525104 1.1793463 3500976
0.11247025 -0.14309026 1.1749527 3500977
-0.10618221 -0.10338109 1.1626194 3237545
-0.10210654 -0.10570228 1.1669234 3303852
0.11003266 -0.13608901 1.1827744 3566772
0.11354077 -0.1369231 1.1790133 3566515
-0.10723543 -0.093405984 1.1626459 3369389
0.11228716 -0.12678695 1.1828958 3763639
0.11608517 -0.12637804 1.178259 3763639
-0.1117502 -0.078724638 1.1603513 3435181
-0.10722085 -0.083153605 1.1639316 3435438
0.11455985 -0.11591706 1.1830124 3895737
0.1198567 -0.11655571 1.1781962 3764149
-0.11037382 -0.072389036 1.1614921 3435438
-0.10545112 -0.073792145 1.1659136 3501231
0.11539104 -0.11035513 1.1830487 3961530
0.12164744 -0.107234 1.1782851 3961528
0.12943548 -0.10496779 1.1759907 3895735
-0.10877065 -0.063278407 1.1621702 3501489
-0.10472835 -0.063678712 1.165344 3501490
0.11805084 -0.092556961 1.1831653 4159679
0.12332403 -0.098045006 1.1788168 3962041
0.1297657 -0.10275809 1.1760051 3895735
-0.10807855 -0.055952292 1.1611875 3501747
-0.10304911 -0.053498004 1.164203 3567541
0.1182531 -0.086142547 1.1831543 4225473
0.122102 -0.087201081 1.179418 4159424
-0.09972395 -0.043724298 1.1633282 3764919
0.11931794 -0.077330098 1.1831945 4422597
0.12359308 -0.077223517 1.1794833 4357059
-0.097781599 -0.034132753 1.1632547 3896505
-0.093395174 -0.034702275 1.1681465 3962298
0.12076467 -0.06680575 1.1832546 4685767
0.12508415 -0.06724596 1.1795486 4422851
-0.094863579 -0.025330342 1.1615914 4027836
-0.090026595 -0.024306163 1.1672479 4028094
0.1206284 -0.056059506 1.1810802 4948684
0.12650862 -0.05882623 1.1766081 4751818
-0.091880105 -0.017570771 1.1601659 4093632
-0.086281449 -0.01496011 1.1664078 4094399
0.11536056 -0.044765953 1.1827904 5080784
0.1197927 -0.046477914 1.1782954 5211343
-0.081725322 -0.0070965663 1.1652098 4094402
-0.075015791 -0.0050216094 1.1683139 4226244
-0.068434589 -0.0043248087 1.1697741 4620744
-0.015005802 -0.01119671 1.1735388 5412064
0.0071869311 -0.014523484 1.1751044 6463211
0.014583038 -0.019512437 1.1756413 6397929
0.02423504 -0.020311415 1.1763197 6397929
0.033628218 -0.019786932 1.1769748 6003432
0.11394276 -0.035154443 1.1801474 5081042
0.11900867 -0.039017487 1.1750035 5081041
-0.072161265 0.0024833307 1.1633383 4160963
-0.064422838 0.0022353604 1.1691698 4752075
-0.049184263 0.0030252337 1.171092 4949201
-0.042609565 0.0014709979 1.1715581 5016022
-0.033275943 -0.001055941 1.1715527 5213659
-0.023671675 -0.0034061968 1.1716683 5411552
-0.014103596 -0.0056340098 1.1727781 5740773
-0.0041878866 -0.0071318373 1.1742797 6003172
0.005826083 -0.0086272731 1.1745851 6331366
0.015973799 -0.010105565 1.1726944 6989552
0.025911506 -0.011602141 1.1737965 6792432
0.035908818 -0.013088897 1.1738501 5937640
0.044260968 -0.013430595 1.1766913 5806054
0.054955326 -0.013723053 1.1784431 5674725
0.061779384 -0.013608694 1.17892 5674983
0.10662303 -0.02288989 1.1820936 5146841
0.11265433 -0.025841556 1.1767987 5080789
-0.067418821 0.010391213 1.161768 4554184
-0.064105496 0.010710493 1.1650058 4751049
-0.04922729 0.008731328 1.1690618 4818129
-0.041828357 0.0076297671 1.1687818 5015507
-0.032176781 0.0062191412 1.1660541 5147609
-0.022113319 0.0047236308 1.1654609 5346018
-0.012840844 0.0029299706 1.1687341 5937898
-0.0026578866 0.00064726919 1.1696782 6462952
0.0078305518 -0.00016308576 1.1695241 8303605
0.017134313 -0.0016552508 1.1691624 8501495
0.026771527 -0.0040834844 1.1690309 7252467
0.03795024 -0.005215928 1.1706587 6069484
0.047076367 -0.0054898709 1.1721616 6135528
0.056779969 -0.0073528141 1.1759512 5741031
0.06596148 -0.0085415468 1.1781904 5543655
0.075435162 -0.0086569414 1.1798561 5477092
0.085561067 -0.0088334233 1.1805652 5739747
0.09674377 -0.010762505 1.1813551 5280481
0.10571 -0.014736891 1.1782964 5015513
0.11099485 -0.017508037 1.1763637 4949463
-0.059815433 0.016029052 1.1622778 4818122
-0.050361879 0.015616 1.1629409 5147606
-0.041679759 0.015067577 1.1635504 4818639
-0.033364564 0.01206395 1.1641438 5344472
0.010802791 0.0060078725 1.1672574 12971007
0.015128713 0.0047945976 1.1675649 12905215
0.039375346 0.0011599213 1.1692754 5807584
0.05260079 -0.0008226335 1.1702083 6004710
0.058725249 -0.0007724762 1.1706367 5807083
0.067616098 0.0003843233 1.1733927 5477863
0.075764716 -0.0012940988 1.1765088 5542628
0.086744115 -0.0059779584 1.1806368 5673698
0.097565234 -0.0056095943 1.1798887 5804766
0.1032983 -0.0084224045 1.1737849 5147865
0.071885824 0.0075824708 1.1715246 5412324
-0.028688967 -0.19181859 1.177297 3039650
-0.022422023 -0.19341013 1.1777416 3039650
-0.047562469 -0.18100129 1.1759343 2842271
-0.040882103 -0.18200271 1.1764057 2973857
-0.030945104 -0.18460423 1.1783772 2973857
-0.021671295 -0.18777512 1.1803046 3039395
-0.010816512 -0.1874412 1.1803124 3171237
-0.001375949 -0.18741767 1.1802599 3237030
0.0088791614 -0.18840145 1.1814542 3302569
0.017099611 -0.18977514 1.181829 3237546
-0.065418497 -0.16772813 1.1746333 2908065
-0.05808581 -0.16980547 1.1751543 2973857
-0.049850918 -0.17283002 1.1767447 2973857
-0.040594451 -0.17614728 1.1785257 2973858
-0.032667164 -0.17818634 1.1809752 3105444
-0.0013868799 -0.18287539 1.1831819 3237030
0.010380185 -0.18311264 1.184006 3302825
0.019280583 -0.18398461 1.1843237 3171754
0.029046956 -0.18596163 1.1833183 3171752
0.039355248 -0.18707483 1.183454 3171753
0.048169155 -0.18524081 1.1836507 3237546
0.056704652 -0.18407865 1.1832409 3303592
-0.075048454 -0.15672058 1.1739166 2908579
-0.067425124 -0.16007069 1.1764679 2908579
-0.058003318 -0.16297539 1.1780497 3105444
-0.049806047 -0.16599908 1.1797285 3105443
0.043520991 -0.18044721 1.1863141 3303339
0.05187552 -0.17939198 1.185558 3303082
0.060617313 -0.17855662 1.1840658 3237545
0.066946216 -0.17648464 1.1839278 3303850
-0.082287602 -0.14422381 1.1733613 3302822
-0.076557398 -0.14945117 1.176038 3040165
-0.070206843 -0.15423882 1.1782553 3040167
0.056031432 -0.17316249 1.1871608 3303598
0.062668808 -0.17011157 1.1866698 3238061
0.071559153 -0.16934597 1.1853364 3303596
0.079581365 -0.16810828 1.1847789 3369131
-0.090380222 -0.13235991 1.1727488 3171751
-0.084676467 -0.13689786 1.1745807 3368615
-0.078587592 -0.14153242 1.1776193 3171751
0.082238838 -0.16186792 1.1864442 3369134
-0.091286153 -0.12509185 1.172657 3369130
-0.085748523 -0.12792361 1.1760628 3434922
0.084670156 -0.15246922 1.1881289 3435183
-0.091810465 -0.11632749 1.1739227 3434923
0.088423416 -0.14585869 1.1885184 3501232
0.095598772 -0.14376287 1.188399 3435694
0.10267909 -0.14304179 1.1862969 3501232
-0.098252289 -0.10409154 1.17309 3369646
-0.093281776 -0.10864357 1.1751263 3435182
0.10054181 -0.13517943 1.1901264 3567282
0.10482335 -0.13526633 1.1882392 3567027
-0.10458331 -0.090290286 1.1715907 3501231
-0.10083282 -0.094845094 1.1746277 3435439
0.10171336 -0.12733999 1.1901778 3829686
0.10728906 -0.12531996 1.1887778 3829431
-0.1040829 -0.086941823 1.1716126 3501231
-0.099392615 -0.084379405 1.1736015 3567024
0.11092089 -0.11638249 1.1894425 3830201
-0.1019979 -0.072989911 1.1717039 3632818
-0.099057853 -0.074172273 1.1739192 3698612
0.11462486 -0.10620423 1.1889936 3896507
-0.10058009 -0.06350261 1.1717662 3633333
-0.097011201 -0.064253971 1.1748255 3764919
0.11600629 -0.096085615 1.1885495 4093886
-0.099724405 -0.054729857 1.1717917 3633334
-0.095826149 -0.054391284 1.1752709 3830201
0.11441505 -0.086119615 1.1891232 4291523
-0.093778811 -0.044271048 1.1738375 3896506
0.11552501 -0.07568033 1.1885363 4619975
-0.089134403 -0.035309974 1.1741751 4028348
0.11125308 -0.063504502 1.1905957 5146320
0.11536364 -0.066359848 1.1898921 4883148
-0.08594843 -0.026257947 1.1729306 3962814
-0.081013307 -0.025640421 1.1758512 3963072
0.11168364 -0.054633375 1.1890875 5146577
0.11529616 -0.056802254 1.1873438 5080527
-0.083231151 -0.017489985 1.1728001 4028607
-0.077026144 -0.016667873 1.1753695 4291526
-0.027612794 -0.022077739 1.1807188 5147865
-0.020206109 -0.022959031 1.1812404 5344731
-0.0039852178 -0.024474598 1.1823812 5345501
0.0027177003 -0.025479399 1.1828541 5739743
0.012524005 -0.029197291 1.182218 5936862
0.021432988 -0.03054332 1.1831807 5871068
0.031596314 -0.03095343 1.1848958 5739228
0.049638126 -0.03251297 1.186164 5213656
0.11115216 -0.045572031 1.1889147 4949970
-0.074022293 -0.00957001 1.1734134 4422856
-0.065126196 -0.0060998946 1.1758448 4686797
-0.054741453 -0.0065170079 1.1767552 4884690
-0.044802103 -0.0094711781 1.1789658 4950486
-0.034541171 -0.011771396 1.1788572 5213659
-0.026129585 -0.014204688 1.1775841 5279707
-0.016301282 -0.016830638 1.1786828 5345244
-0.0060252547 -0.016719975 1.1793122 5411808
0.0035511442 -0.019280411 1.1797897 5806052
0.012363451 -0.023755848 1.1795124 6068964
0.024184059 -0.025908194 1.1803477 6068963
0.034373604 -0.025034428 1.1819825 6003173
0.042909503 -0.024582081 1.183457 5608417
0.052929576 -0.026097462 1.1847653 5411038
0.059579533 -0.027133174 1.1868385 5279709
0.10399489 -0.032008804 1.1890396 5212630
0.10915605 -0.036401834 1.18767 5015248
-0.060510393 -0.0010397881 1.1743253 4949712
-0.053830016 -0.0020412058 1.1747966 4949713
-0.043809466 -0.0035433322 1.1755035 5016279
-0.034586783 -0.0053062364 1.1761556 5213659
-0.02616195 -0.0073299259 1.1767529 5345501
0.045735404 -0.017537072 1.1818228 5871590
0.054169267 -0.018230766 1.1824155 5871847
0.064479008 -0.01753182 1.1851389 5543139
0.071813554 -0.017491452 1.1859382 5280225
0.095884904 -0.021125413 1.189355 5411294
0.10163654 -0.023400173 1.1872146 5279196
0.074904673 -0.012780413 1.1838448 5411556
0.08461874 -0.012524851 1.1845235 5412066
0.095752686 -0.014193878 1.1853089 5477344
0.10209945 -0.017427608 1.1857655 5213404
-0.020394538 -0.18336473 1.1858639 3105189
-0.039310206 -0.1719757 1.1854985 3039906
-0.030084997 -0.17551976 1.1865873 3039908
-0.020983115 -0.17807068 1.1891434 3105447
-0.010221385 -0.17888151 1.1873099 3105702
-0.0010227812 -0.17899251 1.1872021 3171750
0.0079036737 -0.17991287 1.1878301 3237289
0.019489471 -0.17976967 1.1886401 3237548
0.029577676 -0.18128194 1.1893518 3171752
0.038544968 -0.18262617 1.1899844 3171752
-0.064827405 -0.15656069 1.1826506 3039909
-0.057253424 -0.15844131 1.1840789 3105701
-0.049713884 -0.16226175 1.1862819 3105443
-0.041142274 -0.16901016 1.1883661 3040163
-0.010641406 -0.1726602 1.1905141 3105960
0.00077003706 -0.1732437 1.1913148 3105958
0.010024811 -0.17309751 1.1911597 3237545
0.020516526 -0.17359024 1.1907983 3237547
0.030506168 -0.174768 1.1909952 3237544
0.040462818 -0.17603132 1.1917812 3237545
0.04936396 -0.17534859 1.1913812 3303339
-0.074530639 -0.14557058 1.1819289 3172009
-0.066856317 -0.14993632 1.1848886 3105961
-0.058084991 -0.15350235 1.1871201 3171752
0.024648786 -0.16734539 1.1929623 3303337
0.031396806 -0.16835696 1.1934383 3303593
0.041502584 -0.16888382 1.1941473 3303594
0.051060069 -0.16766438 1.1935582 3303596
0.058205597 -0.16719159 1.1912996 3238062
-0.080557115 -0.13605072 1.18147 3434409
-0.075350314 -0.13863242 1.1846749 3237547
-0.06755574 -0.14220598 1.1864134 3237805
0.053000942 -0.16058068 1.1949193 3238318
0.062684715 -0.15905929 1.1944681 3238572
0.072821885 -0.16035101 1.1934983 3434926
0.079408273 -0.16071954 1.1927576 3369134
-0.081617542 -0.12676695 1.1825933 3435179
-0.076213151 -0.12962525 1.1853131 3369388
0.068169706 -0.15312052 1.1959515 3500977
0.074308857 -0.15045571 1.1953681 3435186
0.079899736 -0.15129595 1.1927552 3500720
-0.0884149 -0.11488408 1.1818401 3566511
-0.083330899 -0.11856832 1.1838808 3566767
-0.076689407 -0.12218379 1.1856961 3500977
0.07684648 -0.14312118 1.1960181 3501234
0.085182376 -0.1418837 1.1938398 3501490
-0.09586364 -0.10043924 1.1802601 3566770
-0.09005294 -0.10596189 1.1832944 3632306
-0.084338859 -0.1118154 1.1851205 3632563
0.08811222 -0.13357407 1.195855 3699127
0.095794052 -0.13341019 1.1942689 3633076
-0.096299767 -0.09472952 1.1812097 3566770
-0.090717509 -0.096494645 1.1846144 3763892
0.090235546 -0.12472866 1.1973842 3633335
0.097317994 -0.12355539 1.1954247 3764407
-0.095065564 -0.084733553 1.1830614 3698868
-0.090953976 -0.085976399 1.1845567 3699126
0.092567027 -0.11297467 1.1975014 3962811
0.099087268 -0.11403383 1.1967921 3830969
0.10687438 -0.11540297 1.1945021 3830714
-0.094620921 -0.074720755 1.1811718 3699126
-0.089724943 -0.076042384 1.1846039 3830712
0.10120653 -0.10430396 1.1974704 4028606
0.10948265 -0.10561833 1.1946464 3962300
-0.092693731 -0.065422691 1.1819489 3830970
-0.087978259 -0.065820016 1.1846862 3962813
0.10277157 -0.095382899 1.1981466 4291522
0.11086231 -0.096154563 1.1950704 4094399
-0.091510989 -0.055419382 1.1821071 3962044
-0.086903542 -0.056430064 1.1847247 4093630
0.10594093 -0.084991768 1.1980604 4554438
0.11087223 -0.086460106 1.1946687 4357059
-0.089384526 -0.04557988 1.1818355 4093886
-0.084945455 -0.0455258 1.1848191 4291009
0.10573488 -0.074294545 1.1973804 4686026
0.11188698 -0.07528773 1.1946959 4685769
-0.086627677 -0.038636375 1.1806647 4159935
-0.081527583 -0.036923546 1.1838789 4225985
0.099980578 -0.063366607 1.1978261 5015248
0.10598388 -0.065537632 1.1955816 5014991
-0.07704927 -0.027662203 1.1834147 4292037
-0.0722076 -0.030638583 1.185652 4619977
-0.048703268 -0.027245708 1.1872832 5279449
-0.040830582 -0.028425857 1.1878386 5016538
-0.028627709 -0.031407833 1.1887039 4950743
-0.019481178 -0.034474108 1.1893557 4950488
-0.010482759 -0.035664789 1.1899899 5147351
-3.2879412e-005 -0.036270674 1.1907234 5278422
0.010113986 -0.040126268 1.1905572 5212886
0.019498162 -0.040857304 1.1903534 5278423
0.029426012 -0.041502096 1.1915517 5147094
0.040033698 -0.043511875 1.1935548 4885460
0.049666364 -0.043430243 1.1934993 4950741
0.058680348 -0.044265144 1.1948622 5016279
0.10006475 -0.053406637 1.1963898 5212370
0.10737185 -0.055654686 1.1943034 5212369
-0.073957324 -0.021079823 1.1834874 4423370
-0.071411744 -0.018228114 1.1832534 4554187
-0.047481939 -0.022348411 1.1870822 5147610
-0.037527189 -0.023091868 1.1860439 5081818
-0.028879661 -0.0266883 1.1866629 5016538
-0.017675549 -0.026916064 1.1875813 5278938
-0.0086020818 -0.027662978 1.1882191 5344730
0.0016719466 -0.030084364 1.187878 5673948
0.011504542 -0.033816166 1.1875112 5805277
0.020471832 -0.0351604 1.1881438 5541848
0.030727964 -0.035548963 1.1888628 5475544
0.041152012 -0.034813862 1.1895893 5213397
0.051522348 -0.037003033 1.1910309 5082070
0.061080471 -0.037656546 1.1934004 5016536
0.070108533 -0.036822427 1.1956326 5213915
0.080856979 -0.037445642 1.1963871 5279453
0.091586411 -0.039515097 1.1971457 5213659
0.10057696 -0.04380469 1.1961876 5212628
0.10728578 -0.044727605 1.1942546 5146833
-0.070099488 -0.012392491 1.1817185 4554443
-0.04494657 -0.014324844 1.1834857 5016281
-0.037907079 -0.016299173 1.1839859 5147611
-0.0073284479 -0.021802135 1.1861467 5411294
0.063213393 -0.027781226 1.1911051 5148123
0.071804047 -0.02907493 1.1919117 5213915
0.08156383 -0.03078042 1.194144 5213917
0.092145212 -0.032303825 1.1954683 5213659
0.099925511 -0.035209164 1.1940367 5212887
0.094111927 -0.02551987 1.193258 5279708
0.098595574 -0.026191987 1.1935743 5411037
-0.036043435 -0.17055845 1.1937411 3106213
-0.030396596 -0.17140493 1.1941394 3105959
-0.019360945 -0.17372067 1.1949205 3105706
-0.0089386152 -0.17462158 1.1956532 3105960
-0.045757268 -0.16215713 1.1930287 3105700
-0.03866481 -0.16448967 1.1942858 3105957
-0.029625174 -0.16584475 1.1949235 3106216
-0.01953036 -0.16748589 1.1964883 3106217
-0.008943486 -0.16855067 1.1970612 3171752
-0.0010551354 -0.1692313 1.1972773 3303337
0.010484813 -0.168273 1.1969873 3369130
0.017261015 -0.16928878 1.1974653 3369132
-0.056556325 -0.14920244 1.1925566 3171753
-0.047535229 -0.15301308 1.1955953 3171752
-0.03756782 -0.15480743 1.1983846 3172010
-0.028761495 -0.15742815 1.1999633 3172012
-0.018852483 -0.15849912 1.2014581 3237802
-0.0081857769 -0.1593843 1.2016611 3303338
0.00087651517 -0.16077259 1.2025009 3369133
0.011207804 -0.16207212 1.2015046 3369388
0.021304797 -0.16324109 1.2015233 3303853
0.030782074 -0.16345844 1.2001427 3369643
0.040979043 -0.16416153 1.1993405 3303851
-0.072301634 -0.13502747 1.1910655 3303598
-0.064839125 -0.13901833 1.1933218 3303341
-0.0568869 -0.14199767 1.1973268 3303340
-0.0480804 -0.144797 1.2008179 3369132
-0.04029756 -0.14787042 1.2013744 3303600
-0.0073279226 -0.15281272 1.2037003 3303598
0.0051778015 -0.15468737 1.2045825 3435186
0.012567547 -0.15579513 1.2051039 3369391
0.022231061 -0.15724373 1.2057855 3369392
0.032386258 -0.15581314 1.2058735 3369390
0.04223546 -0.15617956 1.2029706 3435184
0.052001081 -0.15597603 1.1998436 3369392
-0.0722619 -0.12795675 1.1918427 3369646
-0.065905429 -0.13129508 1.1971122 3303853
-0.059398916 -0.13568519 1.1999905 3173034
0.035462346 -0.14804092 1.2066753 3566773
0.043778505 -0.1479581 1.2065884 3566516
0.053941879 -0.14755408 1.2043574 3500977
0.063819408 -0.14967312 1.2023342 3500975
-0.080468856 -0.11462126 1.1904144 3632562
-0.072374128 -0.11896826 1.1940051 3501236
-0.065306172 -0.12024473 1.1990713 3501494
0.057228573 -0.13889405 1.2081623 3698612
0.064809084 -0.14035401 1.2063289 3567283
0.074102387 -0.13925584 1.2042651 3567283
0.082079083 -0.13733429 1.2018751 3501747
-0.086141676 -0.10401456 1.1899762 3895478
-0.081184603 -0.1073448 1.1928421 3698613
-0.072848201 -0.10959506 1.197611 3633080
0.059629004 -0.13255382 1.2083055 3699128
0.06657216 -0.13036783 1.2087827 3830713
0.076067008 -0.13138956 1.2082479 3699126
0.083478324 -0.13106187 1.2019485 3633333
-0.086248033 -0.095895924 1.189937 3961271
-0.080009133 -0.097333156 1.1953914 3896247
-0.073957011 -0.10087638 1.198836 3764921
0.06749437 -0.12347881 1.2088202 3962300
0.078615919 -0.12260216 1.2091231 3896506
0.086723402 -0.12185885 1.2041445 3764920
-0.086319856 -0.086472996 1.1913989 3830712
-0.079851747 -0.087052144 1.1970329 4093627
0.083112687 -0.11230338 1.2098693 4028352
0.088896342 -0.11251827 1.2049283 3962812
-0.085224681 -0.076208934 1.1919366 3962556
-0.079430811 -0.07826595 1.1979191 4028606
0.084130712 -0.1019356 1.2098999 4357317
0.090708077 -0.10308414 1.2063547 4225985
0.0968666 -0.10019503 1.2027645 4225985
-0.083408132 -0.067372069 1.1920291 4028606
-0.079154596 -0.068247542 1.1983448 4094655
0.085837796 -0.094068162 1.2099886 4554695
0.092235506 -0.092812151 1.2058201 4554182
0.098860256 -0.092005342 1.202872 4619462
-0.082400151 -0.056740783 1.1905249 4159424
-0.074826874 -0.056923378 1.1973696 4160448
-0.068451419 -0.056257624 1.1990469 4554440
0.08826825 -0.080915809 1.2101072 4620747
0.093772002 -0.082754083 1.208244 4686026
0.10036469 -0.084514007 1.202948 4619977
-0.080327272 -0.047276877 1.1901612 4291265
-0.07274016 -0.048460349 1.1959596 4357573
-0.067429513 -0.049419414 1.1990916 4751563
0.0061074533 -0.057724044 1.2042687 4818903
0.013800226 -0.058100402 1.2048084 4819160
0.087709606 -0.072209343 1.2100341 4752590
0.095129669 -0.073653072 1.2083035 4817869
0.10041966 -0.076419555 1.2029202 4752076
-0.076949641 -0.038090486 1.1903616 4291778
-0.071183331 -0.038269833 1.1943536 4554440
-0.066237271 -0.041441511 1.1991438 4883149
-0.046572074 -0.037209976 1.1964933 5674209
-0.040906444 -0.038059279 1.196893 5082331
-0.030245248 -0.042540718 1.1995276 4950745
-0.02113549 -0.045645349 1.1977043 4884953
-0.012055927 -0.046995852 1.1981443 4753366
-0.0017873375 -0.047434047 1.2000673 4884692
0.0084767286 -0.050607953 1.1999513 4884692
0.017180219 -0.051186547 1.2012191 4884692
0.027245261 -0.051507726 1.2043866 4950484
0.038021032 -0.054072257 1.2033683 4950488
0.046651941 -0.055109739 1.2049721 4950489
0.057257127 -0.055242777 1.2067682 5411037
0.06608092 -0.056324333 1.2084589 5542623
0.080305815 -0.056417551 1.2094545 5213404
0.087553978 -0.060417168 1.2099771 5081558
0.095587388 -0.063871205 1.2081468 5015248
-0.070239909 -0.028513186 1.1907936 4685772
-0.048319176 -0.031337261 1.1934319 5542365
-0.039499745 -0.03284207 1.1941068 4951002
-0.030924574 -0.035158362 1.1935701 4884951
-0.022063825 -0.038380772 1.1942025 4753366
-0.0083422242 -0.039280169 1.1951661 4950484
0.00036807638 -0.04087526 1.1957817 5015763
0.029887076 -0.046168432 1.1978675 5015764
0.036663279 -0.047184214 1.1983455 4885461
0.048585996 -0.047979314 1.1991827 4884950
0.059258793 -0.048515856 1.2017822 5082072
0.068471372 -0.048764639 1.2053888 5542624
0.077584237 -0.0513172 1.2084422 5279197
0.087979674 -0.051594455 1.2063637 5213144
0.095126733 -0.055176448 1.2024668 5212627
0.063992284 -0.042020723 1.2002373 5016538
0.069892906 -0.041168958 1.2006468 5213917
0.079670884 -0.040126737 1.2013267 5345245
0.089494266 -0.043939285 1.2026973 5213917
0.17864415 -0.059506565 1.2163463 13158081
-0.028523162 -0.15252377 1.2062262 3303598
-0.015976097 -0.15440464 1.2071114 3303850
-0.055010844 -0.13779756 1.2043155 3303853
-0.045632482 -0.1408197 1.2053416 3304111
-0.036625709 -0.14432389 1.2077377 3303857
-0.027762584 -0.14598513 1.2090106 3303856
-0.017496347 -0.14755748 1.2099856 3369903
-0.0067954203 -0.14759725 1.2077271 3435441
0.0020147106 -0.14984089 1.2083522 3435187
0.012446183 -0.15075999 1.2090856 3500978
0.022861283 -0.15204291 1.2098192 3369649
0.029716238 -0.1514338 1.2102964 3435441
-0.061966348 -0.12919484 1.2037953 3370159
-0.055616628 -0.13092607 1.2042464 3370416
-0.045596048 -0.13270876 1.2072098 3436469
-0.035600439 -0.13455164 1.2106731 3502005
-0.026437715 -0.13592519 1.2113194 3501749
-0.016644411 -0.14091495 1.2120241 3501493
-0.0057227565 -0.13887057 1.2115271 3567542
0.003364373 -0.14035268 1.2131085 3567541
0.013740808 -0.14175771 1.2126495 3633333
0.024177026 -0.14300197 1.2108157 3567541
0.0328313 -0.1435553 1.2104836 3633079
0.043056574 -0.14287841 1.2111962 3632566
-0.061093424 -0.1207524 1.2038234 3501750
-0.054543342 -0.12202456 1.2067928 3567798
-0.046513669 -0.12379542 1.2098676 3633848
-0.033597171 -0.12898245 1.2107915 3633591
-0.026725125 -0.1300126 1.2112763 3699128
-0.0047920728 -0.13212657 1.212819 3830714
0.0055159898 -0.13367179 1.2135462 3764921
0.015027346 -0.13413712 1.2142134 3830712
0.025601756 -0.1347951 1.2145977 3830713
0.034261201 -0.13578767 1.2148972 3830458
0.044627823 -0.1370596 1.2136576 3764409
0.052996665 -0.13674948 1.2124246 3764407
-0.068384133 -0.1086701 1.2032661 3698874
-0.062115844 -0.11031653 1.2059667 3764923
-0.053966511 -0.11225653 1.2093011 3765435
-0.04825924 -0.11739335 1.2097205 3699641
0.044131547 -0.13124312 1.2162383 3896252
0.054967549 -0.1283318 1.2143595 3831226
0.062493261 -0.12875682 1.2125008 3830458
-0.069648318 -0.098935358 1.2039311 3896508
-0.060918037 -0.10023505 1.2087678 4028352
-0.053232677 -0.10209146 1.2093127 4094143
0.057752058 -0.11872627 1.213562 4159936
0.067236394 -0.11886814 1.2127941 4028352
0.075366072 -0.1187034 1.2133621 3962559
-0.076041386 -0.088115446 1.2026502 4093628
-0.069293216 -0.08919695 1.2038783 4028352
-0.059506249 -0.091027558 1.2085173 4094401
-0.052662149 -0.090437993 1.2093071 4225986
0.06040014 -0.10986067 1.2159258 4357317
0.06876877 -0.11007991 1.2156863 4225732
0.077751391 -0.11093582 1.2134987 4159938
-0.075578786 -0.078331083 1.2026443 4028609
-0.067614414 -0.0796073 1.2045734 3963330
-0.058667984 -0.081030369 1.2088501 4160708
-0.052789126 -0.085019022 1.209277 4292035
0.064893514 -0.096790649 1.2175561 4620236
0.069965482 -0.10030384 1.2165323 4488649
0.078483291 -0.10219647 1.2135158 4357318
-0.075205907 -0.068032235 1.2026302 4160449
-0.067003943 -0.069465443 1.2069143 4160708
-0.057934154 -0.070865303 1.2088618 4489161
0.072408631 -0.091292143 1.2169863 4555212
0.081032753 -0.091319464 1.2136517 4620489
-0.16520835 -0.045862813 1.2012591 14082013
-0.072757602 -0.060939368 1.2027737 4226242
-0.064598866 -0.059863757 1.2058464 4620234
-0.057470579 -0.058882762 1.2088474 5079759
-0.023816735 -0.063536316 1.21122 6791922
-0.015627768 -0.063589975 1.2117932 5608162
-0.0053197062 -0.065135203 1.2125204 5016279
0.0044604475 -0.068647906 1.2118512 5608413
0.012919944 -0.068456352 1.2138094 4950485
0.01987778 -0.068912417 1.2142979 5016277
0.076630034 -0.080941521 1.2183152 4752847
0.082678437 -0.081838124 1.2154987 4620747
-0.063842185 -0.050959162 1.2043608 4948687
-0.054226164 -0.055456113 1.209061 5408980
-0.032353416 -0.05555433 1.2086638 6134248
-0.023699503 -0.056366488 1.2086941 5344990
-0.014936698 -0.057869032 1.209671 4884696
-0.0039305566 -0.059563361 1.2105318 4818902
0.0064086821 -0.062362909 1.2083178 4818646
0.01552519 -0.062638417 1.2096727 4818646
0.025491476 -0.063694581 1.2114123 4884696
0.035513174 -0.064697444 1.2121531 5344733
0.044667397 -0.066048101 1.2124408 5936870
0.054148056 -0.066959076 1.2158524 5608416
0.06319309 -0.067423046 1.2173225 5082072
0.075915672 -0.070093639 1.2152156 5016278
0.082090095 -0.072538801 1.2136521 4884178
-0.031735767 -0.049162757 1.2055976 5082331
-0.0032197088 -0.053437438 1.2076093 4687574
0.01959314 -0.05685718 1.2092186 4687574
0.027512334 -0.057376247 1.2097747 4819159
0.034421489 -0.059080012 1.2102647 4950233
0.046968553 -0.060960874 1.2111498 5542369
0.055776615 -0.060982253 1.2117661 5805540
0.068773195 -0.060722224 1.2126744 5213659
0.075997263 -0.061805148 1.213184 5147866
0.084457383 -0.065021828 1.2137884 5081557
-0.016305909 -0.13676628 1.2160413 3633335
-0.041901428 -0.12222257 1.2141938 3699641
-0.03454465 -0.12377885 1.2147146 3765177
-0.02509902 -0.12538235 1.2170328 3830714
-0.015175377 -0.12784512 1.2189727 3962299
-0.0042949924 -0.12686425 1.2175113 4028092
0.0043147565 -0.12895329 1.2177399 3962300
0.013723489 -0.1300004 1.2188449 3962299
0.023242667 -0.13012037 1.22101 3962299
0.035791721 -0.13091402 1.2196633 3896509
0.045513004 -0.13190018 1.2203472 3830714
-0.049978375 -0.1105191 1.2135831 3962813
-0.043887079 -0.11319312 1.2158018 3962813
-0.033415522 -0.11600687 1.2187731 4028350
-0.024611492 -0.11947498 1.2194027 4093886
-0.017694354 -0.12051189 1.2198906 4093886
-0.0033419374 -0.11911859 1.2208892 4291263
0.0058809184 -0.12050113 1.2215399 4291265
0.01510377 -0.12188368 1.2221905 4291265
0.025479484 -0.12343904 1.2229224 4225471
0.03596247 -0.12474032 1.2211548 4159424
0.045224648 -0.1259682 1.2203039 4028351
-0.049750272 -0.10113129 1.2135624 4159681
-0.044750825 -0.10367123 1.2168384 4159937
-0.0021329494 -0.1110286 1.2209423 4685507
0.0074586477 -0.11152113 1.2216152 4685766
0.016220357 -0.11283455 1.2222333 4685768
0.028071743 -0.11469705 1.2230697 4685254
0.037247058 -0.1157245 1.223465 4553924
0.046592358 -0.11677548 1.2206142 4357059
0.052691646 -0.11531002 1.2207847 4291524
-0.049568728 -0.093139693 1.213878 4291267
-0.043929949 -0.093109511 1.2171462 4291525
0.0092790378 -0.10564967 1.2217196 5080013
0.01619618 -0.10668658 1.2222075 5013964
0.031874169 -0.10431037 1.2232951 5014215
0.03879131 -0.10534728 1.2237831 4948424
0.04804083 -0.10665808 1.2236333 4686025
0.055758014 -0.10719734 1.2225714 4554696
-0.054695275 -0.079190493 1.2131307 4423366
-0.049688548 -0.082135946 1.2153637 4489158
-0.044330966 -0.085797273 1.2178915 4554697
0.03342858 -0.093908951 1.2233632 6725605
0.040541749 -0.095211565 1.223866 5541334
0.049568575 -0.096328408 1.2245018 4949456
0.059352752 -0.098957434 1.2236691 4752076
-0.054467175 -0.069802664 1.21311 4751821
-0.049194288 -0.071970686 1.2161605 4817612
-0.023467276 -0.072382383 1.2192986 6133729
-0.021161567 -0.072728023 1.2194613 5804510
0.0029332852 -0.077127673 1.2211642 6726116
0.011118425 -0.077566929 1.2217386 6791913
0.023799848 -0.07946793 1.2226331 5673696
0.031921659 -0.083836369 1.2232184 5344728
0.042880286 -0.085872978 1.2239931 5475805
0.050950278 -0.087082706 1.2245624 5147095
0.061350532 -0.088552974 1.2240927 4949712
0.070468239 -0.086764395 1.2219167 4621777
0.17712981 -0.10245275 1.2334499 11781308
-0.055904623 -0.063698441 1.2129855 4883150
-0.046807956 -0.063099146 1.2136196 6001884
-0.035853505 -0.063170932 1.2143862 6133474
-0.024924751 -0.067747995 1.2167727 6067939
-0.017041739 -0.068208754 1.2168156 6594284
-0.0059774332 -0.06858252 1.2175912 6002915
0.0044346671 -0.0734502 1.217245 6857704
0.01358434 -0.072787836 1.2185508 6397928
0.022670969 -0.073486656 1.2203922 6397674
0.031523418 -0.075007081 1.2215521 6002659
0.043368537 -0.076503478 1.2229213 5476060
0.052385937 -0.077731043 1.2228719 5213402
0.062551633 -0.080494471 1.2245463 5081814
0.072823562 -0.080953002 1.2226757 4818898
0.18074597 -0.097973011 1.2336854 12896707
0.037228301 -0.069415204 1.2195234 6331369
