# .PCD v0.7 - Point Cloud Data file format
VERSION 0.7
FIELDS x y z rgba
SIZE 4 4 4 4
TYPE F F F U
COUNT 1 1 1 1
WIDTH 1131
HEIGHT 1
VIEWPOINT 0 0 0 1 0 0 0
POINTS 1131
DATA ascii
-0.039526716 0.0099043027 0.98708636 6263759
0.082883582 0.0062359348 0.99592924 5864111
-0.055952199 0.01298511 0.99117827 5270664
-0.046959162 0.015015215 0.98904288 5008273
-0.037662618 0.015603483 0.98826706 5206430
-0.028124532 0.017610393 0.98759633 5074073
-0.019295404 0.017536096 0.99003798 5274031
-0.0091668982 0.019136466 0.98767996 5405876
-0.00064939633 0.019070745 0.98787558 5998788
0.0078681037 0.01900503 0.98807114 5802444
0.034371022 0.017884672 0.98969012 5538507
0.04229413 0.017575763 0.99023855 4944316
0.05144202 0.016834795 0.99109256 5008558
0.061940856 0.016492963 0.99317044 4612496
0.068662725 0.013964489 0.99551928 4546960
-0.043632179 0.021497391 0.99286741 5401735
-0.037810177 0.021391958 0.99120122 5270150
-0.027485376 0.021859393 0.99151808 5203846
-0.015023628 0.023393512 0.992751 4875914
-0.0074651409 0.02514106 0.98936802 4875142
0.0020037014 0.025187351 0.99029869 4743815
0.010730851 0.026055411 0.99031025 4678280
0.021365274 0.027708933 0.99068546 4809598
0.034288809 0.025409736 0.98999065 4612484
0.041936535 0.024004728 0.99138772 4677249
0.051207446 0.023157001 0.99290097 5005437
0.061232418 0.023377277 0.99524617 5268860
-0.0064243879 0.030733868 0.99361765 5006720
-0.087132499 -0.012264289 1.0008445 5932737
-0.082827933 -0.010570295 1.0003242 5933251
-0.087489948 -0.0068626031 1.001541 6192539
-0.079283662 -0.0036131069 0.99724114 5930664
0.095104285 -0.001069583 1.003958 6983363
0.10218951 -0.0020695329 1.0074655 6061227
0.10752599 -0.0014441237 1.0075808 5400966
-0.076545097 0.0047156811 0.99867511 6189971
-0.069772735 0.0076598376 0.99642205 5861520
-0.062072821 0.010278009 0.99556929 5664907
0.074959837 0.0087431073 0.99872148 5996731
0.08289437 0.0072828531 1.0004649 5731750
0.092234254 0.0056932494 1.0041517 5927827
0.10043821 0.0030395761 1.0073694 5861518
-0.067331232 0.01235912 1.0008279 6058377
-0.056250863 0.015584372 0.99897879 5467271
-0.050752535 0.018873364 0.99848509 5466762
0.072692998 0.01539433 0.99999726 5268360
0.081033535 0.013636045 1.0036751 5663111
0.089242347 0.011177585 1.0055237 6517124
-0.048910938 0.021773472 0.99974591 5532297
-0.035023734 0.024152033 0.99803698 5204613
-0.028806852 0.026560001 0.99944741 5138821
-0.019096961 0.025870912 0.99720037 4876167
-0.01130794 0.028990552 0.996526 5138310
0.00015155412 0.028902128 0.99678916 5138050
0.042806342 0.028573021 0.99776876 5006203
0.052437261 0.027558967 0.9983753 5202812
0.060486637 0.026144095 0.99819982 5203582
0.070180878 0.021998905 1.0022683 5597049
-0.026018912 0.031359628 1.0041661 5269636
-0.017438548 0.031955272 1.001855 5204101
-0.0078266077 0.032241985 1.0004463 5072257
0.0020045806 0.031905532 1.0001998 5006718
0.011605256 0.031774029 0.99912047 4875393
0.021168323 0.031832695 1.0023396 4875390
0.031636216 0.031672463 1.0027537 4874877
0.041837268 0.031528965 1.0019377 5006460
0.049004205 0.030672923 1.0033894 5202811
-0.098125778 -0.014307193 1.0072174 6980776
-0.091944709 -0.014113836 1.0061563 6129600
-0.097078554 -0.0077311918 1.0101705 7570324
-0.089668408 -0.0047106296 1.0067058 6651024
-0.083376065 0.0010296255 1.0061866 6781327
0.10002508 -0.0042481571 1.0104407 6854356
0.11155649 -0.0042113513 1.0125382 7111067
-0.079101838 0.0068114474 1.0073465 6583439
0.10300948 0.0069477856 1.0111867 6845830
0.11118583 0.0043018982 1.0136034 7436672
-0.066745505 0.01770252 1.0100287 6321290
-0.060529932 0.018554695 1.0091435 5795463
0.082079105 0.017253712 1.0137961 5860223
0.091783948 0.012469761 1.0118698 6649473
0.09914133 0.011839941 1.0162464 6977411
-0.067135319 0.022275522 1.010077 7372164
-0.057662852 0.022484206 1.009041 6123396
-0.04832074 0.026798822 1.0113748 5729669
-0.039779156 0.027311891 1.0115856 5336195
-0.032942988 0.029611111 1.0070277 5270149
0.072254397 0.024453871 1.0094912 5532277
0.07963603 0.021566965 1.0144932 5860472
-0.048807256 0.031923786 1.0126414 6714755
-0.039743252 0.031853855 1.0128496 5794947
-0.028869966 0.033426732 1.0109805 5466498
-0.018367933 0.03590855 1.0100433 5466240
-0.007911412 0.036366656 1.0114279 5334655
0.0025877887 0.036407754 1.0101671 5138044
0.011626463 0.037004635 1.0109676 5072252
0.021320708 0.036736205 1.0104998 5072247
0.03097906 0.036111549 1.0103483 5137530
0.041120231 0.035372958 1.0142325 5137788
0.050176457 0.032002017 1.0119044 5268347
0.11816304 -0.012102418 1.0199445 7374502
-0.097954094 -0.004279241 1.0190582 9214113
-0.089058571 -0.00045695901 1.0173622 6978442
0.11428256 -0.010123968 1.0198342 7112109
0.11878298 -0.0059490204 1.0205232 8686741
-0.087156869 0.0053106099 1.0179571 7636109
-0.081751674 0.0093592778 1.0171361 7437970
0.11892615 0.0021808222 1.0198057 9277068
0.084699951 0.018714234 1.0198419 5992060
0.091186635 0.016628563 1.0225974 6451580
0.098093167 0.015401222 1.0215185 6516347
-0.056950398 0.025008909 1.0165319 6254982
-0.05347459 0.029448479 1.0225649 6648965
-0.037366651 0.028067887 1.0159463 5270660
0.066013478 0.029342502 1.0212986 5662844
0.071867175 0.027933881 1.021548 5794679
0.080471434 0.0250692 1.0206759 5926261
0.088544935 0.021418981 1.0239017 6253428
-0.047179677 0.034064651 1.0174067 7043204
-0.03809239 0.034670919 1.0180248 6188928
-0.027710659 0.037694529 1.0191629 5991293
-0.017930485 0.039771482 1.0194639 5794427
-0.0081282668 0.039655253 1.0188892 5597052
9.4434246e-005 0.039141178 1.0178826 5399930
0.0094784312 0.039397553 1.0168941 5203324
0.020192429 0.039314881 1.0171402 5269365
0.032864247 0.039267898 1.0184309 5334394
0.041985601 0.038216531 1.0206518 5466234
0.04850287 0.03636004 1.0216548 5597049
0.066036813 0.03227368 1.0212672 5991033
0.070604183 0.032199636 1.023659 6055795
-0.015949085 0.041700274 1.0192881 6056827
-0.0070109032 0.042796582 1.0229818 5859449
0.0013888888 0.042868495 1.0220728 5728377
0.010514707 0.042267323 1.0238887 5532027
0.021157462 0.041624665 1.0241393 5532021
-0.095268831 -0.0025730059 1.02496 7306630
-0.09329395 -0.0016044676 1.0249946 7438985
-0.075784318 0.016130231 1.031203 7044228
-0.071795098 0.016018599 1.0282946 6255491
0.093259506 0.019091263 1.0290365 6187632
0.0986728 0.019541383 1.0291555 6119529
-0.057254091 0.02822119 1.0254928 6780808
0.061377332 0.029666945 1.0281913 5465215
0.084900655 0.024420075 1.0337886 6056820
0.091041639 0.023656063 1.0322369 5988198
-0.04479593 0.036388814 1.0256884 7108737
-0.038483456 0.039261103 1.0291024 7108222
-0.030011786 0.040209889 1.0259849 6582396
0.052804917 0.036897272 1.0301667 5859705
0.05817242 0.034988344 1.02906 5728122
-0.02551792 0.043590933 1.0285515 6713719
-0.019127822 0.044474065 1.0300885 6450807
-0.010877101 0.044614926 1.0286252 6122104
0.00096155982 0.045508787 1.0288863 6122617
0.013281236 0.045932323 1.0295804 6057083
0.019585492 0.04573819 1.0306604 6057334
-0.080868095 0.014974453 1.0341004 7832202
0.084498636 0.027875021 1.0377429 5792617
0.087474898 0.027852058 1.0378113 5724767
-0.037417814 0.04270862 1.034791 7764863
-0.017544411 0.046524704 1.0352039 6384242
-0.0086156037 0.046455815 1.035409 6121843
0.16350499 -0.082125977 1.0597608 13950701
0.16653554 -0.082149364 1.0598304 13160147
0.1655495 -0.079110414 1.0597745 13423577
0.16434747 -0.091737807 1.0668875 12898285
0.16833949 -0.092752054 1.0664897 12832198
0.16299021 -0.085788578 1.0649335 10136266
0.16974817 -0.086317986 1.0652012 13159885
0.16335955 -0.079493999 1.0662307 12175571
0.16879055 -0.078509606 1.062843 13093836
-0.1410424 -0.10957737 1.0718991 1720740
-0.14175352 -0.10267838 1.0715954 3628972
-0.14276917 -0.096494734 1.0729167 4745397
0.16346477 -0.093416907 1.0758885 6256041
0.1679838 -0.096132219 1.0762217 12767188
0.16174139 -0.084298529 1.07775 7312841
-0.13941477 -0.13367382 1.0834036 2903988
-0.13629854 -0.13369787 1.0834752 1324707
-0.14076281 -0.12163993 1.0824908 2904505
-0.13934876 -0.11290552 1.0810771 2644141
0.16304143 -0.11314904 1.0900993 5801403
0.16747066 -0.11352955 1.0902048 11779799
-0.1389053 -0.10183441 1.0790654 3039906
0.16229382 -0.10405683 1.0889823 3630254
0.16852015 -0.10493138 1.088546 11516624
0.17557253 -0.10493357 1.0902961 13685195
-0.14138773 -0.092823252 1.0812745 2708908
0.16216305 -0.095596746 1.0880115 3762605
0.16691197 -0.099435389 1.0870368 10465738
0.16247018 -0.088831805 1.0838182 6721740
-0.1389515 -0.075492367 1.0827774 1588628
-0.13583526 -0.075516403 1.082849 3826867
-0.13312198 -0.1490221 1.0897175 3694011
-0.13799801 -0.14247572 1.0875336 7178192
-0.13278547 -0.14225188 1.0888046 2114980
-0.1381152 -0.13100371 1.0874053 1063065
-0.13367896 -0.13384818 1.0884383 2447769
-0.13758582 -0.1234473 1.0873348 2578847
-0.13514952 -0.12298882 1.0903865 2907546
0.16260996 -0.12408952 1.095711 6851775
0.16823374 -0.12368397 1.0943347 13029078
-0.13683356 -0.11335317 1.0879917 3104917
-0.13504961 -0.11044137 1.0902514 3170462
0.16130394 -0.11328784 1.0955628 3040417
0.17102987 -0.1167037 1.0943222 13422807
0.17397392 -0.11359793 1.0943556 13619661
-0.13882038 -0.10081533 1.0878091 3104162
0.16014697 -0.10507286 1.0948033 2973607
-0.13809429 -0.092493244 1.0879847 3169952
0.16059384 -0.094945781 1.0968463 2843043
-0.13979593 -0.08281175 1.0869974 3301299
-0.12832226 -0.16085687 1.0999601 4750553
-0.12474268 -0.16308877 1.1020671 1196192
-0.13020574 -0.15361178 1.0966367 3036848
-0.12644498 -0.15585855 1.101949 1789334
0.15770806 -0.15403891 1.1059299 12898004
-0.12910157 -0.14271103 1.0979652 2776475
0.15830374 -0.14495644 1.1047437 9087435
0.16422673 -0.14039803 1.1014282 13488846
-0.13125779 -0.13195881 1.0975759 3038106
0.15826492 -0.13431685 1.103626 4354994
0.16617882 -0.13243693 1.1013857 13752800
-0.13308699 -0.12222008 1.0988724 2973083
0.15829416 -0.12453571 1.1044276 2121388
-0.13771349 -0.10868256 1.0941725 3301280
-0.1344551 -0.11362027 1.0979387 3039132
0.15913554 -0.11650385 1.1022172 2646946
0.17536174 -0.11136294 1.1043662 13817039
-0.13766335 -0.10238598 1.0941046 3366820
-0.13523646 -0.10281754 1.0991666 3105183
0.15752444 -0.1042055 1.1055802 3631271
0.17643057 -0.10926649 1.1043676 13817037
-0.13757421 -0.091192067 1.0939842 3499424
-0.13497806 -0.092190459 1.0978558 3302563
0.15728897 -0.093960412 1.1047037 3369127
-0.13485897 -0.082692876 1.0974544 3434147
0.15925793 -0.084380805 1.105612 2908578
0.16507563 -0.081817746 1.1038074 8233160
-0.1393422 -0.071533367 1.094586 3365295
-0.13410068 -0.072753266 1.0977093 3499689
0.16013181 -0.074812487 1.1052653 4024485
0.16514267 -0.073399454 1.1037167 11192030
-0.13778712 -0.062643372 1.0966679 2181536
-0.13258727 -0.062528662 1.097986 3433908
0.1593492 -0.069346093 1.1075412 2708114
-0.13619649 -0.054391857 1.1006153 8233201
-0.13234036 -0.055558939 1.0990014 3564980
0.011538204 0.11630695 1.0981258 9935247
0.017256636 0.11716481 1.0982473 9934992
-0.11939476 -0.1719493 1.1109815 929696
-0.11526742 -0.1723097 1.1133883 1984411
0.1470896 -0.1700674 1.1193666 13424882
-0.12027843 -0.1624044 1.1085638 2512540
-0.11574688 -0.1643028 1.1119559 2906513
0.14851606 -0.16418171 1.1168896 8955594
0.15426168 -0.16292086 1.1134505 14080986
-0.12733169 -0.14826035 1.1088477 2381461
-0.1243045 -0.15344413 1.1109118 2776212
0.14884029 -0.1545966 1.1155561 3697834
-0.12775047 -0.14232704 1.1096069 2841752
-0.12572713 -0.14662972 1.1128678 2906774
0.15076192 -0.14468962 1.1159718 2646183
-0.12957829 -0.13174051 1.1104733 2907034
-0.1256422 -0.13596401 1.112753 2775704
0.15138325 -0.13594808 1.1169907 3696546
0.1534863 -0.13143416 1.1164227 3761571
-0.13048929 -0.12229712 1.1089358 2973083
0.15522835 -0.12535463 1.1157291 3368880
-0.13148946 -0.11208713 1.1082567 3039134
0.15562607 -0.11375384 1.1152171 3500454
-0.13157651 -0.10164008 1.1078402 3171232
0.15459886 -0.10529651 1.1161144 3631529
-0.13204783 -0.092875078 1.1070333 3302564
0.15327395 -0.094939239 1.1116836 3697839
0.15362035 -0.095161036 1.114695 3763633
-0.13207501 -0.082311697 1.1077173 3368355
0.15428235 -0.083914027 1.1143011 3436468
0.16861446 -0.080397151 1.1148764 10992842
-0.12965353 -0.071913145 1.1076589 3697068
0.15214482 -0.07090918 1.118397 3765679
0.15543526 -0.073486283 1.1136807 3830452
0.16829413 -0.076143369 1.1148225 11387079
-0.1284433 -0.064170584 1.1054012 3631022
-0.12623078 -0.060983598 1.1049167 3500456
0.15163 -0.064019889 1.11542 3830449
0.15839748 -0.064592138 1.1131008 5207985
0.16481665 -0.065609381 1.1172951 10334913
-0.12863259 -0.052123345 1.107337 3434161
0.15084705 -0.055085555 1.1150502 3893939
0.15795416 -0.055632871 1.114417 8428221
-0.12889013 -0.042053133 1.1107935 6194370
-0.12434467 -0.039976716 1.1117321 4421311
0.14875485 -0.043221772 1.1169251 5734064
0.1550018 -0.046931896 1.1181998 10203587
-0.12295864 -0.033320926 1.111691 6852289
0.14736551 -0.037312265 1.1147189 8955077
0.018017307 0.0933211 1.1135305 9737616
-0.089372665 -0.20880988 1.1227163 7635861
-0.086053804 -0.20929945 1.1254652 8100012
-0.099610709 -0.19878277 1.1250398 10535920
-0.092552587 -0.20153919 1.1228778 5996227
-0.086025216 -0.20570931 1.1254265 6394567
-0.10934645 -0.18775883 1.1166939 8431615
-0.10243175 -0.19022629 1.1196492 1526185
-0.096362822 -0.19262207 1.1239035 1262491
0.1273123 -0.19155768 1.1301528 11717846
-0.11783201 -0.17913742 1.1164052 7571711
-0.11090358 -0.18144315 1.1181451 1917611
-0.10403387 -0.1839765 1.1221091 2379673
-0.097362719 -0.18695188 1.1249617 2644619
0.12895662 -0.18469736 1.1301154 5010097
0.13635474 -0.18182346 1.1271094 10599906
0.14348517 -0.18067726 1.1264026 14081762
-0.11095932 -0.1725837 1.1207027 2709143
0.13008367 -0.17410588 1.1300253 2909858
0.13682355 -0.17372391 1.1263559 4026283
0.14450194 -0.1740151 1.1228517 12307424
-0.11767022 -0.15881829 1.1161866 2775446
-0.11338856 -0.16303366 1.1192408 2775442
0.13812682 -0.1647777 1.1271062 3105445
0.1431915 -0.16403946 1.1222124 2578854
-0.11969426 -0.1515802 1.1182157 2775449
-0.11560106 -0.15396897 1.1228497 2906778
0.14050245 -0.15498056 1.1284539 3564451
0.14395426 -0.15407237 1.1245216 3433893
-0.12350333 -0.14286056 1.1191736 2840984
0.14202735 -0.14679152 1.1299996 3565217
0.14594716 -0.1447624 1.124732 3499430
-0.12814091 -0.13093066 1.1156418 2841497
-0.12530977 -0.13266596 1.1217275 2907290
0.14825404 -0.13413268 1.1270026 3237547
-0.128282 -0.12145606 1.1171354 2973083
-0.12565412 -0.12191124 1.1216019 3038877
0.15139596 -0.12445829 1.1281507 3827369
0.1542072 -0.1234837 1.1220206 3564710
-0.12928906 -0.11146589 1.1182605 3039391
-0.12675184 -0.11335868 1.1221501 3170977
0.15174921 -0.11437468 1.1278666 3565735
0.15427533 -0.11492828 1.1219285 3500198
-0.12939903 -0.10325005 1.1203116 3170977
0.15210381 -0.10536612 1.1271093 3631790
0.15311295 -0.10702388 1.129818 3434923
-0.12944709 -0.092707172 1.1191949 3302823
0.15185508 -0.093910031 1.1271448 3566513
-0.12930597 -0.082721092 1.1177549 3368614
0.15102319 -0.084646896 1.1270629 3632560
-0.12877148 -0.075004786 1.1190165 3565995
0.14993514 -0.074483894 1.1256546 3895728
-0.1257536 -0.059962224 1.1205214 3697842
0.14771 -0.064525083 1.1240275 4158132
-0.12399759 -0.051685076 1.1192343 3502262
0.14663677 -0.053835612 1.1250863 4027837
-0.12126347 -0.042198043 1.1186069 3698611
0.14178242 -0.042309705 1.1288503 4619197
0.14768879 -0.045514595 1.1234803 4946612
-0.12738302 -0.03575157 1.1146173 7180220
-0.11993807 -0.032733306 1.1219569 4815032
0.14176422 -0.035835013 1.1281122 5209534
0.14666945 -0.034199193 1.1208708 8425655
0.019034393 0.089319006 1.1165985 9474444
-0.062764674 -0.21926855 1.1331093 8300241
-0.080827177 -0.2109735 1.1289678 7642055
-0.073390231 -0.21166524 1.1312826 4815810
-0.06669461 -0.21515083 1.1329744 5210825
-0.089860708 -0.19899428 1.1282662 932767
-0.082958668 -0.20247331 1.130147 2382238
-0.074419819 -0.20555398 1.1326926 2251168
0.10907733 -0.20371842 1.136871 6518691
0.11495411 -0.20275304 1.1355659 11319227
-0.091576971 -0.19221954 1.13002 2447513
-0.08626055 -0.19570859 1.1323138 2513045
0.11685471 -0.19454138 1.1358955 4617903
0.12396437 -0.19464423 1.133111 10929103
-0.10093434 -0.18112502 1.1292722 2971544
-0.095066167 -0.18492955 1.1299938 2774929
0.11901462 -0.18529704 1.1352296 2909086
0.1239804 -0.18441191 1.1329994 3105187
-0.10832871 -0.16789265 1.1275033 2709911
-0.10380253 -0.17296183 1.130016 2644371
0.12556267 -0.17460215 1.1335438 3368356
-0.11064804 -0.16124031 1.129196 2775444
-0.1057319 -0.16539261 1.1302028 2709910
0.13003735 -0.16476002 1.1345234 3368613
0.1343032 -0.16184491 1.1329886 3499683
-0.11378524 -0.15264958 1.1287121 2841497
0.13184056 -0.15729155 1.1368836 3237027
0.13665125 -0.15464792 1.1342973 3302821
-0.11960114 -0.14102422 1.1275228 2645144
-0.11618877 -0.14274947 1.1301602 2775964
0.13982987 -0.1447293 1.1351103 3237542
0.14396499 -0.14119075 1.1343174 3106215
-0.12138467 -0.13260217 1.1282732 2907291
0.14126794 -0.13518307 1.1355237 3499683
0.1444197 -0.13324316 1.1340503 3303338
-0.12231251 -0.12265923 1.1290889 3039134
0.14609548 -0.12476207 1.1342647 3499947
-0.12729006 -0.10834802 1.1264176 3236770
-0.12524173 -0.11261797 1.1298456 3236770
0.14790098 -0.11426441 1.1345977 3500458
-0.12723847 -0.1018686 1.1263479 3237027
-0.12560761 -0.10220001 1.13039 3302821
0.15034033 -0.10372962 1.1350058 3632048
-0.12716107 -0.092149474 1.1262434 3302824
-0.12553427 -0.092988454 1.130291 3302569
0.1486862 -0.094829172 1.1347667 3632047
-0.12752074 -0.08307495 1.1261357 3434408
-0.12481714 -0.080685347 1.1301727 3434665
0.14539057 -0.083761044 1.1342064 4026292
-0.12700629 -0.072711214 1.1260341 3631531
-0.12536599 -0.071856067 1.1300635 3631531
0.14559241 -0.075799279 1.1327497 4157366
-0.12695469 -0.066231795 1.1259644 4025255
-0.12381663 -0.061108816 1.1282665 3632304
0.1451599 -0.064011432 1.1321661 4289211
-0.12027232 -0.052150454 1.1276779 3568048
0.14207512 -0.053212494 1.1326443 4094399
0.14434041 -0.0576028 1.1340779 4224702
-0.11887651 -0.046134688 1.1259292 3764911
-0.11545985 -0.041819487 1.1284609 3895729
0.13956816 -0.04476355 1.1332825 4487616
-0.1200149 -0.027988404 1.1287055 6458567
-0.11509683 -0.031805463 1.1282595 3895996
0.13960986 -0.033738106 1.132108 5735616
0.14650613 -0.030542754 1.1318307 9477559
-0.11957749 -0.02529823 1.1296864 6852289
-0.11632702 -0.025323309 1.129761 5933254
0.051248424 0.074949265 1.1284964 9474701
-0.026368799 -0.22987105 1.1460621 7248329
0.0064751972 -0.23172465 1.1460336 5801654
0.014517147 -0.23066306 1.1456724 5210039
0.027273417 -0.23138013 1.147306 6328255
0.034937829 -0.23143926 1.1474819 7379645
0.046496257 -0.23140676 1.1477461 8430007
0.054551065 -0.22973846 1.1439108 8625323
-0.064016663 -0.2215412 1.1371069 9678537
-0.053343453 -0.2215551 1.1438797 4422071
-0.044047154 -0.22228722 1.1455746 2778029
-0.034301206 -0.22417733 1.1458182 2513574
-0.026710512 -0.22694784 1.1460223 2315684
0.0032114014 -0.22790883 1.1467174 2120102
0.015255487 -0.22800176 1.146994 2185635
0.028403211 -0.22700801 1.1472839 2186146
0.033869073 -0.22814538 1.1474215 2316696
0.049215354 -0.22607335 1.1477499 4486314
0.056822658 -0.22575869 1.1459198 5997746
0.067972921 -0.22287595 1.1470009 6063288
0.076626658 -0.22146596 1.1483266 6589614
0.084727287 -0.22174749 1.1485151 8757678
-0.069357909 -0.20953652 1.1368533 1855898
-0.062732197 -0.21206146 1.1402717 2249885
-0.055161491 -0.21438649 1.1445063 2381985
-0.047067575 -0.21656884 1.1454428 3039902
0.07064908 -0.21583429 1.1481283 2841504
0.076675482 -0.21533319 1.1482607 3302564
0.086287782 -0.21316622 1.1471231 4420011
0.096195161 -0.21245669 1.1429596 6984117
0.10570607 -0.20979965 1.1408617 6254993
-0.080436215 -0.19892272 1.1372839 2710418
-0.072819851 -0.20220688 1.1410762 2775447
-0.066180311 -0.204457 1.1440728 2906776
0.088776752 -0.20528257 1.1480274 3171492
0.097360499 -0.20400526 1.1454089 3237285
0.10580174 -0.20290166 1.14136 3629215
-0.083359152 -0.19190836 1.1411415 2775191
-0.075310417 -0.1954349 1.1438985 2906012
0.099355854 -0.19479907 1.1468877 3040421
0.10638891 -0.19320685 1.1436441 3105703
0.11235976 -0.19353715 1.140836 2777257
-0.098463885 -0.1777719 1.1358397 2710677
-0.091810688 -0.18166992 1.1395651 2709909
-0.085679829 -0.18529905 1.1422164 2709910
0.10752533 -0.18479796 1.1471581 3368100
0.11522117 -0.18306965 1.1429209 3302561
-0.099710934 -0.17118461 1.1388512 2710421
-0.095043264 -0.17402866 1.1430793 2644886
0.10961096 -0.177036 1.1485951 3040936
0.11772439 -0.1740222 1.1466601 3237031
0.12421744 -0.17120269 1.1438638 3368615
-0.109181 -0.1581126 1.1353793 2776209
-0.10389479 -0.16258356 1.1403006 2841240
0.11977644 -0.16552958 1.1487017 3237287
0.12636676 -0.16340932 1.1436847 3302822
-0.11023208 -0.15140343 1.1398165 2710683
-0.10562784 -0.15470116 1.142759 2841499
0.12863761 -0.15498228 1.1461999 3237541
0.13371736 -0.15234759 1.1424743 3237798
-0.11230617 -0.14282539 1.1402849 2907293
0.13033271 -0.14620152 1.1487317 3237797
0.13519996 -0.14374962 1.1438146 3303334
-0.11842798 -0.13112412 1.1360155 2907805
-0.11638124 -0.1327109 1.1421388 2907805
0.13705619 -0.13437349 1.1463108 3434407
-0.1188877 -0.12179711 1.1374272 3039392
-0.11640102 -0.12294129 1.1428317 3039391
0.13907853 -0.12481796 1.1461254 3500202
0.14337571 -0.12199562 1.1407626 3631274
-0.12200629 -0.11258554 1.1391222 3170979
0.14106317 -0.11454321 1.1481861 3631791
0.14459141 -0.11406375 1.1424819 3566510
-0.12235492 -0.10222039 1.1401823 3105957
0.14035749 -0.10343705 1.1468258 3632305
0.14572355 -0.10463984 1.1409597 3501227
-0.1226042 -0.092217512 1.1377805 3237546
0.13999243 -0.09437269 1.1458391 3698099
0.14472115 -0.094843224 1.1408963 3698094
-0.12190903 -0.08247228 1.137928 3434923
0.14128985 -0.085103109 1.146313 3895479
0.14365283 -0.087194927 1.140388 3895477
-0.12146104 -0.072011948 1.138443 3566256
0.14160818 -0.073788837 1.1475302 4027579
0.14418224 -0.073268719 1.144249 4157882
-0.12037826 -0.063118726 1.1376139 3567024
0.13965656 -0.064241648 1.1468711 4159422
0.14408489 -0.064470209 1.14255 4289724
-0.11793564 -0.053324439 1.1353657 3567791
-0.11493964 -0.051356219 1.1407478 3764403
0.13806129 -0.054208051 1.1452341 4356797
-0.11298809 -0.042501546 1.1345984 3830196
0.13549696 -0.044615727 1.1441368 4619718
-0.11148215 -0.031586729 1.1368518 3896507
0.13149072 -0.032687023 1.1444036 4817095
0.13608621 -0.033334397 1.1412926 4948420
-0.1190403 -0.022343181 1.1376688 6916535
-0.11155038 -0.022934563 1.137539 5210049
0.13064702 -0.026266649 1.1464258 5013440
0.13516334 -0.025909483 1.1441911 5998788
0.031035537 0.04853116 1.1391838 5859448
0.039274052 0.048525006 1.1375146 6122362
0.044764817 0.0486435 1.1406399 6319482
0.05579254 0.049868107 1.1448802 5330522
0.03168758 0.052956849 1.1376259 5792108
0.039529987 0.053735778 1.1372634 5527648
0.044799581 0.053008825 1.1405929 5067354
-0.020694664 -0.22985503 1.1491926 4354997
-0.013391156 -0.23091732 1.151372 4684224
-0.0034604557 -0.23071538 1.1501299 4289976
0.0075462814 -0.22850427 1.149824 2054307
0.017970754 -0.22913373 1.1500694 2777510
0.023450878 -0.23027408 1.1502073 4026798
0.039917469 -0.23040113 1.1505854 5604271
0.043772794 -0.22878377 1.150656 4881326
-0.039588019 -0.21935609 1.1486454 3039902
-0.031659335 -0.2203297 1.1493376 2710943
-0.023272159 -0.22227323 1.152356 2645152
-0.013496341 -0.22517055 1.1559749 2514339
-0.0035447106 -0.22514947 1.1556689 2514851
0.0064256876 -0.22273731 1.1543367 2842787
0.016362311 -0.22241397 1.1523598 2908579
0.026023153 -0.22208831 1.1530664 3039651
0.036183715 -0.22285779 1.1544187 2908578
0.045544095 -0.22206083 1.1543741 2778020
0.055639789 -0.22050226 1.1522659 2646433
0.065224543 -0.22327596 1.1510864 5012145
0.076740958 -0.22464587 1.1513649 8955830
-0.052555405 -0.21083388 1.1485412 2841242
-0.042778336 -0.21296002 1.1508365 2775960
-0.033826441 -0.21428353 1.1529897 2841500
-0.024523815 -0.21648723 1.1569612 2907551
0.0071698967 -0.21599464 1.157681 3105184
0.016384413 -0.21569718 1.1578887 3170722
0.026332922 -0.21577393 1.1581171 3302053
0.036470067 -0.21529931 1.1583438 3170723
0.046978608 -0.21445897 1.1585751 3105188
0.056353778 -0.21375628 1.1570671 3170467
0.066048659 -0.21366328 1.1534009 3236258
0.076263681 -0.21032099 1.1516418 3171236
-0.069070525 -0.19936344 1.147752 2906776
-0.062585518 -0.20163745 1.1490685 2907033
-0.054230012 -0.20264725 1.1529624 2841497
-0.045081466 -0.20674601 1.1563842 2775704
0.057345465 -0.20827341 1.1587446 3105443
0.066188589 -0.20834166 1.1589477 3105443
0.077039048 -0.20472121 1.1578927 3105956
0.085507192 -0.20195374 1.1545182 3105956
-0.079960816 -0.18829876 1.1473817 2644884
-0.07299041 -0.19188857 1.1505815 2775705
-0.064705297 -0.19479626 1.1534704 2841497
0.080646694 -0.19739637 1.1591587 3172006
0.088344388 -0.19508438 1.1583092 3040421
0.094281889 -0.19280726 1.1559193 2974628
-0.088673063 -0.17944704 1.1470854 2645144
-0.082116045 -0.18123296 1.1503149 2710425
-0.076870486 -0.18397856 1.151978 2776216
0.097811677 -0.18419215 1.1561558 3171493
0.10287925 -0.18203458 1.1530972 3237026
-0.091706425 -0.17137843 1.1495168 2710424
-0.085446775 -0.17359349 1.1536428 2710937
0.10070218 -0.17764881 1.1594014 3302823
0.10713661 -0.17364725 1.156346 3172005
0.11297527 -0.17056075 1.1556034 3172006
-0.10022818 -0.15995875 1.1466078 2841498
-0.095967084 -0.16245914 1.1516573 2907290
0.10963333 -0.1666609 1.1594855 3303592
0.1159374 -0.16334176 1.1582596 3237544
0.12227423 -0.15911333 1.1516895 3303337
-0.10196476 -0.15146954 1.14819 2973342
-0.097543649 -0.15455841 1.1546127 3038879
0.11961474 -0.15559936 1.1589259 3237544
0.12410231 -0.15265347 1.1544615 3303336
-0.10988013 -0.13986328 1.1471673 2973342
-0.10394445 -0.14302519 1.1518393 2973600
0.127556 -0.14354183 1.1556412 3368872
-0.1114264 -0.13197398 1.148399 3039392
-0.10613489 -0.13277335 1.1541777 3236259
0.12889171 -0.13409331 1.1573189 3500460
0.13347055 -0.13174811 1.1516461 3434923
-0.11246172 -0.12231749 1.1488057 3170978
0.1299834 -0.12516296 1.1581632 3500719
0.13477294 -0.12273539 1.1549118 3500718
-0.11886864 -0.11113408 1.1456469 3237029
-0.11520513 -0.1124682 1.1517472 3237286
0.13511781 -0.11385144 1.1575953 3697329
-0.11879871 -0.1023501 1.1455523 3237543
-0.11640847 -0.10185258 1.1531041 3172263
0.13641986 -0.10475572 1.15702 3697843
-0.11909335 -0.092678666 1.1484407 3303340
-0.11712456 -0.09156768 1.1534752 3303852
0.1362682 -0.094304733 1.1573023 3764149
-0.11901019 -0.082949333 1.1453352 3500716
-0.11646549 -0.081516311 1.1533803 3501229
0.13932458 -0.08390718 1.1558294 3764661
-0.11858013 -0.07490018 1.1452569 3566512
-0.11548238 -0.071455121 1.1496551 3632306
0.13642736 -0.073677652 1.1555502 3896764
-0.1148042 -0.061839852 1.1495653 3698357
0.13047387 -0.063567832 1.1575001 4291265
0.13442361 -0.064826541 1.1520787 4225217
-0.11311357 -0.052849207 1.1491419 3764408
0.13134789 -0.053978853 1.1567484 4554434
0.13409132 -0.053790338 1.1508071 4488640
-0.11009169 -0.042151876 1.1498942 3895997
-0.10601947 -0.038949128 1.1531534 4027323
0.13106519 -0.04318988 1.1556234 4817354
-0.10839379 -0.032668576 1.1463615 3962044
-0.10454309 -0.031429917 1.1523046 4093118
0.12177009 -0.030755512 1.1582756 5014224
0.12723215 -0.033572875 1.1544302 4751563
-0.10718273 -0.022281036 1.1449417 4290235
-0.10240506 -0.022140905 1.1495843 4158908
-0.096286826 -0.019859046 1.1531671 4028609
0.12020338 -0.023724325 1.1563845 4817874
0.12700729 -0.023548134 1.1513144 5145287
-0.0999199 -0.015535228 1.1474348 4487616
-0.094617434 -0.012867115 1.151795 4356800
0.11145651 -0.011144683 1.1558244 5276623
0.11785725 -0.01424592 1.1522893 5604813
0.12728085 -0.015550978 1.151122 6720449
-0.092490681 -0.0058830231 1.153101 5671109
0.10960938 -0.0055497587 1.1571499 5802961
0.11606263 -0.0064125434 1.1532104 6787017
0.033664636 0.010834552 1.1558045 12972031
-0.021447813 0.021151297 1.1524299 5869264
0.010869799 0.017275967 1.1552125 7515376
0.018358951 0.016849615 1.1553885 8764660
0.027960045 0.016333282 1.1556138 10146554
0.034584165 0.015250191 1.1557772 10870005
-0.078955717 0.029842243 1.145017 8028800
-0.073829859 0.030168712 1.1451308 7305855
-0.017095264 0.022283033 1.1545178 5671370
-0.013779094 0.022257447 1.1545939 5869265
0.0094340947 0.02207835 1.155127 6988787
0.013855655 0.022044227 1.1552286 7185904
0.10014651 0.030223906 1.1571134 6314850
-0.072570279 0.035161287 1.145105 8028802
0.09707959 0.033785775 1.1570042 6117979
0.073394142 0.044405714 1.1483436 5593178
0.075589687 0.044388771 1.148394 5658970
-0.019165294 -0.21945113 1.1611177 2973083
-0.013628136 -0.22060335 1.1612569 2973595
-0.0042136759 -0.22023851 1.1621352 2973598
-0.039042532 -0.20820285 1.1605397 2842012
-0.032675676 -0.20963886 1.1607012 2776219
-0.023391696 -0.2121745 1.1624656 2907806
-0.013847765 -0.2136098 1.1643343 2907807
-0.0033007627 -0.21422985 1.1647578 2973599
0.0056568868 -0.2119884 1.1622708 3039136
0.01639018 -0.21107391 1.1631732 3170723
0.026382182 -0.21103881 1.1627346 3236770
0.036197372 -0.21066099 1.1622882 3170979
0.0452433 -0.21051742 1.1624936 3170980
0.051911741 -0.20890462 1.1626285 3171236
-0.050063841 -0.19924188 1.1601895 2842012
-0.043407939 -0.20154312 1.161822 2842011
-0.033837438 -0.20386499 1.1630737 2842012
-0.025598446 -0.20536146 1.1648175 2907805
0.020858508 -0.20711152 1.1658996 3302309
0.026904341 -0.20601378 1.1648827 3302308
0.035587512 -0.20597428 1.1637233 3171236
0.046383418 -0.20664299 1.1624773 3171236
0.056979306 -0.20533334 1.1643726 3105443
0.066829734 -0.20349374 1.1639109 3171492
0.073415138 -0.20167391 1.1630414 3040420
-0.071050264 -0.18798503 1.1595861 2841497
-0.062310629 -0.19079587 1.1603503 2907291
-0.05392652 -0.19349673 1.1619211 2907549
-0.047311351 -0.19471031 1.1642041 2907551
0.069919445 -0.19635703 1.1669044 3040420
0.076992236 -0.19459055 1.1651516 3106213
0.084880061 -0.19207281 1.1631986 3106214
-0.072547495 -0.18146533 1.1614811 2907290
-0.066019513 -0.18437889 1.1631628 2973340
0.081120424 -0.18753704 1.1670642 3302823
0.08723826 -0.18522519 1.1647781 3237030
0.093399629 -0.18186411 1.1650602 3237031
-0.08974763 -0.16786991 1.1589382 2841497
-0.081392676 -0.17140827 1.1597015 2842012
-0.075348631 -0.17366448 1.1623319 2907547
0.098664314 -0.17422958 1.164242 3368361
0.10379425 -0.17102742 1.163401 3237285
-0.091179438 -0.16194156 1.1588404 2973085
-0.084464908 -0.16218871 1.1617345 3039135
0.10105217 -0.16712305 1.1632955 3368615
0.10758481 -0.16383532 1.1641365 3237799
0.11219717 -0.16055208 1.1634786 3303337
-0.098471038 -0.14894122 1.1585313 2973857
-0.093107231 -0.1524958 1.160249 3039137
-0.087238595 -0.15339565 1.1628383 3104930
0.10960396 -0.15633732 1.1653738 3172264
0.11587866 -0.15350959 1.1641526 3238059
-0.099619679 -0.14071944 1.1594154 3039650
-0.095736958 -0.14431232 1.1625445 3105700
0.11916014 -0.14377546 1.1656089 3369132
0.12342165 -0.1439963 1.1635542 3434410
-0.10232336 -0.13212793 1.159974 3171236
0.12109207 -0.13565704 1.1666107 3500719
0.12450922 -0.13339226 1.1654637 3435183
-0.10933334 -0.1200106 1.1579661 3302823
-0.10476016 -0.12199674 1.16076 3171495
0.12535553 -0.12330347 1.1651907 3566514
-0.11104418 -0.11134657 1.1592872 3368873
-0.10741513 -0.1125323 1.1611291 3368875
0.12816694 -0.11414316 1.1641363 3697588
-0.11190355 -0.10226081 1.1603806 3303850
0.12975049 -0.10452755 1.1666967 3763892
0.13305871 -0.10390701 1.1633359 3698099
-0.11314123 -0.092057288 1.1591736 3435181
-0.10734612 -0.092565544 1.1617124 3435438
0.13083735 -0.094403259 1.1671823 3829942
0.13375303 -0.093907692 1.1643856 3764149
-0.11203755 -0.082388304 1.1594931 3501229
0.13094372 -0.081044458 1.1670386 3896505
0.1353654 -0.083984584 1.1649895 3830455
-0.11135039 -0.072537683 1.1589394 3632563
-0.10715996 -0.069187641 1.1614609 3567542
0.1287009 -0.073896393 1.1643368 4027837
0.13393448 -0.077507846 1.1630671 3896505
-0.11050681 -0.062487964 1.1586435 3829940
-0.10710678 -0.062508233 1.161389 3699127
0.12724794 -0.064258389 1.1654365 4291009
-0.10999539 -0.052356683 1.1580107 3895737
-0.10638339 -0.051539842 1.1612854 4027576
0.12763922 -0.054229818 1.1646688 4422849
-0.10874145 -0.045679159 1.1571661 4158911
-0.10427126 -0.041992988 1.1592287 4093372
0.12767206 -0.044491209 1.1640629 4817355
-0.10043844 -0.032628573 1.1587522 4093630
-0.095710777 -0.029197104 1.161285 4094397
0.12029041 -0.033678822 1.1644981 5080014
0.12482874 -0.036941111 1.1624147 4883149
-0.098224044 -0.025049783 1.1571809 4028348
-0.093733422 -0.022510894 1.1587564 4028864
0.11588638 -0.024006084 1.1638469 4949202
-0.090102553 -0.012942851 1.159053 4029123
-0.085916981 -0.010717638 1.1613069 3963586
0.1098611 -0.014085315 1.1644895 5146069
0.11332793 -0.018545754 1.1619502 5080276
-0.089191429 -0.0051485971 1.1571698 5342665
-0.082145363 -0.0030107126 1.1613089 4882633
-0.018673966 0.00026766956 1.1627252 6070261
-0.011995925 0.00021614134 1.1628786 6528744
-0.0053178836 0.00016462058 1.1630319 8827627
0.010264209 4.4390559e-005 1.1633898 10340848
0.019004198 -0.00065921247 1.1635975 8895736
0.02650347 -0.001416862 1.1637774 6266608
0.10090321 -0.0012223572 1.1644772 5475287
0.10539406 -0.0047927871 1.1629518 5475028
-0.078579597 0.0029311478 1.1593248 5999306
-0.07191176 0.0039891899 1.1594658 5540557
-0.06330391 0.0072504282 1.1589601 5803727
-0.05063685 0.0089258999 1.1618991 4950220
-0.041685544 0.0077323169 1.162117 5016280
-0.031958222 0.0070418492 1.161947 5411294
-0.021870924 0.0069306567 1.1603385 5806569
-0.011922199 0.0068843588 1.1622071 7120874
-0.002343772 0.0075636879 1.1630191 12379901
0.0083017852 0.006930083 1.1607424 13891069
0.01812846 0.0066083595 1.1602969 12969723
0.028062688 0.0067782849 1.1614069 9946095
0.038120963 0.0064734295 1.1620432 10013177
0.047875494 0.0082761273 1.1620058 7449069
0.054496214 0.010093935 1.1642919 5411552
0.098058388 0.0026723742 1.1628691 6526426
-0.048618779 0.013858341 1.1618913 6264275
-0.04096242 0.014575899 1.1595579 5803990
-0.031348214 0.015115626 1.1582714 5345755
-0.021333637 0.016300127 1.1584877 5412839
-0.011752371 0.016824678 1.1592013 5676266
-0.002778247 0.015859492 1.1617751 7253489
0.0070928298 0.015581854 1.1601462 8436213
0.01707501 0.013262689 1.1593997 12051453
0.031529922 0.017589137 1.1596831 10082302
0.039362371 0.016789049 1.1598711 10607102
0.047838368 0.015878327 1.1600749 7515119
0.054839835 0.015224971 1.161576 6068200
-0.0094750803 0.022343479 1.1586928 6001365
-0.0050382875 0.022309251 1.1587948 6396124
0.10748037 0.027210474 1.1613156 6447199
-0.010443458 -0.20976973 1.1692139 3039391
-0.0029318519 -0.20923942 1.1708803 3039135
0.0085424017 -0.2099162 1.1696498 3104930
-0.039391704 -0.19837528 1.1684268 2776478
-0.033069551 -0.19929822 1.1705822 2842271
-0.02323206 -0.20099007 1.1730083 2907807
-0.014033752 -0.20291485 1.1737539 2908063
-0.0040494986 -0.20382975 1.175097 2973600
0.0062874947 -0.20293206 1.1748569 3105187
0.016237246 -0.20266756 1.1741618 3236773
0.025966272 -0.20141058 1.17369 3237029
0.036908951 -0.20157991 1.1740088 3171237
0.046603359 -0.20262918 1.1719414 3171236
0.05614724 -0.20114945 1.1715665 3105444
0.065026067 -0.19973947 1.1708308 3171493
-0.051585369 -0.1893765 1.1712503 2841758
-0.043524206 -0.19173747 1.1722609 2907551
-0.034689404 -0.19288187 1.1753 2842271
-0.024042403 -0.19414008 1.1767342 2908064
-0.017304769 -0.19531679 1.1769012 2973857
0.0040594423 -0.19548163 1.1773919 3105444
0.016935904 -0.19458121 1.1776767 3237030
0.026998714 -0.19508325 1.1771121 3302823
0.03666715 -0.19437775 1.1772025 3171495
0.046048842 -0.19304582 1.1769342 3105703
0.055759214 -0.19338164 1.1769513 3105703
0.065611348 -0.19297984 1.1752716 3105702
0.074027106 -0.19057038 1.1726513 3105958
-0.062765084 -0.18160892 1.169356 2973598
-0.054884881 -0.1833438 1.1739097 2907551
-0.045056105 -0.18526128 1.1761562 2908065
0.067378059 -0.18454984 1.178721 3237288
0.076257922 -0.18393093 1.1764722 3302823
0.085004382 -0.18198772 1.1736659 3237287
-0.072105385 -0.17025545 1.1702285 3105183
-0.064745545 -0.1736514 1.1736957 2974112
-0.056507647 -0.1758939 1.1757916 2842786
0.077747755 -0.1771547 1.1788774 3171750
0.086434729 -0.17362599 1.1777036 3172008
0.094612278 -0.17198022 1.173538 3303081
-0.080101274 -0.16053472 1.167748 3104930
-0.074031845 -0.16283819 1.1739141 3170978
0.088958755 -0.16528693 1.179004 3303337
0.096798562 -0.1638518 1.1769168 3368873
0.10382241 -0.16263396 1.1738586 3237543
-0.089876607 -0.14764988 1.1693839 3040164
-0.083210796 -0.15144612 1.1707011 3105701
-0.076964036 -0.15586583 1.1751044 3302822
0.098391533 -0.15481937 1.1791052 3303597
0.10591216 -0.1524969 1.1748867 3238059
0.11304572 -0.14951128 1.1733804 3303852
-0.092292666 -0.14128464 1.1703705 3106213
-0.084642082 -0.14334083 1.1747917 3172007
0.10678902 -0.14338931 1.1789721 3369387
0.11481436 -0.14325272 1.1753531 3435181
-0.099306896 -0.13101923 1.1676524 3237030
-0.09283983 -0.13169628 1.1721425 3237800
-0.086544923 -0.13517186 1.1746587 3303594
0.10865112 -0.13735273 1.1791488 3500972
0.11716682 -0.133175 1.1760468 3500976
0.12198115 -0.13035943 1.1713747 3500977
-0.10041298 -0.12173426 1.1693038 3237545
-0.095855407 -0.12339172 1.1734276 3303852
0.11895584 -0.12363556 1.1792344 3566772
0.12236624 -0.1240357 1.1753155 3566515
-0.10285051 -0.11200438 1.1692805 3369389
0.11988845 -0.11410932 1.1791514 3763639
0.12337051 -0.11325312 1.1743313 3763639
-0.10947947 -0.098136596 1.1670598 3435181
-0.10421187 -0.10182989 1.1704599 3435438
0.12061925 -0.10302833 1.1790469 3895737
0.12572202 -0.10300338 1.1739852 3764149
-0.10895212 -0.091652662 1.1680678 3435438
-0.10367992 -0.092281073 1.1722581 3501231
0.12066403 -0.097405024 1.1789864 3961530
0.12619169 -0.093522891 1.1738923 3961528
0.13346954 -0.090232059 1.1711982 3895735
-0.10861084 -0.082397379 1.1685745 3501489
-0.10440822 -0.082176685 1.1715516 3501490
0.12080732 -0.079410449 1.1787927 4159679
0.12658778 -0.084182255 1.1742483 3962041
0.13348733 -0.08799798 1.1711742 3895735
-0.10899842 -0.075063936 1.1674851 3501747
-0.10422671 -0.07188198 1.1702269 3567541
0.12010844 -0.073031582 1.1787069 4225473
0.12388849 -0.073606014 1.1747983 4159424
-0.10234786 -0.061756298 1.1690921 3764919
0.11992922 -0.064157322 1.1786057 4422597
0.12396882 -0.063518345 1.1746898 4357059
-0.10177363 -0.051990248 1.1688268 3896505
-0.097126544 -0.051860165 1.1735047 3962298
0.11988886 -0.053534564 1.1784885 4685767
0.12404914 -0.05343068 1.1745812 4422851
-0.10019833 -0.042896289 1.1669343 4027836
-0.095293038 -0.041112591 1.1723378 4028094
0.11814718 -0.04295044 1.1762145 4948684
0.12414109 -0.044945348 1.1714895 4751818
-0.098401099 -0.034821697 1.1652864 4093632
-0.092937283 -0.031351186 1.1712215 4094399
0.11143538 -0.032474369 1.1780646 5080784
0.11584828 -0.033627234 1.1733766 5211343
-0.089588568 -0.022950575 1.1697232 4094402
-0.083097912 -0.019908488 1.1724756 4226244
-0.076618105 -0.01827649 1.1736064 4620744
-0.022636408 -0.01756826 1.1748338 5412064
-0.00014776736 -0.017741762 1.1753502 6463211
0.0078911316 -0.02164112 1.1755768 6397929
0.017580971 -0.021075159 1.1757923 6397929
0.026828367 -0.019235313 1.1759838 6003432
0.10856323 -0.023200303 1.1753964 5081042
0.11387385 -0.026405521 1.1700513 5081041
-0.081558727 -0.01216381 1.167291 4160963
-0.073597439 -0.01123222 1.1727409 4752075
-0.058546595 -0.0082933456 1.1739106 4949201
-0.051804475 -0.0089077428 1.1740716 5016022
-0.042219527 -0.010108516 1.1736372 5213659
-0.032385968 -0.011094585 1.1733086 5411552
-0.02255881 -0.011947721 1.1739737 5740773
-0.012471749 -0.012023032 1.1750057 6003172
-0.0023438232 -0.01210244 1.1748381 6331366
0.0078111757 -0.012183242 1.1724705 6989552
0.017901124 -0.012260981 1.1731023 6792432
0.027999569 -0.012338363 1.172684 5937640
0.036440998 -0.011464402 1.1751183 5806054
0.047141068 -0.010233529 1.17635 5674725
0.053896613 -0.0091609061 1.1764928 5674983
0.099697076 -0.012044936 1.1775724 5146841
0.10582779 -0.014215752 1.1720202 5080789
-0.078049377 -0.0036996007 1.1654115 4554184
-0.074665524 -0.0028670058 1.1684808 4751049
-0.059483379 -0.0026839972 1.1718271 4818129
-0.052024394 -0.0027478784 1.1711981 5015507
-0.042408742 -0.002844952 1.1680181 5147609
-0.032273933 -0.0029326752 1.1669506 5346018
-0.02269868 -0.0033607185 1.1697863 5937898
-0.012263464 -0.0041852668 1.1702564 6462952
-0.0017837388 -0.003527984 1.1695998 8303605
0.0076100798 -0.0037143975 1.1688006 8501495
0.017475575 -0.0047772527 1.1682245 7252467
0.028766528 -0.0043125972 1.1693171 6069484
0.037901312 -0.0032862127 1.1703764 6135528
0.047936842 -0.0037140399 1.1737077 5741031
0.057289004 -0.0035732388 1.175509 5543655
0.066752955 -0.0023386851 1.1767123 5477092
0.076825745 -0.0010897964 1.1769291 5739747
0.088192999 -0.0014274567 1.1771929 5280481
0.097474404 -0.0041640103 1.1737417 5015513
0.10299895 -0.0062035024 1.171582 4949463
-0.07129512 0.0029509664 1.1654932 4818122
-0.061856322 0.0038711131 1.1656991 5147606
-0.05316405 0.0045487806 1.1658906 4818639
-0.044491559 0.0027441606 1.1661087 5344472
0.00018550828 0.0029580072 1.1671287 12971007
0.0046483213 0.0023650154 1.1672373 12905215
0.029218255 0.0021754429 1.1678015 5807584
0.04262004 0.0020720363 1.1681093 6004710
0.048690379 0.0029827282 1.1682382 5807083
0.057450734 0.0054140016 1.1705461 5477863
0.06589096 0.0049407482 1.1732785 5542628
0.077599242 0.0019035116 1.1769141 5673698
0.088215098 0.0037642121 1.1756361 5804766
0.093993537 0.0016756654 1.1692891 5147865
0.060578033 0.013104595 1.1683995 5412324
-0.010695767 -0.19824463 1.1810857 3039650
-0.0042538121 -0.1989392 1.1812408 3039650
-0.030941194 -0.19018865 1.1805344 2842271
-0.024171753 -0.19024089 1.1806898 2973857
-0.013887044 -0.19139808 1.1822014 2973857
-0.0041805767 -0.19321218 1.1837069 3039395
0.0065087886 -0.19136816 1.1831825 3171237
0.015840093 -0.19002962 1.18267 3237030
0.026176456 -0.18955384 1.1833732 3302569
0.034516722 -0.18976158 1.1833612 3237546
-0.050521381 -0.17955828 1.17997 2908065
-0.042953752 -0.180584 1.1801543 2973857
-0.034311086 -0.18240371 1.1813723 2973857
-0.024608122 -0.18436766 1.1827339 2973858
-0.016367497 -0.18524006 1.1848149 3105444
0.015329869 -0.18548462 1.1855428 3237030
0.027039729 -0.18406516 1.1857952 3302825
0.035979539 -0.18368232 1.1856878 3171754
0.045868665 -0.18429516 1.1842279 3171752
0.056226209 -0.18395793 1.1838728 3171753
0.064695813 -0.18091004 1.1836213 3237546
0.072955765 -0.17857635 1.1827844 3303592
-0.061621025 -0.17001441 1.1796116 2908579
-0.053492635 -0.17222553 1.1818223 2908579
-0.043693252 -0.17376129 1.1829728 3105444
-0.035083771 -0.17558393 1.184281 3105443
0.059551895 -0.17676705 1.1864592 3303339
0.06763164 -0.17457032 1.1852863 3303082
0.076090738 -0.17254965 1.1833619 3237545
0.082053579 -0.16961822 1.1828946 3303850
-0.070557088 -0.15866005 1.1792828 3302822
-0.064032264 -0.16299164 1.1817303 3040165
-0.056976989 -0.16680914 1.183684 3040167
0.07094451 -0.16779613 1.1866217 3303598
0.077058814 -0.16385838 1.1857771 3238061
0.085682042 -0.16188344 1.1840044 3303596
0.093416855 -0.15954903 1.1830443 3369131
-0.080251299 -0.14805223 1.1789449 3171751
-0.073888749 -0.15171918 1.1805428 3368615
-0.067075275 -0.15540776 1.1833282 3171751
0.095249116 -0.15297197 1.1845148 3369134
-0.082169563 -0.14098404 1.1788237 3369130
-0.076136619 -0.14295831 1.1819842 3434922
0.096416265 -0.14329903 1.1859837 3435183
-0.083856411 -0.1323583 1.1800244 3434923
0.09922073 -0.13622421 1.1861229 3501232
0.10601828 -0.13315083 1.1856328 3435694
0.11282159 -0.13148525 1.1831812 3501232
-0.091980353 -0.12115568 1.1793824 3369646
-0.086331457 -0.12493534 1.1812203 3435182
0.1097858 -0.12393422 1.1870303 3567282
0.11394423 -0.12345517 1.1849377 3567027
-0.10024514 -0.10839907 1.1780534 3501231
-0.095755659 -0.11233471 1.18095 3435439
0.10984892 -0.11600825 1.186945 3829686
0.11501504 -0.11325453 1.1852547 3829431
-0.10021818 -0.10501365 1.178017 3501231
-0.095845118 -0.10178923 1.1797489 3567024
0.11738637 -0.10388809 1.1856511 3830201
-0.10010586 -0.090907782 1.1778651 3632818
-0.09692876 -0.091631219 1.1799464 3698612
0.11960314 -0.093301885 1.184919 3896507
-0.10002948 -0.081315786 1.1777619 3633333
-0.096251264 -0.081510589 1.1806513 3764919
0.11953144 -0.083098426 1.1843055 4093886
-0.10041068 -0.072510228 1.1776568 3633334
-0.096439727 -0.071572915 1.1809384 3830201
0.11658867 -0.073443346 1.184855 4291523
-0.095899373 -0.061291695 1.1793045 3896506
0.11619686 -0.062962659 1.1841089 4619975
-0.092545174 -0.051766239 1.1793245 4028348
0.11036282 -0.051468324 1.1862503 5146320
0.11479529 -0.053734176 1.1853763 4883148
-0.090720206 -0.042380724 1.1778345 3962814
-0.085788973 -0.041032087 1.1805048 3963072
0.10947558 -0.042650495 1.184633 5146577
0.11327063 -0.044323646 1.1827376 5080527
-0.089266866 -0.033323027 1.1774828 4028607
-0.083124772 -0.031600699 1.1797385 4291526
-0.033245079 -0.029978022 1.1827292 5147865
-0.025771754 -0.029809214 1.1828984 5344731
-0.0094630383 -0.029029161 1.1832631 5345501
-0.0026707463 -0.029081568 1.183419 5739743
0.0075189956 -0.031406231 1.1823438 5936862
0.016563889 -0.031480685 1.1828851 5871068
0.026753508 -0.030440934 1.1841072 5739228
0.044875301 -0.029448412 1.1845109 5213656
0.10767269 -0.033755958 1.1843945 4949970
-0.081239544 -0.024187371 1.1775665 4422856
-0.072813198 -0.019470446 1.1795264 4686797
-0.062441282 -0.018420324 1.1799341 4884690
-0.052093662 -0.019922309 1.1816878 4950486
-0.041628137 -0.020771079 1.181103 5213659
-0.033027567 -0.022029042 1.1794463 5279707
-0.022887802 -0.023240268 1.1800916 5345244
-0.01271048 -0.021687493 1.1802186 5411808
-0.0028581144 -0.022879474 1.1802551 5806052
0.0064714197 -0.026086688 1.1795942 6068964
0.018502988 -0.026555695 1.1798747 6068963
0.02853496 -0.024242491 1.1810023 6003173
0.036982935 -0.022579782 1.1820545 5608417
0.047166638 -0.022661187 1.1828886 5411038
0.053985789 -0.022724606 1.1846458 5279709
0.098700099 -0.021322817 1.1847302 5212630
0.10435583 -0.024975874 1.1831554 5015248
-0.069027841 -0.013842598 1.1777327 4949712
-0.0622584 -0.013894826 1.1778882 4949713
-0.052104235 -0.013973169 1.1781213 5016279
-0.042705223 -0.014421865 1.1783414 5213659
-0.034061365 -0.015240915 1.1785481 5345501
0.038714632 -0.015238158 1.1802132 5871590
0.047180928 -0.014739208 1.1804014 5871847
0.057407223 -0.012563989 1.1826123 5543139
0.064693131 -0.011488043 1.183053 5280225
0.089169458 -0.011672579 1.1853299 5411294
0.095076442 -0.013159029 1.182935 5279196
0.066992529 -0.0064280257 1.1807638 5411556
0.076596051 -0.0048093051 1.1809658 5412066
0.087878458 -0.0048963577 1.1812249 5477344
0.094629921 -0.007205531 1.1814047 5213404
-0.0032752994 -0.18857381 1.1891522 3105189
-0.023595827 -0.17994085 1.1895932 3039906
-0.013924414 -0.18214533 1.1902673 3039908
-0.0044453889 -0.183359 1.1924028 3105447
0.0062260842 -0.18269239 1.1900555 3105702
0.01533433 -0.18152171 1.1895009 3171750
0.024321221 -0.18117791 1.1897027 3237289
0.035797853 -0.1794073 1.1899459 3237548
0.046020567 -0.17948616 1.1901808 3171752
0.05510743 -0.17955628 1.1903894 3171752
-0.051125586 -0.16828397 1.1878353 3039909
-0.043304391 -0.16906598 1.188912 3105701
-0.035209298 -0.17176037 1.1907839 3105443
-0.025688933 -0.17721178 1.1925163 3040163
0.0050893049 -0.17653728 1.1932131 3105960
0.016494837 -0.17551064 1.1934628 3105958
0.025620405 -0.17407826 1.1928557 3237545
0.03604918 -0.17310953 1.1919887 3237547
0.04610347 -0.17287964 1.1917108 3237544
0.056164689 -0.17272913 1.1920236 3237545
0.064853892 -0.17081898 1.1911837 3303339
-0.062295489 -0.15876767 1.1874756 3172009
-0.053955302 -0.16197038 1.1901022 3105961
-0.044676222 -0.16424064 1.1919399 3171752
0.039362781 -0.16631401 1.1938854 3303337
0.046200775 -0.16636677 1.1940424 3303593
0.056302734 -0.1654676 1.1942638 3303594
0.065557055 -0.16293776 1.1931975 3303596
0.072452292 -0.16151156 1.1905887 3238062
-0.069610715 -0.15019004 1.1872144 3434409
-0.063949391 -0.15196626 1.1901877 3237547
-0.055658393 -0.15438846 1.1915808 3237805
0.066548228 -0.15563074 1.1943905 3238318
0.075891629 -0.15278199 1.1934528 3238572
0.086053155 -0.15266402 1.1920035 3434926
0.092584282 -0.15212317 1.1909466 3369134
-0.071907207 -0.14112717 1.1882938 3435179
-0.066034429 -0.14315787 1.1907759 3369388
0.08055412 -0.14611241 1.1946068 3500977
