# .PCD v0.7 - Point Cloud Data file format
VERSION 0.7
FIELDS x y z rgba
SIZE 4 4 4 4
TYPE F F F U
COUNT 1 1 1 1
WIDTH 1131
HEIGHT 1
VIEWPOINT 0 0 0 1 0 0 0
POINTS 1131
DATA ascii
-0.062332336 0.0060948133 0.9904775 5536936
-0.05304848 0.0087918118 0.98895788 5801142
-0.043406975 0.010390773 0.9882704 6263759
0.079177022 0.010122865 0.99527228 5864111
-0.059848372 0.013012566 0.99261069 5270664
-0.050948311 0.015292525 0.99034214 5008273
-0.041684408 0.016139179 0.98942727 5206430
-0.032216918 0.018410608 0.98861498 5074073
-0.023353443 0.018580906 0.99092376 5274031
-0.013309886 0.020462915 0.98841512 5405876
-0.0047918679 0.020633869 0.98848283 5998788
0.0037261453 0.020804822 0.98855054 5802444
0.030271288 0.020420924 0.98977071 5538507
0.038207266 0.020332158 0.99019992 4944316
0.047384009 0.019845426 0.99091601 5008558
0.057918321 0.019794814 0.99283576 4612496
0.064742371 0.017453358 0.99508154 4546960
-0.047745626 0.021863393 0.99412107 5401735
-0.041948628 0.021920353 0.99236763 5270150
-0.03163721 0.022674434 0.99252987 5203846
-0.019205779 0.024553888 0.99357677 4875914
-0.011750444 0.026511937 0.99008197 4875142
-0.0022736294 0.026821047 0.99087048 4743815
0.0064252215 0.02793131 0.99075162 4678280
0.017014036 0.02987963 0.99096847 4809598
0.02998456 0.027940713 0.99007803 4612484
0.037688497 0.026748322 0.99135911 4677249
0.047001075 0.026158065 0.99273241 5005437
0.057050154 0.026656099 0.99492705 5268860
-0.010801747 0.032130107 0.99431968 5006720
-0.090166382 -0.013096787 1.002725 5932737
-0.085918851 -0.011283644 1.0021415 5933251
-0.090663262 -0.0077073425 1.0034308 6192539
-0.082615964 -0.0042296201 0.99901074 5930664
0.091715217 0.0031571761 1.0031112 6983363
0.098877378 0.0023533553 1.0065112 6061227
0.10419556 0.0031268001 1.0065469 5400966
-0.080088615 0.0041715801 1.0004096 6189971
-0.073435284 0.0073035434 0.99805737 5861520
-0.065824762 0.010134973 0.99709105 5664907
0.071229517 0.012407959 0.99818504 5996731
0.079226866 0.011168204 0.99980813 5731750
0.088661641 0.0098375604 1.0033531 5927827
0.096983567 0.0074118525 1.0064454 5861518
-0.071059369 0.01206743 1.0024296 6058377
-0.0601019 0.015599973 1.0004168 5467271
-0.054705117 0.019040652 0.99984306 5466762
0.068798192 0.018993184 0.99949968 5268360
0.077238664 0.017466165 1.0030506 5663111
0.08553946 0.015236184 1.0047739 6517124
-0.052926082 0.021990418 1.0010782 5532297
-0.039137561 0.024754554 0.99916285 5204613
-0.032969486 0.027333908 1.0004816 5138821
-0.023279063 0.026915662 0.9980886 4876167
-0.015590734 0.030250788 0.99729967 5138310
-0.0041305469 0.030480802 0.99739075 5138050
0.038526818 0.031336933 0.99772978 5006203
0.048190214 0.030590728 0.998191 5202812
0.05627225 0.02940017 0.99789363 5203582
0.06613794 0.025524646 1.0018129 5597049
-0.030245397 0.032207623 1.0051614 5269636
-0.021720584 0.033042237 1.0027224 5204101
-0.012142572 0.033596441 1.0011697 5072257
-0.0023106476 0.033533409 1.0007755 5006718
0.0072726761 0.033669114 0.99955201 4875393
0.016877705 0.033992514 1.0026274 4875390
0.02735105 0.034123108 1.0028841 4874877
0.037538741 0.034263432 1.0019151 5006460
0.044747695 0.03360641 1.0032582 5202811
-0.10100168 -0.015446506 1.0092608 6980776
-0.094845004 -0.015081093 1.0081072 6129600
-0.10009331 -0.0088449121 1.0122025 7570324
-0.092822827 -0.0056184381 1.0086293 6651024
-0.086700916 0.00029464066 1.0080202 6781327
0.096819259 0.00011444837 1.0095171 6854356
0.10837542 0.00047103316 1.0114411 7111067
-0.082572035 0.0061926469 1.00912 6583439
0.099502318 0.011388764 1.0102265 6845830
0.10778441 0.0089703426 1.0125183 7436672
-0.070484154 0.017422013 1.0116246 6321290
-0.064308658 0.018446885 1.0106467 5795463
0.078335278 0.02110818 1.0131574 5860223
0.088139236 0.016596414 1.0110821 6649473
0.095576212 0.016169868 1.0153474 6977411
-0.071000092 0.021982402 1.011682 7372164
-0.06155372 0.022454597 1.0105041 6123396
-0.052301075 0.027026415 1.0127008 5729669
-0.043774847 0.027776591 1.0127836 5336195
-0.037074443 0.030266419 1.0081254 5270149
0.068250746 0.028033927 1.0090058 5532277
0.075784057 0.025351636 1.0138943 5860472
-0.052910704 0.032135457 1.0139784 6714755
-0.04384616 0.03231737 1.0140504 5794947
-0.033050079 0.034192443 1.0120194 5466498
-0.02263632 0.036965489 1.0109265 5466240
-0.012176943 0.037713528 1.0121543 5334655
-0.001703064 0.038046837 1.0107362 5138044
0.0073265419 0.03889443 1.0114014 5072252
0.017016381 0.038895667 1.010788 5072247
0.026684992 0.038539723 1.0104911 5137530
0.036899976 0.038081974 1.014222 5137788
0.046010364 0.034964785 1.0117557 5268347
0.11530919 -0.0072358102 1.0187417 7374502
-0.10093079 -0.0054215342 1.0211052 9214113
-0.092171378 -0.0013529584 1.0192786 6978442
0.11137401 -0.0053659305 1.0186911 7112109
0.11576653 -0.0010677502 1.0193155 8686741
-0.090421915 0.0044650286 1.0198492 7636109
-0.085144252 0.008662641 1.0189502 7437970
0.11567299 0.0070631579 1.018602 9277068
0.081005059 0.022638999 1.0191643 5992060
0.087587856 0.020733498 1.0218205 6451580
0.094508819 0.019698918 1.0206372 6516347
-0.060799215 0.024995677 1.0179856 6254982
-0.057357851 0.029528141 1.0239689 6648965
-0.041319035 0.028597936 1.0171082 5270660
0.062054515 0.032743365 1.0209093 5662844
0.06794817 0.031497881 1.0210698 5794679
0.076614618 0.028873712 1.0200665 5926261
0.084833972 0.025448218 1.0231678 6253428
-0.05127183 0.034319177 1.0187203 7043204
-0.042196635 0.035177544 1.0192022 6188928
-0.031886987 0.038488135 1.0201867 5991293
-0.022164881 0.040836006 1.0203425 5794427
-0.012372955 0.040992409 1.0196207 5597052
-0.0041552009 0.04070738 1.0184903 5399930
0.0052021397 0.041224793 1.0173613 5203324
0.015916787 0.041439831 1.0174464 5269365
0.028602978 0.04174459 1.0185468 5334394
0.03778236 0.040946394 1.0206298 5466234
0.044363026 0.039271429 1.0215335 5597049
0.061995931 0.03567405 1.0208796 5991033
0.066599004 0.03572619 1.0232025 6055795
-0.020240694 0.042819157 1.0201384 6056827
-0.01128194 0.044162244 1.0236983 5859449
-0.0029019946 0.044467881 1.0226634 5728377
0.006263257 0.044119954 1.0243417 5532027
0.016922321 0.043773219 1.0244319 5532021
-0.098205596 -0.0036432669 1.0269672 7306630
-0.096258081 -0.0026202351 1.0269728 7438985
-0.079156645 0.015592203 1.032931 7044228
-0.075210012 0.015592434 1.0299629 6255491
0.089688018 0.023250736 1.0282297 6187632
0.095087886 0.023851089 1.0282677 6119529
-0.061057378 0.028195344 1.0269523 6780808
0.057515215 0.032936573 1.027871 5465215
0.08125668 0.02834364 1.0331106 6056820
0.087392509 0.027751081 1.0314664 5988198
-0.048829418 0.036705986 1.0269669 7108737
-0.042548597 0.03975147 1.030288 7108222
-0.034154363 0.040936351 1.0270443 6582396
0.048775885 0.039925218 1.0299802 5859705
0.054177113 0.038166538 1.0287917 5728122
-0.029718112 0.044440135 1.0295458 6713719
-0.023332648 0.04550001 1.0309873 6450807
-0.015111939 0.045870587 1.0294005 6122104
-0.0033000996 0.047093034 1.0294845 6122617
0.0090120919 0.047858566 1.0299939 6057083
0.01533482 0.047839344 1.0309789 6057334
-0.084162243 0.014294632 1.0359035 7832202
0.080818273 0.031784773 1.0370731 5792617
0.08379472 0.031844512 1.0370967 5724767
-0.041493807 0.043225393 1.0359625 7764863
-0.02173014 0.047592178 1.03608 6384242
-0.012800795 0.047771394 1.0361509 6121843
0.1631722 -0.075985253 1.0578207 13950701
0.16620292 -0.075924426 1.0578448 13160147
0.16513209 -0.072914034 1.057806 13423577
0.16438837 -0.085572287 1.0649267 12898285
0.1684006 -0.086475074 1.0644684 12832198
0.16283715 -0.079662435 1.0629978 10136266
0.16961046 -0.080003917 1.0631636 13159885
0.16305092 -0.073360458 1.064294 12175571
0.16840093 -0.072224393 1.0608259 13093836
-0.14027818 -0.11189377 1.0745082 1720740
-0.14118519 -0.10501712 1.0742204 3628972
-0.14235228 -0.098864518 1.0755614 4745397
0.16368799 -0.087278225 1.0739388 6256041
0.16828522 -0.089867003 1.0742021 12767188
0.16174011 -0.078211866 1.0758327 7312841
-0.13780904 -0.13593945 1.0859691 2903988
-0.13469262 -0.13587692 1.0859939 1324707
-0.13950445 -0.12394737 1.0850856 2904505
-0.13835503 -0.11517659 1.0836574 2644141
0.16402659 -0.10701915 1.0881397 5801403
0.16846576 -0.10727645 1.0881784 11779799
-0.13824961 -0.10409676 1.0816475 3039906
0.16300996 -0.097950868 1.0870409 3630254
0.16925094 -0.098651901 1.0865104 11516624
0.17632614 -0.09845867 1.0881546 13685195
-0.14094797 -0.0951588 1.0839002 2708908
0.16262962 -0.089497373 1.0860784 3762605
0.16746818 -0.093202233 1.0850296 10465738
0.16268563 -0.082725137 1.0818859 6721740
-0.13897187 -0.077767394 1.0853794 1588628
-0.13585545 -0.077704847 1.0854042 3826867
-0.1309981 -0.151109 1.0921763 3694011
-0.13608639 -0.14469993 1.0900707 7178192
-0.13086358 -0.14433174 1.0912637 2114980
-0.13652419 -0.13323557 1.0899528 1063065
-0.13199562 -0.13595599 1.090917 2447769
-0.13620608 -0.12566735 1.08988 2578847
-0.13373786 -0.12514234 1.092895 2907546
0.16398363 -0.11796924 1.093749 6851775
0.16957262 -0.1174071 1.0922887 13029078
-0.13572477 -0.11555642 1.0905331 3104917
-0.13398863 -0.11259691 1.092768 3170462
0.1623759 -0.10720798 1.0936285 3040417
0.17217323 -0.11035181 1.0922396 13422807
0.17503005 -0.10716543 1.092231 13619661
-0.13806166 -0.10307859 1.0903896 3104162
0.1609799 -0.099028081 1.0928926 2973607
-0.13756453 -0.094739594 1.0905604 3169952
0.16117585 -0.08889316 1.0949363 2843043
-0.13954915 -0.085108809 1.089606 3301299
-0.12571807 -0.16280916 1.1023369 4750553
-0.12204661 -0.1649414 1.1043882 1196192
-0.12785181 -0.1556181 1.0990475 3036848
-0.12395073 -0.15776125 1.1043012 1789334
0.16006976 -0.14804664 1.104018 12898004
-0.12703112 -0.14469132 1.1003675 2776475
0.160395 -0.13895072 1.1028298 9087435
0.16613857 -0.13422839 1.0994291 13488846
-0.12949084 -0.13400306 1.1000186 3038106
0.16004381 -0.12831596 1.1017207 4354994
0.1678679 -0.12621611 1.0993633 13752800
-0.13157022 -0.12431936 1.1013497 2973083
0.15981331 -0.11853805 1.102529 2121388
-0.13664113 -0.1109141 1.0967298 3301280
-0.1331906 -0.11576058 1.100443 3039132
0.16039792 -0.11048519 1.1003124 2646946
0.17650548 -0.10489602 1.1022213 13817039
-0.13676699 -0.10461853 1.096666 3366820
-0.13425328 -0.10498413 1.1016905 3105183
0.15849645 -0.098237477 1.1037083 3631271
0.17751554 -0.10277068 1.1022083 13817037
-0.1369907 -0.093426429 1.0965525 3499424
-0.13430993 -0.094353557 1.100384 3302563
0.15796331 -0.0880026 1.1028429 3369127
-0.13446082 -0.084856197 1.099988 3434147
0.15967877 -0.07837227 1.1037289 2908578
0.16539524 -0.075647928 1.1018391 8233160
-0.13929497 -0.073824659 1.0971954 3365295
-0.13397521 -0.074899435 1.1002388 3499689
0.16028118 -0.068783246 1.103376 4024485
0.165227 -0.067230992 1.1017537 11192030
-0.13795637 -0.064895563 1.0992603 2181536
-0.13274251 -0.064636819 1.1005003 3433908
0.15938127 -0.063341461 1.1056677 2708114
-0.13653648 -0.056604326 1.1031896 8233201
-0.1326741 -0.057663262 1.1015172 3564980
0.0063445345 0.11813508 1.0986102 9935247
0.012038103 0.11915149 1.0986464 9934992
-0.11632127 -0.17365281 1.1132149 929696
-0.1121498 -0.17389914 1.1155591 1984411
0.15010382 -0.16436844 1.1176007 13424882
-0.11750599 -0.16413535 1.1108177 2512540
-0.11287301 -0.16590819 1.11414 2906513
0.15132883 -0.15844455 1.1151069 8955594
0.15698488 -0.1570234 1.111583 14080986
-0.12494444 -0.15019289 1.1112181 2381461
-0.12174372 -0.1552912 1.1132327 2776212
0.15136656 -0.14885372 1.1137758 3697834
-0.12551644 -0.14427376 1.1119878 2841752
-0.12332558 -0.14851961 1.1152149 2906774
0.15301824 -0.13889728 1.1141701 2646183
-0.12762448 -0.13374239 1.1128894 2907034
-0.12353874 -0.13785562 1.1151068 2775704
0.15341167 -0.1301422 1.115186 3696546
0.15537971 -0.12557139 1.1145898 3761571
-0.12882048 -0.12432747 1.1113729 2973083
0.15694158 -0.11944556 1.1138747 3368880
-0.13011403 -0.114149 1.1107165 3039134
0.15700911 -0.10783803 1.1133654 3500454
-0.13049755 -0.10370826 1.1103091 3171232
0.15576091 -0.099412814 1.1142843 3631529
-0.13122427 -0.09495949 1.1095159 3302564
0.15408236 -0.089094914 1.1098816 3697839
0.15448 -0.089307986 1.1128873 3763633
-0.13153467 -0.08440116 1.110208 3368355
0.15482324 -0.078046799 1.112492 3436468
0.16905916 -0.074133158 1.1128547 10992842
-0.12940416 -0.073939316 1.1101211 3697068
0.15238702 -0.065107718 1.1166291 3765679
0.15567654 -0.067590833 1.1118622 3830452
0.16862001 -0.069889903 1.1128088 11387079
-0.12844357 -0.066165365 1.1078511 3631022
-0.12632798 -0.06291797 1.107336 3500456
0.1516363 -0.05823442 1.1136653 3830449
0.15838146 -0.05861761 1.1112444 5207985
0.16488871 -0.059457447 1.1153412 10334913
-0.12893839 -0.05412868 1.1097987 3434161
0.15059997 -0.049325176 1.113314 3893939
0.15770923 -0.049674563 1.1125737 8428221
-0.12942365 -0.04407065 1.1132661 6194370
-0.12492406 -0.041869022 1.114138 4421311
0.14820737 -0.037524734 1.1152289 5734064
0.15457346 -0.041060239 1.116407 10203587
-0.12372426 -0.035177272 1.114081 6852289
0.14662139 -0.031655401 1.1130482 8955077
0.013690467 0.095333129 1.1138988 9737616
-0.085113741 -0.20966864 1.1244702 7635861
-0.081741631 -0.21006668 1.1271685 8100012
-0.095590346 -0.19993068 1.1269547 10535920
-0.088491648 -0.20248917 1.1246848 5996227
-0.081813388 -0.20647711 1.1271322 6394567
-0.1057529 -0.18917885 1.1187639 8431615
-0.098728694 -0.19145414 1.1216134 1526185
-0.092532314 -0.19368173 1.1257743 1262491
0.13109551 -0.18640357 1.1286665 11717846
-0.11447809 -0.1807965 1.1186092 7571711
-0.10746292 -0.18290937 1.1202432 1917611
-0.10046669 -0.1852521 1.1241016 2379673
-0.093673356 -0.18804187 1.1268517 2644619
0.13254786 -0.17950019 1.1286095 5010097
0.13981727 -0.17642084 1.125495 10599906
0.1469017 -0.17507666 1.1246821 14081762
-0.10772634 -0.17405573 1.1228079 2709143
0.13337871 -0.16888148 1.1285104 2909858
0.1400495 -0.16831113 1.1247406 4026283
0.14767951 -0.16838768 1.1211213 12307424
-0.11488419 -0.16048065 1.1184032 2775446
-0.11044167 -0.1645764 1.1213896 2775442
0.14111483 -0.15933239 1.1254779 3105445
0.14608295 -0.15845209 1.1205091 2578854
-0.11707783 -0.15330227 1.1204678 2775449
-0.11285069 -0.15557788 1.1250381 2906778
0.14323734 -0.14947346 1.126797 3564451
0.14660311 -0.14846841 1.1228141 3433893
-0.12111288 -0.14469217 1.1214894 2840984
0.14455715 -0.14124572 1.1283257 3565217
0.1483395 -0.13910672 1.1230015 3499430
-0.12613267 -0.13289461 1.1180364 2841497
-0.12316328 -0.13455255 1.1240777 2907290
0.15038401 -0.12841775 1.125245 3237547
-0.12651446 -0.12342807 1.119539 2973083
-0.12380815 -0.12381151 1.1239653 3038877
0.15327284 -0.11866014 1.1263531 3827369
0.15596351 -0.11760579 1.1201822 3564710
-0.12778167 -0.11347011 1.1206867 3039391
-0.12513472 -0.11529294 1.1245363 3170977
0.15334149 -0.10857052 1.1260712 3565735
0.15579252 -0.10905176 1.1200955 3500198
-0.12808906 -0.10526118 1.1227453 3170977
0.15343423 -0.099555343 1.1253153 3631790
0.15452962 -0.10118531 1.1280074 3434923
-0.12844679 -0.094723351 1.1216371 3302823
0.15286787 -0.088110603 1.1253632 3566513
-0.1286048 -0.084736735 1.1202028 3368614
0.15177782 -0.078874141 1.1253008 3632560
-0.12826601 -0.07700897 1.1214619 3565995
0.1503868 -0.068744838 1.1239164 3895728
-0.12564495 -0.06188884 1.1229327 3697842
0.14786161 -0.058851182 1.1223304 4158132
-0.12413914 -0.05356567 1.1216254 3502262
0.14650786 -0.04819601 1.1234132 4027837
-0.12167939 -0.044006106 1.1209642 3698611
0.14139225 -0.036810704 1.1272582 4619197
0.14730403 -0.039848451 1.1217978 4946612
-0.12803493 -0.037730888 1.1170716 7180220
-0.12056727 -0.034509294 1.124301 4815032
0.14118308 -0.030338787 1.1265253 5209534
0.14593163 -0.0285649 1.1192123 8425655
0.014864334 0.091359839 1.1169482 9474444
-0.058072302 -0.21938719 1.134455 8300241
-0.076418467 -0.21159597 1.1305912 7642055
-0.068931244 -0.21208155 1.1327934 4815810
-0.062116709 -0.21538024 1.134382 5210825
-0.085790865 -0.1998722 1.1300342 932767
-0.078767352 -0.20315869 1.1318085 2382238
-0.070108928 -0.20600168 1.1342233 2251168
0.11330844 -0.19906859 1.1356485 6518691
0.11913586 -0.19793984 1.134256 11319227
-0.087668143 -0.19314834 1.1318187 2447513
-0.082222976 -0.19648905 1.1340297 2513045
0.12081232 -0.18967864 1.1345633 4617903
0.12787944 -0.18958294 1.1316724 10929103
-0.097340316 -0.18231793 1.1312196 2971544
-0.091358542 -0.18595815 1.1318501 2774929
0.12270431 -0.18037763 1.1338718 2909086
0.12760951 -0.1793541 1.1315681 3105187
-0.10512522 -0.16929558 1.1295717 2709911
-0.1004227 -0.17423785 1.1320124 2644371
0.12892663 -0.16950433 1.1320961 3368356
-0.10760278 -0.16271082 1.131304 2775444
-0.10255861 -0.16672523 1.1322337 2709910
0.13314036 -0.15954198 1.1330156 3368613
0.1373 -0.15650894 1.1314192 3499683
-0.11098436 -0.15421046 1.1308736 2841497
0.1347706 -0.15202704 1.1353542 3237027
0.1394666 -0.14924991 1.1326978 3302821
-0.11713821 -0.14275083 1.1297804 2645144
-0.11364 -0.14438143 1.1323651 2775964
0.14238027 -0.13924704 1.1334703 3237542
0.1464031 -0.1355947 1.1326181 3106215
-0.11914358 -0.13438186 1.1305639 2907291
0.14355859 -0.12966466 1.1338692 3499683
0.14663276 -0.12763745 1.1323501 3303338
-0.12033495 -0.1244688 1.1314007 3039134
0.14807531 -0.11911312 1.1325458 3499947
-0.12574776 -0.11030058 1.1288152 3236770
-0.12353032 -0.11451308 1.1322088 3236770
0.14959325 -0.10856944 1.1328595 3500458
-0.12587725 -0.1038222 1.1287495 3237027
-0.12417728 -0.10410948 1.1327665 3302821
0.15174483 -0.097971067 1.1332388 3632048
-0.1260715 -0.09410464 1.1286509 3302824
-0.12436139 -0.094899416 1.1326731 3302569
0.14984064 -0.089119948 1.1330311 3632047
-0.12668471 -0.085043587 1.1285555 3434408
-0.12398822 -0.082581103 1.1325532 3434665
0.14623074 -0.078147508 1.1325285 4026292
-0.12646 -0.074669525 1.128454 3631531
-0.12478375 -0.073770441 1.1324589 3631531
0.14618938 -0.070182733 1.1310749 4157366
-0.12658949 -0.068191156 1.1283883 4025255
-0.12356073 -0.062983699 1.1306468 3632304
0.14542079 -0.058411267 1.1305068 4289211
-0.12027594 -0.053930104 1.1300118 3568048
0.14204472 -0.047702391 1.1310391 4094399
0.14445239 -0.052028514 1.1324353 4224702
-0.11907422 -0.047877293 1.1282468 3764911
-0.11574114 -0.043469645 1.1307302 3895729
0.13931386 -0.039326597 1.1317213 4487616
-0.1206745 -0.029770568 1.1310534 6458567
-0.11565954 -0.033449337 1.130531 3895996
0.13903159 -0.028303869 1.1305544 5735616
0.14583147 -0.024917997 1.1301761 9477559
-0.12029731 -0.027069598 1.1320295 6852289
-0.11704665 -0.027004354 1.1320554 5933254
0.047640283 0.077887028 1.1283506 9474701
-0.021205407 -0.22897837 1.146852 7248329
0.011673268 -0.22991847 1.1463292 5801654
0.019676287 -0.22863367 1.1458482 5210039
0.032470655 -0.22899649 1.1472895 6328255
0.040135533 -0.22884266 1.1473504 7379645
0.05169126 -0.22848903 1.147441 8430007
0.059638076 -0.22659625 1.1434865 8625323
-0.059200462 -0.22169508 1.1384692 9678537
-0.048430432 -0.22141457 1.1450809 4422071
-0.039092973 -0.22188862 1.1466355 2778029
-0.029295709 -0.22350721 1.1467316 2513574
-0.021628767 -0.22606577 1.1468196 2315684
0.0083153602 -0.22619505 1.1470648 2120102
0.020360174 -0.22595331 1.1471605 2185635
0.033478085 -0.22459465 1.1472539 2186146
0.038974885 -0.22557972 1.1473085 2316696
0.054260876 -0.22308211 1.147408 4486314
0.061828148 -0.22255553 1.1454643 5997746
0.072908998 -0.21936439 1.1463799 6063288
0.081539147 -0.21771488 1.1475768 6589614
0.089646392 -0.21777126 1.1476433 8757678
-0.064876385 -0.2098434 1.1383047 1855898
-0.058132466 -0.21218434 1.1416214 2249885
-0.050437313 -0.21429947 1.1457402 2381985
-0.042272735 -0.21625634 1.1465535 3039902
0.075405113 -0.21225145 1.1474723 2841504
0.08141657 -0.21158311 1.1475146 3302564
0.090946786 -0.20914946 1.1462345 4420011
0.10076695 -0.2081635 1.1419233 6984117
0.11016777 -0.20524248 1.1396849 6254993
-0.076237582 -0.19954172 1.1389095 2710418
-0.068476796 -0.20261419 1.1425846 2775447
-0.061733019 -0.20467988 1.1454794 2906776
0.093229063 -0.20119998 1.1471072 3171492
0.1017337 -0.19968376 1.1443611 3237285
0.11007923 -0.19834465 1.1401869 3629215
-0.079295985 -0.19261256 1.1428157 2775191
-0.07111185 -0.19591495 1.1454489 2906012
0.10349449 -0.19042616 1.1458166 3040421
0.11043108 -0.188638 1.142469 3105703
0.11636593 -0.18880135 1.1395714 2777257
-0.09486559 -0.17889959 1.1377517 2710677
-0.088051431 -0.18261243 1.141374 2709909
-0.081782974 -0.18607065 1.1439303 2709910
0.11138608 -0.18020195 1.1459719 3368100
0.11896642 -0.17825903 1.1416209 3302561
-0.096249782 -0.17235051 1.1407864 2710421
-0.0914419 -0.17506513 1.1449419 2644886
0.11327662 -0.17238551 1.1473832 3040936
0.12127319 -0.16914675 1.1453289 3237031
0.12764266 -0.16614696 1.1424375 3368615
-0.10613048 -0.1595456 1.1374669 2776209
-0.10064875 -0.16386953 1.142305 2841240
0.12311894 -0.16060105 1.1473458 3237287
0.12957169 -0.15829682 1.1422321 3302822
-0.10730077 -0.15286969 1.1419244 2710683
-0.10256299 -0.15603915 1.1447949 2841499
0.13164507 -0.14981075 1.1447191 3237541
0.13659312 -0.14703467 1.1409197 3237798
-0.1096051 -0.14435275 1.1424303 2907293
0.1331334 -0.1409871 1.1472317 3237797
0.13785623 -0.13839927 1.142244 3303334
-0.11611312 -0.13282473 1.1382619 2907805
-0.11393129 -0.13435604 1.1443527 2907805
0.13948853 -0.12897597 1.144719 3434407
-0.11681051 -0.12351456 1.1396873 3039392
-0.1142121 -0.12459096 1.145053 3039391
0.14124161 -0.11936788 1.1445105 3500202
0.14537767 -0.11642545 1.1390858 3631274
-0.12015801 -0.11439379 1.1414359 3170979
0.14297076 -0.10904263 1.1465487 3631791
0.14639823 -0.10846344 1.1407926 3566510
-0.12077851 -0.10404268 1.1425086 3105957
0.14193641 -0.097959928 1.1452074 3632305
0.14724508 -0.099011198 1.1392606 3501227
-0.12134168 -0.094049796 1.1401185 3237546
0.14130488 -0.088908888 1.1442331 3698099
0.14597005 -0.089246206 1.1392195 3698094
-0.12091539 -0.084289059 1.1402627 3434923
0.14235123 -0.079606988 1.1446943 3895479
0.14468212 -0.081630386 1.138733 3895477
-0.12075049 -0.073820494 1.1407787 3566256
0.14237331 -0.068288639 1.1459152 4027579
0.14488237 -0.067696109 1.142596 4157882
-0.11992783 -0.064900339 1.13994 3567024
0.14014754 -0.058799159 1.1452925 4159422
0.1445151 -0.058903147 1.1409051 4289724
-0.1177923 -0.055041209 1.1376629 3567791
-0.1147716 -0.052992254 1.1430008 3764403
0.1382497 -0.048813242 1.143687 4356797
-0.11315946 -0.044084754 1.1368294 3830196
0.13540366 -0.039295528 1.1426355 4619718
-0.11192364 -0.033133045 1.139068 3896507
0.13107203 -0.02748286 1.1429713 4817095
0.13563645 -0.028001256 1.1397911 4948420
-0.11972255 -0.024103381 1.1400054 6916535
-0.1122219 -0.024486333 1.1397626 5210049
0.13008073 -0.021089077 1.1450108 5013440
0.1345513 -0.020605803 1.1427088 5998788
0.028332032 0.050913885 1.1393204 5859448
0.036541525 0.051137224 1.1375277 6122362
0.04207322 0.051407248 1.1405703 6319482
0.053125117 0.052936479 1.1446455 5330522
0.028837383 0.055356488 1.1377562 5792108
0.036648788 0.056353182 1.1372765 5527648
0.041985974 0.055771858 1.1405261 5067354
-0.015487514 -0.22880571 1.1498971 4354997
-0.0081253955 -0.22966531 1.1519659 4684224
0.0017760769 -0.22918706 1.1505749 4289976
0.012711294 -0.22667079 1.1501055 2054307
0.02315174 -0.22701038 1.1501939 2777510
0.028662883 -0.22799805 1.1502486 4026798
0.045130469 -0.22766754 1.1503795 5604271
0.048939992 -0.22594368 1.1503934 4881326
-0.034671359 -0.21883568 1.1496413 3039902
-0.02670918 -0.2195888 1.1502137 2710943
-0.018226843 -0.22129948 1.1531045 2645152
-0.0083210384 -0.2239252 1.156574 2514339
0.0016204435 -0.22362743 1.1561186 2514851
0.011498835 -0.2209387 1.1546389 2842787
0.021391815 -0.22033867 1.1525133 2908579
0.031049404 -0.21974489 1.153075 3039651
0.041246593 -0.22023213 1.1542741 2908578
0.050579492 -0.21917534 1.1540896 2778020
0.060595173 -0.21733609 1.1518313 2646433
0.070234478 -0.21984197 1.150506 5012145
0.081787392 -0.22089139 1.1506106 8955830
-0.047870614 -0.21067713 1.1497382 2841242
-0.038004868 -0.21253148 1.1518848 2775960
-0.028988317 -0.21360637 1.1539025 2841500
-0.019569445 -0.21555199 1.1577322 2907551
0.012105584 -0.21417902 1.1579766 3105184
0.021310359 -0.21362567 1.1580461 3170722
0.03125947 -0.21342599 1.1581252 3302053
0.041381773 -0.21266991 1.1582001 3170723
0.051865201 -0.21153793 1.1582742 3105188
0.061193511 -0.21057445 1.1566262 3170467
0.070825882 -0.21021086 1.152815 3236258
0.080916531 -0.20658539 1.1509054 3171236
-0.064708032 -0.19966984 1.1492054 2906776
-0.058143299 -0.20176315 1.1504228 2907033
-0.049705412 -0.20254165 1.1541901 2841497
-0.040396146 -0.20638569 1.1574712 2775704
0.062057573 -0.20506671 1.1582927 3105443
0.07090123 -0.20488921 1.158363 3105443
0.081629843 -0.20096828 1.157148 3105956
0.089966163 -0.19796544 1.1536489 3105956
-0.075905874 -0.18891196 1.1490068 2644884
-0.068791136 -0.19230771 1.152099 2775705
-0.060385969 -0.19498497 1.1548611 2841497
0.085051201 -0.19354641 1.1583651 3172006
0.092668042 -0.19102111 1.1574019 3040421
0.098503418 -0.18857908 1.1549249 2974628
-0.084864147 -0.18030567 1.1488481 2645144
-0.078212269 -0.18190974 1.1519773 2710425
-0.072868064 -0.18450905 1.1535596 2776216
0.10179565 -0.17986928 1.1551149 3171493
0.10675479 -0.1775707 1.1519821 3237026
-0.08808364 -0.17232528 1.1513307 2710424
-0.081703581 -0.17436689 1.1553606 2710937
0.10455167 -0.17324921 1.1583215 3302823
0.11082581 -0.16906938 1.1551728 3172005
0.11656464 -0.16582155 1.154345 3172006
-0.096962124 -0.1611459 1.1485584 2841498
-0.092557818 -0.16352853 1.1535416 2907290
0.11317436 -0.16201735 1.1582798 3303592
0.11936464 -0.15852389 1.1569619 3237544
0.12548213 -0.15411885 1.1503005 3303337
-0.098909922 -0.15270875 1.1501728 2973342
-0.094308697 -0.15567566 1.1565261 3038879
0.12283505 -0.15068251 1.1575787 3237544
0.12717146 -0.14761159 1.1530496 3303336
-0.10715918 -0.14132662 1.1492777 2973342
-0.10106842 -0.14432389 1.1538576 2973600
0.13038799 -0.13840786 1.1541841 3368872
-0.10890535 -0.13348375 1.1505383 3039392
-0.10350745 -0.13413765 1.1562363 3236259
0.13148575 -0.12892643 1.1558486 3500460
0.1359119 -0.12645303 1.1501095 3434923
-0.11020233 -0.1238599 1.1509677 3170978
0.13234146 -0.11996946 1.1566831 3500719
0.1370123 -0.11740866 1.1533619 3500718
-0.11696423 -0.11285782 1.1479137 3237029
-0.11317382 -0.1140916 1.1539575 3237286
0.1371505 -0.10851943 1.1560465 3697329
-0.11713979 -0.10407526 1.1478246 3237543
-0.11465112 -0.10351398 1.15534 3172263
0.13819054 -0.099390857 1.1554587 3697843
-0.11765959 -0.0944167 1.1507244 3303340
-0.11564703 -0.093253069 1.1557295 3303852
0.13775283 -0.088948213 1.155751 3764149
-0.11789344 -0.084687792 1.1476252 3500716
-0.11526897 -0.083187237 1.1556323 3501229
0.14049669 -0.078469254 1.1542401 3764661
-0.11768841 -0.076629773 1.1475464 3566512
-0.11462184 -0.073101401 1.1519003 3632306
0.1373125 -0.068324104 1.1540121 3896764
-0.11421251 -0.06347096 1.1518075 3698357
0.13111041 -0.058384288 1.1560587 4291265
0.1350117 -0.059530962 1.1505777 4225217
-0.11277886 -0.054436672 1.1513654 3764408
0.13170627 -0.048774477 1.155301 4554434
0.13435383 -0.048507847 1.1493193 4488640
-0.11004439 -0.043659739 1.1520803 3895997
-0.10601422 -0.04034612 1.1552804 4027323
0.13110708 -0.03799716 1.1541885 4817354
-0.10866389 -0.034131758 1.1485295 3962044
-0.10476024 -0.0327885 1.154415 4093118
0.12151099 -0.025826782 1.1569891 5014224
0.12699081 -0.028489999 1.1530601 4751563
-0.10776336 -0.02371411 1.1470995 4290235
-0.10292222 -0.023442768 1.15167 4158908
-0.096816614 -0.020992935 1.1551622 4028609
0.11972129 -0.018841237 1.1551269 4817874
0.12644073 -0.018474363 1.1499554 5145287
-0.10065412 -0.016769879 1.1494883 4487616
-0.095362924 -0.013956867 1.1537704 4356800
0.11062087 -0.0065093637 1.1547076 5276623
0.11705146 -0.0094303563 1.1510745 5604813
0.12648909 -0.010472633 1.1497649 6720449
-0.093411647 -0.0069167838 1.1550496 5671109
0.10863914 -0.00096835941 1.1560649 5802961
0.11505394 -0.0016501844 1.1520283 6787017
0.032256864 0.013299465 1.1558716 12972031
-0.023165416 0.022081673 1.1533324 5869264
0.0092855431 0.019105084 1.1556267 7515376
0.016785448 0.018886968 1.15569 8764660
0.026399482 0.01863759 1.1557707 10146554
0.033052839 0.017738953 1.1558338 10870005
-0.08099746 0.029173464 1.1467899 8028800
-0.075881518 0.029642224 1.146827 7305855
-0.018815115 0.023333251 1.1553555 5671370
-0.015498743 0.023399808 1.1553819 5869265
0.0077158469 0.02386573 1.1555663 6988787
0.012137674 0.023954473 1.1556015 7185904
0.09818653 0.034528509 1.1561971 6314850
-0.074761666 0.034667879 1.146786 8028802
0.095020533 0.038003787 1.1561366 6117979
0.070921734 0.0479642 1.1478403 5593178
0.07311742 0.048008278 1.1478577 5658970
-0.014068802 -0.21836722 1.1618056 2973083
-0.0085003013 -0.21936515 1.1618609 2973595
0.0009125229 -0.21873909 1.162598 2973598
-0.034257311 -0.20767549 1.1615344 2842012
-0.027851317 -0.20893405 1.1615992 2776219
-0.018475007 -0.21121129 1.1632222 2907806
-0.0088678887 -0.21238142 1.1649463 2907807
0.0016974416 -0.21270825 1.1652111 2973599
0.01055098 -0.21021789 1.1625916 3039136
0.02126707 -0.20900577 1.1633335 3170723
0.031246521 -0.20869285 1.162745 3236770
0.041039608 -0.20804223 1.1621516 3170979
0.050080121 -0.20764738 1.1622213 3170980
0.056702454 -0.20584995 1.1622573 3171236
-0.045527346 -0.19902416 1.1613563 2842012
-0.038786307 -0.20114008 1.162887 2842011
-0.029137265 -0.20319548 1.1639931 2842012
-0.020834606 -0.20446298 1.165612 2907805
0.025664039 -0.20492162 1.1659955 3302309
0.031661078 -0.20365596 1.1648887 3302308
0.040321406 -0.20337474 1.1635993 3171236
0.051111784 -0.20374276 1.1621907 3171236
0.061694469 -0.20213978 1.1639278 3105443
0.071481928 -0.20002699 1.1633197 3171492
0.078000426 -0.19802454 1.1623528 3040420
-0.066825122 -0.18835472 1.1610764 2841497
-0.058000255 -0.19092181 1.1617073 2907291
-0.049521696 -0.19338915 1.1631501 2907549
-0.042841822 -0.19441919 1.1653326 2907551
0.074416794 -0.19280815 1.1662718 3040420
0.081410646 -0.19084522 1.1644143 3106213
0.089195237 -0.18810858 1.1623451 3106214
-0.068474278 -0.18187976 1.1629984 2907290
-0.061843332 -0.18461132 1.1645799 2973340
0.08536955 -0.18368033 1.16627 3302823
0.091385752 -0.1811986 1.1638941 3237030
0.097454891 -0.17766768 1.1640861 3237031
-0.086081751 -0.16876677 1.160724 2841497
-0.077621184 -0.17207181 1.1613593 2842012
-0.071477957 -0.17416005 1.163897 2907547
0.10249255 -0.16988951 1.1631948 3368361
0.10751833 -0.16654575 1.1622792 3237285
-0.087679029 -0.16288048 1.1606524 2973085
-0.080917493 -0.16294189 1.1634451 3039135
0.10466755 -0.16271904 1.1622179 3368615
0.11111823 -0.15925133 1.1629632 3237799
0.11562717 -0.15584096 1.1622385 3303337
-0.095332824 -0.1500877 1.1604624 2973857
-0.089847125 -0.15349241 1.1620967 3039137
-0.083917513 -0.15422966 1.164597 3104930
0.11294664 -0.15170051 1.1641755 3172264
0.11912131 -0.14869909 1.1628624 3238059
-0.096696034 -0.14190131 1.1613697 3039650
-0.092668414 -0.14538592 1.1644375 3105700
0.12215256 -0.13887802 1.1642765 3369132
0.12638722 -0.13897964 1.162158 3434410
-0.099628665 -0.13338844 1.1619753 3171236
0.12387303 -0.13070937 1.1652552 3500719
0.12720832 -0.12835011 1.1640588 3435183
-0.10700198 -0.12146994 1.1600819 3302823
-0.10233393 -0.12332914 1.1628053 3171495
0.12776981 -0.11824161 1.1637807 3566514
-0.10893283 -0.11285725 1.1614349 3368873
-0.10524499 -0.11394227 1.1632214 3368875
0.13030948 -0.10900636 1.162691 3697588
-0.11002778 -0.10379924 1.1625478 3303850
0.13166355 -0.099351294 1.1652344 3763892
0.13490237 -0.098637961 1.1618249 3698099
-0.11156645 -0.093633659 1.1613672 3435181
-0.10572197 -0.093981497 1.1638184 3435438
0.13247587 -0.089200877 1.1657113 3829942
0.13533431 -0.088623554 1.1628715 3764149
-0.11072718 -0.083937846 1.1616772 3501229
0.13220887 -0.075844228 1.1655759 3896505
0.13667925 -0.078659661 1.1634585 3830455
-0.11032235 -0.07407175 1.1611205 3632563
-0.10618921 -0.070607372 1.1635814 3567542
0.12972799 -0.068760373 1.1629134 4027837
0.13504022 -0.072224565 1.1615626 3896505
-0.10976285 -0.064002365 1.1608195 3829940
-0.1063227 -0.063929044 1.1635137 3699127
0.12802452 -0.05916683 1.164042 4291009
-0.10954268 -0.05386059 1.1601868 3895737
-0.10590596 -0.05294475 1.1634076 4027576
0.12812543 -0.049131006 1.1632761 4422849
-0.10848758 -0.047150519 1.1593285 4158911
-0.10409104 -0.043342214 1.1613264 4093372
0.12787858 -0.039395049 1.1626768 4817355
-0.10052747 -0.033874743 1.1607994 4093630
-0.095859438 -0.030314043 1.1632637 4094397
0.12020674 -0.028792128 1.1632309 5080014
0.12480215 -0.031926341 1.1610771 4883149
-0.098548345 -0.026236817 1.1592008 4028348
-0.094106831 -0.02357462 1.1607106 4028864
0.11552639 -0.019245312 1.1626531 4949202
-0.090739146 -0.013909481 1.1609597 4029123
-0.086583614 -0.011569545 1.1631522 3963586
0.10923815 -0.0094960406 1.1633935 5146069
0.11278901 -0.013857558 1.1607991 5080276
-0.090073325 -0.0060922876 1.1590689 5342665
-0.083027981 -0.0037607774 1.1631033 4882633
-0.019658063 0.0012798235 1.1635693 6070261
-0.012979616 0.0014138594 1.1636224 6528744
-0.006301173 0.0015478954 1.1636754 8827627
0.0092818625 0.0018606484 1.1637993 10340848
0.018040158 0.0014001429 1.1638752 8895736
0.025559442 0.00085114688 1.163942 6266608
0.099927165 0.003113009 1.1635252 5475287
0.10449206 -0.00033073872 1.16193 5475028
-0.079658896 0.0022785291 1.1610703 5999306
-0.073021665 0.003521435 1.1611121 5540557
-0.064516306 0.0070207939 1.1604797 5803727
-0.051857952 0.0090466961 1.1632295 4950220
-0.042874686 0.008102268 1.1633121 5016280
-0.033135589 0.007682465 1.1629956 5411294
-0.0230744 0.0078521892 1.1612358 5806569
-0.013101281 0.0080817714 1.1629548 7120874
-0.0035343086 0.0090267658 1.1636233 12379901
0.0070893364 0.0086900145 1.1611868 13891069
0.016913353 0.0086416602 1.1605936 12969723
0.026854578 0.0090872273 1.1615545 9946095
0.036925863 0.0090618283 1.1620395 10013177
0.046624884 0.011134915 1.161857 7449069
0.053226143 0.013135277 1.1640449 5411552
0.096951388 0.0069277138 1.1619629 6526426
-0.049978044 0.01403331 1.163195 6264275
-0.042380512 0.014964148 1.1607475 5803990
-0.032805417 0.015771285 1.1593174 5345755
-0.022825498 0.017233573 1.1593841 5412839
-0.013252872 0.018023953 1.1599542 5676266
-0.0042177392 0.017307706 1.1623923 7253489
0.0056316527 0.017305024 1.1606153 8436213
0.015662069 0.015264429 1.1597173 12051453
0.029993825 0.019990839 1.1597869 10082302
0.037847418 0.019408673 1.1598567 10607102
0.046347551 0.018733792 1.1599327 7515119
0.05338623 0.018274769 1.1613281 6068200
-0.011137688 0.023604088 1.1594157 6001365
-0.0067006247 0.023693137 1.159451 6396124
0.10566359 0.031718671 1.1602864 6447199
-0.0054986598 -0.20844981 1.1697772 3039391
0.0020195032 -0.20771149 1.1713312 3039135
0.013488348 -0.20806873 1.1699281 3104930
-0.034760863 -0.19786401 1.1694331 2776478
-0.028383832 -0.19861159 1.1714927 2842271
-0.018467795 -0.20003019 1.1737696 2907807
-0.0092094028 -0.20169884 1.1743757 2908063
0.00081546884 -0.20233634 1.1755681 2973600
0.011118755 -0.20115167 1.1751735 3105187
0.02104575 -0.20061052 1.1743294 3236773
0.030727908 -0.19908348 1.1737125 3237029
0.041674621 -0.19894874 1.173867 3171237
0.051362287 -0.19972751 1.1716535 3171236
0.060854658 -0.197983 1.1711365 3105444
0.069678828 -0.19632655 1.1702687 3171493
-0.047156028 -0.18920854 1.172446 2841758
-0.039018113 -0.19134489 1.1733338 2907551
-0.030110262 -0.19224429 1.176239 2842271
-0.019412074 -0.19320658 1.1775124 2908064
-0.012642595 -0.19419566 1.1775774 2973857
0.0087229041 -0.19376686 1.1777472 3105444
0.021572202 -0.19250903 1.1778394 3237030
0.031635456 -0.19273102 1.1771234 3302823
0.041280825 -0.19175714 1.1770693 3171495
0.050616801 -0.19016489 1.1766611 3105703
0.060331911 -0.19023071 1.1765323 3105703
0.070142731 -0.18955472 1.1747053 3105702
0.078447968 -0.18691146 1.1719606 3105958
-0.058574434 -0.18175402 1.1707256 2973598
-0.050581556 -0.18327072 1.1751592 2907551
-0.040670659 -0.18491504 1.1772565 2908065
0.071726173 -0.18108001 1.178134 3237288
0.080550626 -0.18021384 1.1757525 3302823
0.089196563 -0.17802736 1.1728168 3237287
-0.068212397 -0.17066482 1.1717466 3105183
-0.060709793 -0.17385602 1.1751004 2974112
-0.052382212 -0.17586941 1.1770709 2842786
0.08188758 -0.17339961 1.1781402 3171750
0.090454549 -0.16963045 1.1768389 3172008
0.098519705 -0.16775668 1.1725522 3303081
-0.076511644 -0.16116922 1.1693937 3104930
-0.070288599 -0.16330513 1.1754662 3170978
0.09276516 -0.16122489 1.1781073 3303337
0.10052983 -0.15957177 1.1759039 3368873
0.1074704 -0.15815817 1.1727415 3237543
-0.086615503 -0.14856157 1.1711857 3040164
-0.079827763 -0.15217151 1.1724 3105701
-0.073395163 -0.15641737 1.1767056 3302822
0.10190394 -0.15049925 1.1780748 3303597
0.10929291 -0.14796729 1.1737456 3238059
0.11631732 -0.14478409 1.1721346 3303852
-0.08919239 -0.14226626 1.1722132 3106213
-0.081422068 -0.14411049 1.1765175 3172007
0.10997766 -0.13884018 1.1778243 3369387
0.11794084 -0.13847943 1.1740851 3435181
-0.096529149 -0.13219886 1.1696084 3237030
-0.089979045 -0.13269737 1.1740004 3237800
-0.083552912 -0.1359975 1.1764191 3303594
0.11167378 -0.13275427 1.1779773 3500972
0.12002257 -0.12834045 1.174751 3500976
0.12468606 -0.12539065 1.1700093 3500977
-0.097867846 -0.12294875 1.171283 3237545
-0.093204543 -0.12448025 1.1753367 3303852
0.12159353 -0.11875603 1.1779186 3566772
0.12495447 -0.11905996 1.1739485 3566515
-0.10057484 -0.11329036 1.1713036 3369389
0.12225977 -0.10920753 1.1778288 3763639
0.12564388 -0.10825331 1.1729574 3763639
-0.10761914 -0.099611431 1.1691929 3435181
-0.10220048 -0.10315803 1.1725109 3435438
0.12268077 -0.098110475 1.1777215 3895737
0.12770426 -0.097942054 1.1725838 3764149
-0.10725705 -0.093115687 1.1701978 3435438
-0.10190707 -0.093598701 1.1743081 3501231
0.12256838 -0.09248808 1.1776645 3961530
0.12790889 -0.088452153 1.1724908 3961528
0.13505119 -0.084959447 1.1696904 3895735
-0.10716547 -0.08385466 1.1707062 3501489
-0.10292636 -0.083518229 1.17362 3501490
0.12220874 -0.074496403 1.1774821 4159679
0.12805061 -0.07910423 1.172848 3962041
0.13500655 -0.082725734 1.1696677 3895735
-0.10777298 -0.076534465 1.1696281 3501747
-0.10305086 -0.073222019 1.1723005 3567541
0.12133169 -0.068139397 1.1774116 4225473
0.1250671 -0.068607278 1.1734462 4159424
-0.10147131 -0.063047662 1.1711451 3764919
0.12090448 -0.059273519 1.1773196 4422597
0.12486548 -0.058521237 1.173344 4357059
-0.1011727 -0.053269342 1.1708785 3896505
-0.096461259 -0.053011697 1.1754862 3962298
0.12056725 -0.048655942 1.1772109 4685767
0.12466387 -0.0484352 1.1732417 4422851
-0.099879272 -0.044134494 1.1689693 4027836
-0.094944805 -0.042216934 1.1742998 4028094
0.11849821 -0.038123567 1.1749712 4948684
0.12447356 -0.039949581 1.1701553 4751818
-0.098332033 -0.036012538 1.1673007 4093632
-0.0928782 -0.03239347 1.1731557 4094399
0.1115265 -0.027838685 1.1769296 5080784
0.1158988 -0.028866924 1.172175 5211343
-0.089787051 -0.02390255 1.1716136 4094402
-0.083342806 -0.020682149 1.1742705 4226244
-0.076894589 -0.018871076 1.1753051 4620744
-0.022941068 -0.016663298 1.1757226 5412064
-0.00045106653 -0.016211919 1.1759013 6463211
0.0076955622 -0.019886434 1.1760044 6397929
0.01736808 -0.019051462 1.1760749 6397929
0.026562622 -0.016955398 1.1761289 6003432
0.10835803 -0.018647142 1.1743119 5081042
0.11367474 -0.021701783 1.1688852 5081041
-0.082097456 -0.012896001 1.1690692 4160963
-0.07408414 -0.011745289 1.1743996 4752075
-0.059104886 -0.0083896667 1.1753454 4949201
-0.052346651 -0.0088164955 1.1754048 5016022
-0.042739645 -0.0097502843 1.1748257 5213659
-0.032888535 -0.010462575 1.1743488 5411552
-0.023032587 -0.011042491 1.1748657 5740773
-0.012932959 -0.010837786 1.1757461 6003172
-0.002810399 -0.010635637 1.1754265 6331366
0.0073062046 -0.010433413 1.1729066 6989552
0.017402772 -0.010230921 1.1733869 6792432
0.027492043 -0.010027483 1.172817 5937640
0.035941552 -0.0089200586 1.175125 5806054
0.046620589 -0.007392697 1.1761969 5674725
0.05334511 -0.0061327964 1.1762391 5674983
0.099219069 -0.0077432021 1.1766289 5146841
0.10532362 -0.0097409859 1.1709838 5080789
-0.078853257 -0.004336901 1.1671435 4554184
-0.075448111 -0.0034115911 1.1701622 4751049
-0.060228366 -0.0028078258 1.1732805 4818129
-0.052780766 -0.0026641786 1.1725396 5015507
-0.043214995 -0.0024929494 1.1692156 5147609
-0.033098843 -0.0022986308 1.1679959 5346018
-0.023473874 -0.0024613217 1.1706873 5937898
-0.013013891 -0.0029956996 1.171 6462952
-0.0025675213 -0.0020472035 1.1701868 8303605
0.0068147811 -0.0019722208 1.1692466 8501495
0.016696228 -0.0027602986 1.1685216 7252467
0.027985055 -0.0019823983 1.169445 6069484
0.037102681 -0.00070288032 1.1703678 6135528
0.04719514 -0.00085273385 1.1735479 5741031
0.056565784 -0.00045268238 1.1752086 5543655
0.066008784 0.0010440201 1.1762707 5477092
0.076045118 0.0025722906 1.1763372 5739747
0.087420039 0.0025505945 1.1764301 5280481
0.096720994 7.4163079e-005 1.172838 5015513
0.102267 -0.0018102974 1.170594 4949463
-0.07228592 0.0024987683 1.1671288 4818122
-0.06287431 0.0036808029 1.1671937 5147606
-0.054202314 0.0045997202 1.1672552 4818639
-0.045480739 0.0030367449 1.1673418 5344472
-0.00081658643 0.004491806 1.1676911 12971007
0.0036621084 0.0040230379 1.1677324 12905215
0.028233524 0.0045161843 1.1679276 5807584
0.041636117 0.0047851726 1.1680341 6004710
0.047680065 0.0058641732 1.1680726 5807083
0.056403175 0.0085372105 1.1702505 5477863
0.064893387 0.0082978085 1.1728556 5542628
0.076734833 0.0055859387 1.1763128 5673698
0.087274499 0.0077413693 1.1748769 5804766
0.09301272 0.0058162957 1.1684424 5147865
0.059282988 0.01631245 1.1680629 5412324
-0.00589268 -0.19694006 1.1816601 3039650
0.00056768581 -0.19745538 1.1817179 3039650
-0.026360109 -0.18944967 1.1814187 2842271
-0.019590259 -0.1893138 1.1814724 2973857
-0.0092558237 -0.19018522 1.1828285 2973857
0.00051882211 -0.19172937 1.1841868 3039395
0.011143742 -0.1895888 1.1835035 3171237
0.0204255 -0.18799129 1.182852 3237030
0.030754052 -0.18722865 1.1834004 3302569
0.039095748 -0.18720454 1.1832629 3237546
-0.046234351 -0.17936739 1.1811562 2908065
-0.038639229 -0.18018244 1.1812261 2973857
-0.029932022 -0.18176168 1.1823128 2973857
-0.020158883 -0.18345563 1.1835271 2973858
-0.011866863 -0.18409938 1.1854836 3105444
0.019832419 -0.18346317 1.1857355 3237030
0.03150079 -0.18171892 1.1858132 3302825
0.040423889 -0.18108773 1.1855719 3171754
0.050303176 -0.18142502 1.1839633 3171752
0.060640849 -0.18079996 1.183453 3171753
0.06901776 -0.17751777 1.1830767 3237546
0.077196181 -0.17495514 1.1821177 3303592
-0.057598997 -0.17013553 1.1809715 2908579
-0.049380023 -0.17212063 1.1830584 2908579
-0.039525572 -0.17338385 1.1840603 3105444
-0.030850098 -0.17496695 1.1852379 3105443
0.063803948 -0.17352027 1.1859946 3303339
0.071800999 -0.17109945 1.1847022 3303082
0.080170825 -0.16884387 1.1826525 3237545
0.086042225 -0.16574767 1.1820979 3303850
-0.066851012 -0.15903382 1.1807853 3302822
-0.060172316 -0.16318321 1.1831313 3040165
-0.052985143 -0.16680381 1.1849761 3040167
0.074944079 -0.16423626 1.1859927 3303598
0.080933243 -0.16012983 1.1850593 3238061
0.089470655 -0.15791543 1.1831589 3303596
0.097122326 -0.15536663 1.1820847 3369131
-0.076840185 -0.14869939 1.1806009 3171751
-0.070354924 -0.15218863 1.1821004 3368615
-0.063400514 -0.15568733 1.1847804 3171751
0.098793037 -0.14874166 1.1835322 3369134
-0.07895568 -0.14168721 1.1805136 3369130
-0.072823405 -0.1434941 1.1835818 3434922
0.099712931 -0.13904053 1.1849908 3435183
-0.080863304 -0.13311207 1.181746 3434923
0.10232153 -0.13189054 1.185093 3501232
0.10902293 -0.12862927 1.1845033 3435694
0.11573973 -0.12677446 1.1819512 3501232
-0.089304067 -0.12213935 1.1812345 3369646
-0.083525382 -0.12576115 1.1829845 3435182
0.1125535 -0.11931197 1.185851 3567282
0.11666509 -0.11871687 1.1836966 3567027
-0.097939126 -0.10961691 1.1800392 3501231
-0.093299031 -0.11342721 1.1828651 3435439
0.1123951 -0.1113873 1.1857706 3829686
0.11745672 -0.1084905 1.1840051 3829431
-0.098006785 -0.10623205 1.1800048 3501231
-0.093699463 -0.1028879 1.1816733 3567024
0.1195726 -0.099061914 1.1843728 3830201
-0.098288707 -0.092128456 1.1798618 3632818
-0.095061831 -0.092763998 1.1818945 3698612
0.12148315 -0.088417947 1.1836154 3896507
-0.098480418 -0.082538001 1.1797646 3633333
-0.094655253 -0.082628682 1.1825968 3764919
0.12111878 -0.078220218 1.1830107 4093886
-0.09910766 -0.073746413 1.1796718 3633334
-0.095115416 -0.07270018 1.1828941 3830201
0.11791749 -0.068650842 1.1836115 4291523
-0.094885528 -0.062407374 1.1812599 3896506
0.11722348 -0.058184847 1.1828791 4619975
-0.091797344 -0.052792393 1.1812367 4028348
0.11110519 -0.046857789 1.1851165 5146320
0.11558525 -0.048999295 1.1841743 4883148
-0.090256438 -0.043359298 1.1797265 3962814
-0.085325018 -0.041875005 1.1823235 3963072
0.10994909 -0.038067494 1.1835192 5146577
0.11376025 -0.039633907 1.1815658 5080527
-0.089060761 -0.034264587 1.1793598 4028607
-0.082935683 -0.032372974 1.1815243 4291526
-0.033081032 -0.029365681 1.1837673 5147865
-0.025613587 -0.0289893 1.1838244 5344731
-0.0093292063 -0.02775643 1.1839447 5345501
-0.0025365027 -0.027620099 1.1839987 5739743
0.0076965881 -0.029660322 1.1827691 5936862
0.016747165 -0.029483557 1.1831744 5871068
0.026921175 -0.028161429 1.1842442 5739228
0.045012422 -0.026665792 1.1843766 5213656
0.1078964 -0.029226415 1.1833143 4949970
-0.081289999 -0.024909392 1.1793298 4422856
-0.072969459 -0.019960769 1.1811665 4686797
-0.062625773 -0.018622942 1.1814193 4884690
-0.052215237 -0.019837342 1.1830163 4950486
-0.041740149 -0.020394735 1.1822739 5213659
-0.033133805 -0.021412648 1.1804873 5279707
-0.022955753 -0.022341825 1.1809795 5345244
-0.012824743 -0.020506851 1.1809548 5411808
-0.0029436303 -0.021424569 1.1808425 5806052
0.0064604292 -0.02437105 1.1800393 6068964
0.018503239 -0.0245056 1.1801388 6068963
0.028482875 -0.021914855 1.1811174 6003173
0.036896247 -0.020018354 1.182044 5608417
0.047089662 -0.019816972 1.1827251 5411038
0.053933579 -0.019691437 1.1843797 5279709
0.098587893 -0.017047562 1.183794 5212630
0.10431864 -0.020541504 1.1821318 5015248
-0.069369309 -0.014229298 1.1793203 4949712
-0.062599458 -0.014093429 1.1793742 4949713
-0.052444678 -0.013889618 1.1794549 5016279
-0.043034583 -0.014077008 1.1795334 5213659
-0.034369178 -0.014655575 1.1796098 5345501
0.038395442 -0.012630835 1.1801823 5871590
0.046846483 -0.011896849 1.180244 5871847
0.057040453 -0.0094389915 1.1823026 5543139
0.064299449 -0.0081611201 1.1826347 5280225
0.088802911 -0.007666111 1.1845438 5411294
0.09471225 -0.0089870319 1.1820595 5279196
0.066422731 -0.0030384064 1.180315 5411556
0.075979523 -0.0011534914 1.1803741 5412066
0.087262608 -0.00092703849 1.1804638 5477344
0.094077565 -0.0030477494 1.1805404 5213404
0.0013765907 -0.1870694 1.1896216 3105189
-0.019167025 -0.17900467 1.1903738 3039906
-0.0094290627 -0.18093973 1.190901 3039908
0.00011103787 -0.18189019 1.1928931 3105447
0.0107234 -0.1809265 1.1903864 3105702
0.019786242 -0.17950296 1.1896961 3171750
0.028762128 -0.1789096 1.1897632 3237289
0.040187497 -0.17682078 1.1898355 3237548
0.050410829 -0.17661561 1.1899167 3171752
0.059498239 -0.17643322 1.189989 3171752
-0.047033317 -0.16811678 1.189038 3039909
-0.039178126 -0.16868149 1.1899966 3105701
-0.030984089 -0.17115048 1.1917447 3105443
-0.021290984 -0.17633577 1.19333 3040163
0.0094636194 -0.17480639 1.1935654 3105960
0.020838689 -0.17346324 1.1936446 3105958
0.029910784 -0.17177761 1.1929017 3237545
0.040294413 -0.17051916 1.1918789 3237547
0.050333127 -0.17000984 1.1914504 3237544
0.060389839 -0.16957988 1.1916121 3237545
0.069009013 -0.1674287 1.1906433 3303339
-0.058467451 -0.15891448 1.1888531 3172009
-0.050002966 -0.16188502 1.1913519 3105961
-0.04063784 -0.16389713 1.1930484 3171752
0.043446057 -0.16363478 1.1937308 3303337
0.050284464 -0.16349754 1.1937852 3303593
0.060359728 -0.16231805 1.1938554 3303594
0.069523126 -0.15953165 1.1926522 3303596
0.076336101 -0.15791351 1.1899414 3238062
-0.066021264 -0.15054336 1.1887081 3434409
-0.060268741 -0.15216254 1.1915948 3237547
-0.051893648 -0.15435386 1.1928614 3237805
0.070328712 -0.15220028 1.1938357 3238318
0.079574205 -0.14909267 1.19276 3238572
0.089705624 -0.14869186 1.1911584 3434926
0.096202582 -0.14796937 1.1900041 3369134
-0.068552196 -0.14154817 1.1898286 3435179
