# .PCD v0.7 - Point Cloud Data file format
VERSION 0.7
FIELDS x y z rgba
SIZE 4 4 4 4
TYPE F F F U
COUNT 1 1 1 1
WIDTH 1132
HEIGHT 1
VIEWPOINT 0 0 0 1 0 0 0
POINTS 1132
DATA ascii
-0.087743759 -0.0034267753 1.0034097 6192539
-0.079602577 -0.0002765283 0.99891663 5930664
0.094919503 -0.00045465678 1.0010964 6983363
0.10207713 -0.0015855208 1.0044118 6061227
0.10742387 -0.0010429099 1.0043914 5400966
-0.07669872 0.0079999492 1.0003281 6189971
-0.06994234 0.010853946 0.99791652 5861520
-0.062227488 0.013358869 0.99687868 5664907
0.074800469 0.009699285 0.99644554 5996731
0.082754023 0.0081063136 0.99797273 5731750
0.092160784 0.0063501 1.001405 5927827
0.10040344 0.0035503879 1.0043918 5861518
-0.067314498 0.015487164 1.002285 6058377
-0.056237213 0.018553481 1.0001667 5467271
-0.050703183 0.02176068 0.99954915 5466762
0.072671063 0.016376331 0.99781948 5268360
0.081076086 0.014466859 1.0012679 5663111
0.089291036 0.011870943 1.0028871 6517124
-0.048784658 0.024624124 1.0007787 5532297
-0.034911323 0.02679985 0.99872208 5204613
-0.028623253 0.029103056 0.99998415 5138821
-0.018986922 0.028279141 0.99748051 4876167
-0.011170582 0.031282991 0.99662167 5138310
0.00028912723 0.031016886 0.99658525 5138050
0.042944718 0.030026421 0.99644965 5006203
0.052571245 0.028860703 0.99679869 5202812
0.06059042 0.027323507 0.99640489 5203582
0.070321627 0.023004189 1.0001943 5597049
-0.025639433 0.033829316 1.0046568 5269636
-0.017113835 0.034307718 1.0021263 5204101
-0.0075384704 0.034455657 1.000469 5072257
0.002276578 0.03396979 0.99996406 5006718
0.011842756 0.03369765 0.99863392 4875393
0.021486031 0.03358905 1.0016028 4875390
0.031957403 0.033265412 1.0017426 4874877
0.042130344 0.032970414 1.0006599 5006460
0.04931844 0.031995192 1.001919 5202811
-0.098342702 -0.010742918 1.0093174 6980776
-0.092189044 -0.010637812 1.0080966 6129600
-0.097117133 -0.0042026117 1.0122811 7570324
-0.089753561 -0.0012743473 1.0086422 6651024
-0.083388515 0.0043717474 1.0079932 6781327
0.099957228 -0.00374946 1.0074296 6854356
0.11153845 -0.0039030612 1.0092256 7111067
-0.078996353 0.010079764 1.0090754 6583439
0.10313342 0.0073943809 1.0081638 6845830
0.11132777 0.0046079531 1.0103507 7436672
-0.066406928 0.02076254 1.0114989 6321290
-0.060203992 0.02152472 1.0104568 5795463
0.082440436 0.018003859 1.0113795 5860223
0.092016481 0.013083696 1.0091723 6649473
0.099474505 0.012313224 1.0133517 6977411
-0.066724323 0.025340587 1.0115844 7372164
-0.0572799 0.025410302 1.0103029 6123396
-0.047814436 0.02956605 1.0124179 5729669
-0.039263327 0.029946491 1.0124086 5336195
-0.032513086 0.032169253 1.0076878 5270149
0.072620071 0.0253812 1.0073751 5532277
0.080083542 0.022349626 1.0121658 5860472
-0.048188262 0.034689739 1.0137271 6714755
-0.039124086 0.03447926 1.0136982 5794947
-0.02827996 0.035896733 1.0115554 5466498
-0.01776858 0.038222849 1.0103593 5466240
-0.0072737588 0.038511485 1.0114733 5334655
0.0031884974 0.038399294 1.0099393 5138044
0.0122531 0.038852185 1.0105072 5072252
0.021926574 0.038437843 1.0097852 5072247
0.031566869 0.037665874 1.0093781 5137530
0.041792892 0.036746994 1.0129919 5137788
0.050732128 0.033252165 1.0104083 5268347
0.11821202 -0.011941455 1.0164101 7374502
-0.097707652 -0.00079400837 1.021209 9214113
-0.088800967 0.0029018521 1.0193042 6978442
0.11436115 -0.0099029616 1.0164127 7112109
0.11894222 -0.00580208 1.0170089 8686741
-0.086795159 0.0086356401 1.0198834 7636109
-0.081350945 0.012605935 1.0189458 7437970
0.11919286 0.0023289695 1.0163362 9277068
0.085239895 0.019385628 1.0173634 5992060
0.091762878 0.01718314 1.0199363 6451580
0.098619141 0.015856706 1.0186702 6516347
-0.056333855 0.027876258 1.0177877 6254982
-0.052633911 0.032223612 1.0237541 6648965
-0.036726836 0.030637711 1.0167093 5270660
0.066764817 0.030290231 1.0193703 5662844
0.072600454 0.02879031 1.0194585 5794679
0.081133634 0.025799379 1.0183452 5926261
0.089230627 0.022005215 1.0213374 6253428
-0.046404317 0.036775112 1.0184609 7043204
-0.037295725 0.037237823 1.0188452 6188928
-0.026842237 0.040094316 1.01973 5991293
-0.017026491 0.042018861 1.0197881 5794427
-0.0072455099 0.041755691 1.0189571 5597052
0.00093927421 0.041121751 1.0177333 5399930
0.010297253 0.04124023 1.0165019 5203324
0.021011453 0.04099144 1.0164678 5269365
0.033710286 0.040741622 1.0174272 5334394
0.042868875 0.039536208 1.0194031 5466234
0.049380414 0.037573531 1.0202248 5597049
0.066832818 0.033220828 1.0193555 5991033
0.071459115 0.033061504 1.0216268 6055795
-0.015020636 0.043918043 1.019572 6056827
-0.005973517 0.044853494 1.0230378 5859449
0.0023999102 0.044802144 1.0219104 5728377
0.011559419 0.044049367 1.023484 5532027
0.022193834 0.043241724 1.023453 5532021
-0.094843723 0.00083336234 1.0270487 7306630
-0.092853822 0.0017712116 1.0270375 7438985
-0.074915558 0.019195169 1.0328922 7044228
-0.071005523 0.019040696 1.02988 6255491
0.094040394 0.019572869 1.0263337 6187632
0.099461287 0.01993902 1.026314 6119529
-0.056354612 0.031036004 1.0267723 6780808
0.062315002 0.030642182 1.0263833 5465215
0.085891619 0.024999239 1.0313337 6056820
0.091977596 0.024150826 1.0296178 5988198
-0.043770317 0.039009899 1.0266912 7108737
-0.037327405 0.041763186 1.0299565 7108222
-0.02892594 0.042601466 1.0266244 6582396
0.053910095 0.037990674 1.0286245 5859705
0.05921673 0.03600657 1.0273669 5728122
-0.024314936 0.045896754 1.029093 6713719
-0.017874107 0.046671867 1.030468 6450807
-0.0096630203 0.046695247 1.0287908 6122104
0.002190873 0.047405466 1.0287483 6122617
0.014529517 0.047635302 1.0291232 6057083
0.020855945 0.047337532 1.0300372 6057334
-0.079939641 0.018099278 1.0359142 7832202
0.08564619 0.028434843 1.0353175 5792617
0.088622518 0.028365731 1.0353081 5724767
-0.03606087 0.04515782 1.0356356 7764863
-0.016126618 0.048665494 1.0355525 6384242
-0.0071976436 0.048458159 1.0355241 6121843
0.1634814 -0.082904063 1.0546137 13950701
0.166512 -0.082974434 1.0546041 13160147
0.16557212 -0.079920404 1.054592 13423577
0.16435957 -0.092572652 1.0616589 12898285
0.16832368 -0.093645558 1.061151 12832198
0.16304447 -0.08659102 1.0597763 10136266
0.16979808 -0.087225854 1.0598644 13159885
0.16354507 -0.080311202 1.0611007 12175571
0.16890077 -0.079388902 1.0575784 13093836
-0.1410369 -0.10575046 1.0745304 1720740
-0.14164852 -0.098839581 1.0742863 3628972
-0.14253338 -0.092649557 1.0756704 4745397
0.16368519 -0.094294988 1.0706698 6256041
0.16816868 -0.097081445 1.0708688 12767188
0.16215253 -0.085163184 1.0726296 7312841
-0.13948496 -0.12994148 1.0858454 2903988
-0.13636866 -0.13001384 1.0858355 1324707
-0.14066932 -0.11788275 1.0850395 2904505
-0.13915712 -0.10916232 1.0836412 2644141
0.16332519 -0.11410791 1.0847695 5801403
0.16774924 -0.11455707 1.0847571 11779799
-0.13859433 -0.098086797 1.0816844 3039906
0.16269001 -0.1049984 1.0837264 3630254
0.16888857 -0.10596571 1.0831225 11516624
0.17598319 -0.10608732 1.0846879 13685195
-0.14087833 -0.089052752 1.0840108 2708908
0.16266538 -0.096531324 1.0828094 3762605
0.16732721 -0.10043621 1.0816884 10465738
0.16296834 -0.089745477 1.0786496 6721740
-0.13813516 -0.071771197 1.0855525 1588628
-0.13501887 -0.071843557 1.0855426 3826867
-0.13326913 -0.14542431 1.0919018 3694011
-0.13809808 -0.13879009 1.0898848 7178192
-0.13285144 -0.1386544 1.0910206 2114980
-0.1380405 -0.12731704 1.0898277 1063065
-0.13362361 -0.13023581 1.0907276 2447769
-0.13739593 -0.11976936 1.0897881 2578847
-0.13487428 -0.1193677 1.0927778 2907546
0.16287 -0.1250758 1.0903254 6851775
0.16846171 -0.12474798 1.0888053 13029078
-0.13647027 -0.10969234 1.0904851 3104917
-0.13458318 -0.10682266 1.0927147 3170462
0.16172837 -0.11425462 1.0902755 3040417
0.17136459 -0.11781154 1.0887613 13422807
0.17435637 -0.11475164 1.0887363 13619661
-0.13826632 -0.097124562 1.0904287 3104162
0.16067971 -0.10601819 1.0895952 2973607
-0.13740683 -0.088815883 1.0906346 3169952
0.16133666 -0.095912315 1.0916859 2843043
-0.13898312 -0.079103336 1.0897496 3301299
-0.12838902 -0.15739605 1.1019452 4750553
-0.12479095 -0.15969597 1.1039449 1196192
-0.13024558 -0.15010196 1.0987151 3036848
-0.12638335 -0.15243983 1.1039141 1789334
0.15777114 -0.15501051 1.1004908 12898004
-0.1289382 -0.13922811 1.1000791 2776475
0.15847668 -0.14593092 1.0993434 9087435
0.16438153 -0.14144312 1.0959016 13488846
-0.13093667 -0.12844178 1.09981 3038106
0.15857399 -0.13528511 1.0982903 4354994
0.16645521 -0.13351284 1.0958555 13752800
-0.13258019 -0.11868452 1.1012115 2973083
0.15877584 -0.12551086 1.0991489 2121388
-0.13711661 -0.10504802 1.0967143 3301280
-0.13383846 -0.11005896 1.1003648 3039132
0.15968405 -0.11747903 1.096965 2646946
0.17603846 -0.11260169 1.0987203 13817039
-0.13697053 -0.09875264 1.0966825 3366820
-0.13441989 -0.099253483 1.1016768 3105183
0.15835197 -0.10517894 1.1004418 3631271
0.17713937 -0.11052196 1.0987064 13817037
-0.13671084 -0.087560885 1.0966262 3499424
-0.13403073 -0.088623546 1.1004227 3302563
0.15825285 -0.094926096 1.0996325 3369127
-0.13377474 -0.079126559 1.1000748 3434147
0.16039319 -0.08538381 1.100546 2908578
0.1662011 -0.082899034 1.0986054 8233160
-0.13815729 -0.067881554 1.0973905 3365295
-0.13285588 -0.069201581 1.1003687 3499689
0.16140617 -0.075828046 1.1002333 4024485
0.16639641 -0.074482359 1.0985631 11192030
-0.1364108 -0.059029862 1.0994838 2181536
-0.13117731 -0.059003398 1.1006665 3433908
0.1607679 -0.070364803 1.1025614 2708114
-0.13459022 -0.05082893 1.1034373 8233201
-0.13079594 -0.052044857 1.1017165 3564980
0.015661379 0.11759274 1.0981071 9935247
0.02139366 0.11836188 1.0980843 9934992
-0.1193513 -0.1686939 1.112664 929696
-0.11516887 -0.16913289 1.1149601 1984411
0.14725809 -0.17095879 1.1141047 13424882
-0.12014924 -0.15912142 1.1103268 2512540
-0.11556107 -0.16111067 1.1135882 2906513
0.14871086 -0.16508013 1.1116263 8955594
0.154384 -0.16388595 1.1080462 14080986
-0.12697238 -0.14487278 1.1108786 2381461
-0.12397335 -0.15011542 1.1128322 2776212
0.14914903 -0.15549287 1.1103418 3697834
-0.12727913 -0.13893867 1.1116835 2841752
-0.12523873 -0.14329249 1.1148651 2906774
0.15123436 -0.14561942 1.1107659 2646183
-0.1289193 -0.12833101 1.1126602 2907034
-0.12499128 -0.13262883 1.1148114 2775704
0.15201753 -0.13689509 1.1118201 3696546
0.15417491 -0.13241048 1.1112242 3761571
-0.12972327 -0.11886519 1.1112031 2973083
0.15599251 -0.12635417 1.1105214 3368880
-0.13058218 -0.10863695 1.1106108 3039134
0.15655679 -0.11475784 1.1100681 3500454
-0.13051786 -0.098187357 1.1102588 3171232
0.15568464 -0.10629158 1.111042 3631529
-0.13087392 -0.089411221 1.1095164 3302564
0.15440592 -0.095887333 1.1067089 3697839
0.15482698 -0.0961335 1.1097088 3763633
-0.13071935 -0.078853212 1.1102636 3368355
0.155653 -0.084895715 1.1093645 3436468
0.17004809 -0.081603117 1.1095866 10992842
-0.12813911 -0.068492927 1.1102036 3697068
0.15382478 -0.071885772 1.1135918 3765679
0.1569511 -0.074483186 1.1087762 3830452
0.16979252 -0.077344663 1.1095663 11387079
-0.12686795 -0.060755715 1.1079611 3631022
-0.12461959 -0.057600092 1.1074381 3500456
0.15333973 -0.064970672 1.1106702 3830449
0.16003494 -0.065632097 1.1081718 5207985
0.16654442 -0.066774383 1.1121912 10334913
-0.12681983 -0.048719499 1.1099727 3434161
0.15268619 -0.056023199 1.110374 3893939
0.15976509 -0.056675598 1.1095524 8428221
-0.12683111 -0.038668618 1.1134944 6194370
-0.12223113 -0.03666826 1.1143265 4421311
0.15082781 -0.044140793 1.1123732 5734064
0.15704747 -0.04795444 1.1134626 10203587
-0.1207435 -0.030034415 1.1142887 6852289
0.14947349 -0.038196787 1.110239 8955077
0.022181202 0.094412968 1.1132008 9737616
-0.089610003 -0.20608488 1.1233927 7635861
-0.08622881 -0.20664278 1.1260509 8100012
-0.099627331 -0.19591661 1.1260419 10535920
-0.092671424 -0.19876736 1.1236801 5996227
-0.08614552 -0.20305333 1.1260329 6394567
-0.10940447 -0.18469179 1.1180183 8431615
-0.1024544 -0.18728383 1.1207776 1526185
-0.096314847 -0.18979946 1.1248578 1262491
0.1274367 -0.19221063 1.1252756 11717846
-0.11775981 -0.17593938 1.1180024 7571711
-0.11082514 -0.17836225 1.1195472 1917611
-0.10389483 -0.18102589 1.1233155 2379673
-0.097198769 -0.18412137 1.1259754 2644619
0.12918577 -0.18537627 1.125236 5010097
0.13654697 -0.18259738 1.1220551 10599906
0.14367355 -0.18155637 1.1211693 14081762
-0.11067685 -0.16951936 1.1221578 2709143
0.13047434 -0.17480302 1.1251793 2909858
0.13712168 -0.17450137 1.1213377 4026283
0.14470093 -0.17488828 1.1176327 12307424
-0.11728841 -0.15562417 1.1179001 2775446
-0.11299476 -0.15992406 1.1208165 2775442
0.13858271 -0.16558117 1.1221068 3105445
0.14352931 -0.16488984 1.117087 2578854
-0.11914642 -0.14836884 1.1200242 2775449
-0.11497173 -0.15084952 1.1245357 2906778
0.14114434 -0.15583041 1.12345 3564451
0.14450644 -0.15495047 1.1194346 3433893
-0.12279353 -0.13959795 1.121133 2840984
0.14283581 -0.14767572 1.1250041 3565217
0.14664838 -0.14567372 1.1196481 3499430
-0.12733565 -0.1275761 1.1177942 2841497
-0.12437454 -0.12939321 1.1237935 2907290
0.14917822 -0.1350953 1.1219207 3237547
-0.1272908 -0.11811009 1.1193471 2973083
-0.12455508 -0.11863387 1.1237408 3038877
0.15249871 -0.12547778 1.123044 3827369
0.15516442 -0.12450767 1.1168485 3564710
-0.12811309 -0.10811296 1.1205574 3039391
-0.12550531 -0.11006911 1.1243681 3170977
0.15300089 -0.11539919 1.1228105 3565735
0.15536292 -0.11595389 1.1168053 3500198
-0.12804219 -0.099909566 1.1226593 3170977
0.15347545 -0.10639252 1.1220976 3631790
0.15452881 -0.10808271 1.1247692 3434923
-0.12795562 -0.089360327 1.1216067 3302823
0.15340556 -0.094934411 1.1222076 3566513
-0.12769701 -0.079368681 1.120223 3368614
0.15271571 -0.085659266 1.1222024 3632560
-0.12701021 -0.071669638 1.1215159 3565995
0.1517493 -0.075472027 1.1208832 3895728
-0.12372112 -0.056685045 1.1230309 3697842
0.14963745 -0.065470099 1.1193739 4158132
-0.12187091 -0.048427857 1.1217474 3502262
0.14875814 -0.054772329 1.1205238 4027837
-0.11900708 -0.03898016 1.1211052 3698611
0.14418276 -0.043197297 1.1244816 4619197
0.14989708 -0.046458453 1.1189404 4946612
-0.12512751 -0.032415301 1.1173149 7180220
-0.11744833 -0.029558316 1.1244757 4815032
0.14424586 -0.036718547 1.1237825 5209534
0.148986 -0.035112433 1.1164255 8425655
0.023215462 0.090376362 1.1162175 9474444
-0.06290637 -0.21701667 1.1330256 8300241
-0.080939502 -0.20841907 1.1294061 7642055
-0.073456533 -0.20923963 1.1315218 4815810
-0.066774108 -0.21283829 1.1330177 5210825
-0.089801207 -0.1962983 1.1290115 932767
-0.082907446 -0.19989479 1.1306908 2382238
-0.074354142 -0.20312232 1.1329945 2251168
0.10919598 -0.20413214 1.1323949 6518691
0.11505113 -0.20324892 1.1309427 11319227
-0.091365941 -0.18950924 1.1308497 2447513
-0.086046487 -0.19309402 1.1329833 2513045
0.11708689 -0.19506967 1.1312714 4617903
0.1241193 -0.19526407 1.1283017 10929103
-0.10056627 -0.17826778 1.1304121 2971544
-0.094741091 -0.18216649 1.1309577 2774929
0.11937198 -0.18585557 1.1306041 2909086
0.12429123 -0.1850327 1.1282505 3105187
-0.10779786 -0.16491246 1.1289152 2709911
-0.10328711 -0.17006637 1.1312788 2644371
0.12603918 -0.17525205 1.1288116 3368356
-0.10996886 -0.15823612 1.1307074 2775444
-0.10509326 -0.16246974 1.1315608 2709910
0.13069002 -0.16548623 1.1297325 3368613
0.13495925 -0.16262732 1.1281042 3499683
-0.11298388 -0.14959534 1.1303563 2841497
0.13266966 -0.15806143 1.1320891 3237027
0.13745196 -0.15547569 1.1293939 3302821
-0.11864761 -0.13787471 1.1293882 2645144
-0.11519501 -0.13966884 1.1319255 2775964
0.14080419 -0.14561242 1.1301824 3237542
0.14497174 -0.14213285 1.129303 3106215
-0.1202801 -0.12943117 1.1302348 2907291
0.1424005 -0.1360922 1.1306149 3499683
0.14554265 -0.13419165 1.1290712 3303338
-0.12103197 -0.11948052 1.1311334 3039134
0.14735487 -0.12573883 1.1292922 3499947
-0.12585458 -0.10507791 1.128678 3236770
-0.12378435 -0.10940045 1.1320258 3236770
0.14933112 -0.11527245 1.1296402 3500458
-0.12570426 -0.098599732 1.1286453 3237027
-0.12397422 -0.098981753 1.1326416 3302821
0.15194348 -0.10477918 1.1300472 3632048
-0.12547877 -0.088882476 1.1285964 3302824
-0.12376051 -0.089771971 1.1325952 3302569
0.15042201 -0.095853038 1.129904 3632047
-0.12570022 -0.079802997 1.1285521 3434408
-0.12285583 -0.077480838 1.1325312 3434665
0.14728513 -0.084732264 1.1294956 4026292
-0.12502781 -0.06944795 1.1284986 3631531
-0.12327024 -0.068643644 1.1324887 3631531
0.14757256 -0.076765478 1.1280813 4157366
-0.12487748 -0.062969774 1.1284659 4025255
-0.12160151 -0.057910301 1.1307157 3632304
0.14730804 -0.064968914 1.1275793 4289211
-0.11793506 -0.049003892 1.1300881 3568048
0.14440469 -0.054127112 1.1282017 4094399
0.1466381 -0.058560692 1.1295497 4224702
-0.11649197 -0.042999309 1.1283393 3764911
-0.1129441 -0.038753234 1.1308066 3895729
0.14204663 -0.045644872 1.1289554 4487616
-0.11727604 -0.024855629 1.1312519 6458567
-0.11243105 -0.028744884 1.1306552 3895996
0.14222889 -0.034614149 1.1278455 5735616
0.14916439 -0.031523414 1.1274073 9477559
-0.11677158 -0.022178762 1.132237 6852289
-0.11352104 -0.022254243 1.1322266 5933254
0.05550098 0.075438395 1.1271855 9474701
-0.026355024 -0.22825883 1.1449614 7248329
0.0064443983 -0.23061651 1.1440649 5801654
0.014489751 -0.22967634 1.1435004 5210039
0.027271505 -0.23059958 1.1447963 6328255
0.034936067 -0.23077756 1.1447719 7379645
0.046496566 -0.23092428 1.1447346 8430007
0.054473877 -0.22935565 1.1407005 8625323
-0.064089142 -0.2192951 1.137041 9678537
-0.053244978 -0.21951586 1.1435329 4422071
-0.043920249 -0.22040141 1.1449802 2778029
-0.034201764 -0.22244251 1.1449584 2513574
-0.02665225 -0.22533053 1.1449478 2315684
0.0032590991 -0.22675543 1.1448563 2120102
0.015303412 -0.22703511 1.1448181 2185635
0.028468069 -0.22624528 1.1447707 2186146
0.033917345 -0.22746733 1.1447589 2316696
0.049297292 -0.2256334 1.1446991 4486314
0.05685842 -0.22542402 1.1426731 5997746
0.068076417 -0.2227198 1.1434799 6063288
0.076782525 -0.22145134 1.1445879 6589614
0.084879965 -0.22185847 1.1445632 8757678
-0.069248207 -0.20720842 1.1369981 1855898
-0.062575869 -0.20985647 1.1402273 2249885
-0.054934628 -0.21232429 1.1442492 2381985
-0.046853952 -0.21463659 1.1449614 3039902
0.070889942 -0.21572739 1.1445789 2841504
0.076924801 -0.21531975 1.144557 3302564
0.086536758 -0.21329352 1.1431819 4420011
0.09634237 -0.2127099 1.1387657 6984117
0.10583563 -0.21018603 1.1364361 6254993
-0.080145516 -0.19642866 1.1377805 2710418
-0.07248503 -0.19985338 1.1413532 2775447
-0.065805554 -0.20222415 1.1441622 2906776
0.089170456 -0.20545495 1.1440678 3171492
0.097702026 -0.20429306 1.1412338 3237285
0.10605127 -0.20329362 1.1369727 3629215
-0.082857959 -0.1893948 1.1417546 2775191
-0.074795969 -0.19306195 1.1442797 2906012
0.099877782 -0.19512817 1.1427145 3040421
0.10684802 -0.19362363 1.1392981 3105703
0.11273801 -0.19402784 1.1363333 2777257
-0.097874179 -0.17499468 1.1369326 2710677
-0.091187693 -0.17901796 1.14046 2709909
-0.085047051 -0.18275756 1.142929 2709910
0.10820577 -0.18525562 1.1428311 3368100
0.11581476 -0.18361893 1.1384048 3302561
-0.098940141 -0.16840823 1.1400146 2710421
-0.094208829 -0.17135037 1.1441026 2644886
0.11044826 -0.17753589 1.1442592 3040936
0.11855445 -0.17463487 1.1421311 3237031
0.12501559 -0.17189777 1.1391832 3368615
-0.10829324 -0.15517056 1.1368686 2776209
-0.10295091 -0.15975328 1.1416239 2841240
0.12079044 -0.16618788 1.1441689 3237287
0.12728024 -0.16413738 1.1389943 3302822
-0.10912436 -0.14847429 1.1413716 2710683
-0.10449691 -0.15186092 1.1441731 2841499
0.12974621 -0.1557623 1.1414994 3237541
0.13476768 -0.15318242 1.1376582 3237798
-0.11105219 -0.13986853 1.1419448 2907293
0.13164262 -0.14702483 1.1440381 3237797
0.13641788 -0.1446169 1.1390103 3303334
-0.11710057 -0.12804781 1.137906 2907805
-0.11492018 -0.12970459 1.1439643 2907805
0.13848367 -0.13528636 1.1415129 3434407
-0.11737859 -0.11872395 1.1393845 3039392
-0.11477032 -0.1199404 1.1447154 3039391
0.14064857 -0.12576206 1.1413316 3500202
0.1448482 -0.12297215 1.1358752 3631274
-0.12030873 -0.1094765 1.141215 3170979
0.14284533 -0.11553227 1.1434005 3631791
0.14623114 -0.11507095 1.1376092 3566510
-0.1204688 -0.099114135 1.1423452 3105957
0.14227702 -0.10440819 1.142125 3632305
0.14746945 -0.10565608 1.136114 3501227
-0.12062514 -0.089093588 1.1400102 3237546
0.14202715 -0.095333226 1.141202 3698099
0.1466179 -0.095845014 1.1361349 3698094
-0.11977519 -0.07936132 1.1401973 3434923
0.14348017 -0.086087853 1.1416969 3895479
0.14565556 -0.088178143 1.1357 3895477
-0.11915167 -0.068912581 1.1407624 3566256
0.14400557 -0.074787743 1.1429725 4027579
0.14650124 -0.074286446 1.1396283 4157882
-0.11795293 -0.060031958 1.1399581 3567024
0.14218591 -0.06520772 1.1424211 4159422
0.14649634 -0.065476894 1.1379846 4289724
-0.11541784 -0.050262302 1.1377052 3567791
-0.11225274 -0.048374474 1.1430188 3764403
0.14070453 -0.055140633 1.1408858 4356797
-0.11032452 -0.039512046 1.1368732 3830196
0.13826175 -0.045503292 1.1399127 4619718
-0.10859129 -0.028636143 1.1391513 3896507
0.13444942 -0.0335164 1.1403548 4817095
0.13895188 -0.034214564 1.1371212 4948420
-0.11598124 -0.019282952 1.1402202 6916535
-0.10850734 -0.01998847 1.1398914 5210049
0.13375831 -0.027096748 1.1424364 5013440
0.13822003 -0.026794851 1.1400868 5998788
0.035165153 0.049266726 1.1382395 5859448
0.043356407 0.049144581 1.136356 6122362
0.048927739 0.049158931 1.1393375 6319482
0.060079634 0.050187111 1.1432959 5330522
0.035845093 0.05369167 1.1366916 5792108
0.043686569 0.054352298 1.136129 5527648
0.049029015 0.053523406 1.1393156 5067354
-0.020601865 -0.22834983 1.1479428 4354997
-0.013261543 -0.22953793 1.1499245 4684224
-0.0033645509 -0.2294807 1.148425 4289976
0.0076635065 -0.22743705 1.1478451 2054307
0.01807981 -0.22822809 1.1478148 2777510
0.023543306 -0.22945334 1.1478028 4026798
0.04001021 -0.2298357 1.1477505 5604271
0.043890696 -0.22827825 1.14773 4881326
-0.03933784 -0.21755862 1.147951 3039902
-0.031409901 -0.2186583 1.1484303 2710943
-0.022978272 -0.2207495 1.1512173 2645152
-0.013157836 -0.22381952 1.1545626 2514339
-0.0032183947 -0.22394936 1.1539972 2514851
0.0067502419 -0.22168225 1.1524198 2842787
0.016635939 -0.22149907 1.1501862 2908579
0.026315773 -0.22132632 1.1506424 3039651
0.036494888 -0.22226034 1.1517247 2908578
0.04586219 -0.221607 1.1514405 2778020
0.055922642 -0.22019035 1.1490788 2646433
0.065429285 -0.22310345 1.1476334 5012145
0.076926395 -0.22465184 1.1476033 8955830
-0.052169718 -0.20883775 1.1482357 2841242
-0.042370465 -0.21112832 1.1502625 2775960
-0.033387236 -0.21260279 1.1521736 2841500
-0.024019845 -0.21497424 1.1558878 2907551
0.0076856953 -0.21497312 1.1557834 3105184
0.016906001 -0.21481857 1.1557523 3170722
0.026854698 -0.21504956 1.1557207 3302053
0.037000455 -0.21473217 1.1556857 3170723
0.047523234 -0.21405484 1.1556476 3105188
0.056865811 -0.2134867 1.1538998 3170467
0.066462383 -0.21351941 1.1499826 3236258
0.07667888 -0.21032335 1.1479775 3171236
-0.068519741 -0.19711021 1.1479458 2906776
-0.062038779 -0.19949186 1.1490791 2907033
-0.053601556 -0.20065454 1.1527476 2841497
-0.044431884 -0.20491496 1.1559052 2775704
0.057985745 -0.20803045 1.1555834 3105443
0.066829033 -0.2082358 1.1555552 3105443
0.07770329 -0.20477584 1.1542391 3105956
0.086122781 -0.20211747 1.1506612 3105956
-0.079242945 -0.18587743 1.1479254 2644884
-0.072248273 -0.18959408 1.1509207 2775705
-0.063936993 -0.19264694 1.1535753 2841497
0.081455871 -0.19751546 1.1554539 3172006
0.089163832 -0.19531664 1.1544176 3040421
0.095071837 -0.19311589 1.1518872 2974628
-0.087821513 -0.17689122 1.147909 2645144
-0.081211269 -0.17879808 1.1509556 2710425
-0.075967506 -0.18163443 1.1524651 2776216
0.09873987 -0.18455771 1.1520827 3171493
0.1037591 -0.18245891 1.1489056 3237026
-0.09066505 -0.16879255 1.1504666 2710424
-0.084335402 -0.17112958 1.1544145 2710937
0.10181497 -0.17808023 1.1552905 3302823
0.10822914 -0.17415871 1.152092 3172005
0.11409371 -0.1711576 1.1512157 3172006
-0.099081278 -0.1572251 1.1478486 2841498
-0.094729677 -0.15982258 1.1527703 2907290
0.11091476 -0.16723156 1.1552067 3303592
0.11723559 -0.16400194 1.1538365 3237544
0.12346435 -0.15982983 1.1471285 3303337
-0.10064417 -0.14872041 1.1495259 2973342
-0.096106067 -0.15191746 1.1558126 3038879
0.12104873 -0.15632132 1.1544526 3237544
0.12546389 -0.15341648 1.1498902 3303336
-0.10840238 -0.1369877 1.148779 2973342
-0.10239704 -0.14026995 1.1532756 2973600
0.12908809 -0.14436662 1.1510334 3368872
-0.10979345 -0.12908354 1.1500974 3039392
-0.10436657 -0.13000068 1.1557312 3236259
0.13061346 -0.13495058 1.1527317 3500460
0.13507913 -0.13264009 1.1469554 3434923
-0.11066787 -0.11941506 1.1505883 3170978
0.13186519 -0.12604356 1.1536001 3500719
0.13660568 -0.1236693 1.1502393 3500718
-0.11698039 -0.10811476 1.1476641 3237029
-0.11318068 -0.10954361 1.1536587 3237286
0.13715804 -0.11480888 1.1529655 3697329
-0.1167766 -0.099332474 1.1476198 3237543
-0.11418346 -0.098919578 1.1551094 3172263
0.13858572 -0.10573077 1.1524105 3697843
-0.11684592 -0.089676142 1.1505723 3303340
-0.11472993 -0.088627443 1.1555601 3303852
0.13860366 -0.095280685 1.1527587 3764149
-0.11669251 -0.079929762 1.1475233 3500716
-0.11391762 -0.078586988 1.1555077 3501229
0.14178172 -0.084922187 1.1512682 3764661
-0.11613977 -0.071887828 1.1474816 3566512
-0.11287564 -0.068518691 1.1518179 3632306
0.13903734 -0.074647799 1.1511256 3896764
-0.11205088 -0.058914594 1.1517675 3698357
0.13329418 -0.064460278 1.15329 4291265
0.13708167 -0.065745145 1.14776 4225217
-0.11023249 -0.049948484 1.1513535 3764408
0.13429709 -0.05488129 1.1525725 4554434
0.13688774 -0.054697298 1.1465629 4488640
-0.10702641 -0.039303813 1.1520902 3895997
-0.10282163 -0.036184706 1.1552609 4027323
0.13415273 -0.044082332 1.1515194 4817354
-0.10527393 -0.029825523 1.1485707 3962044
-0.10125127 -0.028683834 1.1544185 4093118
0.12512383 -0.031523697 1.1544869 5014224
0.13043968 -0.034400217 1.1504836 4751563
-0.10393911 -0.019449025 1.1471814 4290235
-0.099040776 -0.019411713 1.1516985 4158908
-0.092796795 -0.01724685 1.155134 4028609
0.1236178 -0.02445744 1.1526791 4817874
0.13028954 -0.024353668 1.1474342 5145287
-0.096510097 -0.012831502 1.1495242 4487616
-0.091055319 -0.010272838 1.1537603 4356800
0.11505564 -0.011741631 1.152422 5276623
0.1213134 -0.014918372 1.1487027 5604813
0.13068208 -0.016360603 1.1472822 6720449
-0.088787198 -0.0033306405 1.1550517 5671109
0.11333065 -0.006127499 1.1538284 5802961
0.11966513 -0.0070643425 1.1497169 6787017
0.037640031 0.011429645 1.1545621 12972031
-0.01737475 0.022612914 1.1526878 5869264
0.014940229 0.018224068 1.1546031 7515376
0.022423906 0.017681614 1.1545812 8764660
0.032018442 0.017016441 1.1545529 10146554
0.038626961 0.015830718 1.1545371 10870005
-0.074914098 0.03223297 1.1468295 8028800
-0.06978257 0.032479942 1.1468114 7305855
-0.012952358 0.0236644 1.1546681 5671370
-0.0096361274 0.023587391 1.1546575 5869265
0.013577498 0.023048371 1.1545837 6988787
0.017999141 0.022945695 1.1545697 7185904
0.10442638 0.029786795 1.1542511 6314850
-0.068446748 0.037452638 1.1467823 8028802
0.10141332 0.033395961 1.1542431 6117979
0.07767842 0.044433132 1.1462665 5593178
0.079874009 0.04438214 1.1462594 5658970
-0.018601734 -0.2180464 1.1598854 2973083
-0.013081376 -0.21928439 1.1598734 2973595
-0.0036427388 -0.21906978 1.1605079 2973598
-0.038310301 -0.20649068 1.159893 2842012
-0.031964459 -0.20802529 1.1598797 2776219
-0.022678223 -0.21071437 1.1613863 2907806
-0.013112367 -0.21230793 1.1629968 2907807
-0.0025688121 -0.2130926 1.1631414 2973599
0.0063548684 -0.21097329 1.1604348 3039136
0.017120894 -0.21022952 1.1610624 3170723
0.027097458 -0.21034512 1.1603633 3236770
0.036902409 -0.21011528 1.1596632 3170979
0.045951758 -0.21011201 1.1596334 3170980
0.052645683 -0.2086027 1.159604 3171236
-0.049196579 -0.19735941 1.1598836 2842012
-0.042537011 -0.19977292 1.1613282 2842011
-0.0329744 -0.20224941 1.162316 2842012
-0.024717078 -0.20388329 1.1638353 2907805
0.021719543 -0.20635357 1.1636946 3302309
0.027753208 -0.20534241 1.1625268 3302308
0.036402877 -0.20542894 1.1611416 3171236
0.047151063 -0.2062555 1.1596104 3171236
0.057811689 -0.2051208 1.1612363 3105443
0.067674138 -0.20342985 1.1605288 3171492
0.074262179 -0.2017059 1.1594985 3040420
-0.070014358 -0.18577793 1.1598947 2841497
-0.061302491 -0.18872747 1.160414 2907291
-0.052923299 -0.19156669 1.1617495 2907549
-0.046270665 -0.19289622 1.1638519 2907551
0.07095103 -0.19636054 1.1634829 3040420
0.07800243 -0.19469185 1.1615567 3106213
0.085874945 -0.19228324 1.1594136 3106214
-0.071360454 -0.17924814 1.1618668 2907290
-0.064836964 -0.18227221 1.1633604 2973340
0.082287923 -0.18771484 1.1634027 3302823
0.088379398 -0.18548281 1.1609715 3237030
0.094597436 -0.18221864 1.1611127 3237031
-0.088407792 -0.16537428 1.1598542 2841497
-0.080091745 -0.16904533 1.1603783 2842012
-0.074017107 -0.17141072 1.1628367 2907547
0.099956945 -0.17466083 1.1602029 3368361
0.10511237 -0.17153259 1.1592473 3237285
-0.089749478 -0.15942414 1.159829 2973085
-0.082966626 -0.15979274 1.1625454 3039135
0.1024294 -0.16758595 1.1592366 3368615
0.10903193 -0.16440436 1.1599263 3237799
0.11367603 -0.16118826 1.1591678 3303337
-0.096843995 -0.14631164 1.1597874 2973857
-0.09149316 -0.149959 1.1613435 3039137
-0.085573882 -0.15096527 1.1637734 3104930
0.1111987 -0.15694626 1.1611549 3172264
0.11748267 -0.15420756 1.1597873 3238059
-0.097841516 -0.13807894 1.1607499 3039650
-0.093935005 -0.1417508 1.1637552 3105700
0.12095157 -0.14453441 1.1612151 3369132
0.12515429 -0.14480765 1.1590487 3434410
-0.1003961 -0.12945062 1.1614298 3171236
0.12303466 -0.13645314 1.1622143 3500719
0.12645558 -0.13423388 1.160992 3435183
-0.10726698 -0.11721457 1.1596775 3302823
-0.10265411 -0.11928838 1.1623392 3171495
0.12745097 -0.12415776 1.1607569 3566514
-0.10880823 -0.10853383 1.1610941 3368873
-0.10515138 -0.10978681 1.1628337 3368875
0.13037586 -0.11503523 1.1596839 3697588
-0.10949778 -0.099443048 1.1622634 3303850
0.13217448 -0.10546149 1.1622591 3763892
0.13540345 -0.10487056 1.1588169 3698099
-0.11060788 -0.089214273 1.1611496 3435181
-0.10475732 -0.08982756 1.1635334 3435438
0.1334306 -0.095358372 1.1627762 3829942
0.13627994 -0.094889939 1.1599075 3764149
-0.10934635 -0.079565607 1.1614976 3501229
0.13374051 -0.082002133 1.162709 3896505
0.13806127 -0.08499679 1.1605278 3830455
-0.108521 -0.06972339 1.1609845 3632563
-0.10421496 -0.066454157 1.1634157 3567542
0.13153945 -0.074803494 1.1601092 4027837
0.13668157 -0.078486785 1.1586819 3896505
-0.10752953 -0.059686139 1.1607264 3829940
-0.10406 -0.059776034 1.1633821 3699127
0.13026533 -0.06515146 1.1613035 4291009
-0.10687756 -0.049560115 1.1601406 3895737
-0.1031694 -0.048819609 1.1633248 4027576
0.13079213 -0.055125427 1.1605854 4422849
-0.1055425 -0.042897418 1.1593033 4158911
-0.10096353 -0.03929349 1.1612703 4093372
0.13096035 -0.045384824 1.1600366 4817355
-0.096999504 -0.029986218 1.1607496 4093630
-0.092154913 -0.026643895 1.1631786 4094397
0.1237612 -0.034463301 1.1607283 5080014
0.12819266 -0.037781656 1.1585081 4883149
-0.094709344 -0.022432536 1.1591661 4028348
-0.090140425 -0.019972958 1.1606388 4028864
0.1194924 -0.024720125 1.1602497 4949202
-0.086355008 -0.010463901 1.1608974 4029123
-0.082078226 -0.00831756 1.1630545 3963586
0.11364056 -0.014712244 1.1611083 5146069
0.11697056 -0.019209228 1.1584529 5080276
-0.085372292 -0.0026727766 1.1590374 5342665
-0.078188673 -0.00066965073 1.1630038 4882633
-0.014658677 0.0016243383 1.1627831 6070261
-0.0079805097 0.0014692694 1.1627619 6528744
-0.0013023457 0.0013142005 1.1627407 8827627
0.014280043 0.00095237046 1.1626911 10340848
0.023010502 0.00011329353 1.1626666 8895736
0.030499253 -0.00076058507 1.1626462 6266608
0.1048861 -0.0017133802 1.1614059 5475287
0.10927983 -0.0053426474 1.1597428 5475028
-0.074583888 0.0052291825 1.1609626 5999306
-0.067899033 0.0061837658 1.1609359 5540557
-0.059257641 0.0093155354 1.1602253 5803727
-0.046493996 0.010777585 1.1628426 4950220
-0.037559662 0.0094452798 1.1628197 5016280
-0.027851935 0.008606568 1.162392 5411294
-0.0178128 0.0083506405 1.1605202 5806569
-0.0078207785 0.0081396848 1.1621283 7120874
0.0017849067 0.008666642 1.1626941 12379901
0.01235657 0.0078840256 1.1601368 13891069
0.022162165 0.0074142292 1.1594331 12969723
0.032123331 0.0074244887 1.1602845 9946095
0.042188801 0.006961152 1.1606563 10013177
0.051965866 0.0086139888 1.1603752 7449069
0.058671199 0.010315374 1.1624985 5411552
0.10206123 0.0022347048 1.1598957 6526426
-0.044400498 0.015678383 1.1628114 6264275
-0.036797184 0.016293027 1.1602833 5803990
-0.027212437 0.016693145 1.1587497 5345755
-0.017178446 0.017722286 1.1587116 5412839
-0.007574887 0.018095061 1.1591781 5676266
0.0014470518 0.016975865 1.1615111 7253489
0.011266951 0.016556948 1.1596237 8436213
0.021189153 0.014089502 1.1586032 12051453
0.035711955 0.018191516 1.158535 10082302
0.04353328 0.017270036 1.1585139 10607102
0.051996559 0.016227946 1.1584911 7515119
0.059023697 0.015457615 1.1598052 6068200
-0.0052261995 0.023581341 1.1586431 6001365
-0.00078932475 0.023478314 1.1586291 6396124
0.11181936 0.026634522 1.1582425 6447199
-0.0095231747 -0.20855159 1.1678085 3039391
-0.0019634617 -0.20814729 1.1692817 3039135
0.0094630402 -0.20899245 1.1677482 3104930
-0.03830177 -0.19670905 1.1678447 2776478
-0.031940795 -0.19774263 1.1698289 2842271
-0.022071008 -0.19960073 1.1719874 2907807
-0.012887415 -0.20167126 1.1724813 2908063
-0.0028870208 -0.20274791 1.173558 2973600
0.0074529219 -0.20200762 1.1730536 3105187
0.017384149 -0.20189159 1.1721008 3236773
0.027115956 -0.20078123 1.1713828 3237029
0.038059279 -0.20112064 1.1714151 3171237
0.047679219 -0.20230559 1.1690892 3171236
0.057231944 -0.20097029 1.1684742 3105444
0.066109464 -0.19969223 1.1675155 3171493
-0.050276764 -0.18754211 1.1710386 2841758
-0.042229678 -0.19003297 1.1718246 2907551
-0.033337686 -0.19133216 1.1746253 2842271
-0.022677813 -0.19276282 1.1757737 2908064
-0.015957188 -0.19404393 1.175758 2973857
0.0054074237 -0.19454004 1.1756901 3105444
0.01829936 -0.19383934 1.1756442 3237030
0.028335093 -0.19449231 1.1748143 3302823
0.038012393 -0.19393601 1.1746566 3171495
0.047403481 -0.19274667 1.1741515 3105703
0.057104636 -0.19323169 1.1739132 3105703
0.066914827 -0.19297066 1.1719795 3105702
0.075296 -0.1906742 1.1691549 3105958
-0.061380044 -0.17959186 1.1694828 2973598
-0.053412005 -0.18147641 1.1738189 2907551
-0.043559104 -0.18355882 1.1757969 2908065
0.068901233 -0.18459079 1.1754316 3237288
0.077728175 -0.18409415 1.1729555 3302823
0.08642783 -0.18226779 1.1699337 3237287
-0.07051716 -0.16810203 1.1706661 3105183
-0.063123278 -0.1716325 1.1739198 2974112
-0.05486948 -0.17401451 1.1757869 2842786
0.079385005 -0.17735697 1.1753612 3171750
0.08809226 -0.17395476 1.1739823 3172008
0.096183322 -0.17240843 1.1696146 3303081
-0.078423001 -0.15824409 1.1684527 3104930
-0.072231822 -0.16067952 1.1744446 3170978
0.090778366 -0.16566384 1.1752657 3303337
0.098582596 -0.16433613 1.1729833 3368873
0.10554263 -0.16320696 1.1697502 3237543
-0.08795134 -0.14522123 1.1704196 3040164
-0.081313275 -0.14912768 1.1715399 3105701
-0.075023502 -0.15367064 1.1757523 3302822
0.10037191 -0.15534326 1.1751829 3303597
0.10781548 -0.15310992 1.1707835 3238059
0.11495294 -0.15022475 1.1691093 3303852
-0.090241857 -0.13882601 1.1715065 3106213
-0.082511775 -0.14102745 1.1757143 3172007
0.10893948 -0.14404294 1.1748986 3369387
0.11686919 -0.14400671 1.1710722 3435181
-0.097164199 -0.12843706 1.1690333 3237030
-0.090593889 -0.12924179 1.1733491 3237800
-0.084290408 -0.13282952 1.1756796 3303594
0.11089902 -0.13803692 1.1750624 3500972
0.11939503 -0.13397092 1.1717643 3500976
0.12412939 -0.13120009 1.1669848 3500977
-0.098082751 -0.11914684 1.170768 3237545
-0.093445793 -0.1209002 1.1747617 3303852
0.12141413 -0.12448047 1.1749606 3566772
0.12471489 -0.12490812 1.1709517 3566515
-0.10036875 -0.10938071 1.1708661 3369389
0.12249202 -0.11496935 1.1749098 3763639
0.12586045 -0.11413621 1.1700057 3763639
-0.10683716 -0.095398948 1.1689013 3435181
-0.10154091 -0.099194191 1.1721408 3435438
0.12339175 -0.10390045 1.174852 3895737
0.12836099 -0.10392182 1.1696591 3764149
-0.10618322 -0.088930398 1.1699338 3435438
-0.10081426 -0.089666255 1.1739814 3501231
0.12352221 -0.098278224 1.1748236 3961530
0.12897517 -0.094449267 1.1696101 3961528
0.13623071 -0.091253616 1.1667469 3895735
-0.10568527 -0.079684846 1.1704863 3501489
-0.10140377 -0.079547599 1.1733539 3501490
0.12393969 -0.080287106 1.1747332 4159679
0.1295253 -0.085118264 1.1700113 3962041
0.13628255 -0.089019969 1.1667356 3895735
-0.10598718 -0.072339557 1.1694509 3501747
-0.101097 -0.069248706 1.1720861 3567541
0.12333791 -0.073897846 1.1747034 4225473
0.1270057 -0.0745055 1.1706942 4159424
-0.099091344 -0.059146095 1.1709628 3764919
0.12329387 -0.065021418 1.1746595 4422597
0.12723972 -0.064419776 1.1706434 4357059
-0.098372705 -0.049388539 1.1707406 3896505
-0.093604133 -0.049359489 1.1752963 3962298
0.12341534 -0.05439876 1.1746064 4685767
0.12747376 -0.054334044 1.1705927 4422851
-0.096706182 -0.04030804 1.1688615 4027836
-0.091634981 -0.038634177 1.1741457 4028094
0.12177963 -0.04377494 1.1724415 4948684
0.12761699 -0.045831714 1.16755 4751818
-0.094827294 -0.032251738 1.1672153 4093632
-0.08915782 -0.028903238 1.1730263 4094399
0.11528159 -0.033208944 1.1745281 5080784
0.11955271 -0.034399733 1.1697199 5211343
-0.085719213 -0.020545729 1.171491 4094402
-0.079112761 -0.017621197 1.1740911 4226244
-0.072581217 -0.016096123 1.1750621 4620744
-0.018581364 -0.016224973 1.1748849 5412064
0.0039076973 -0.016747169 1.1748134 6463211
0.011888282 -0.0207709 1.1748071 6397929
0.021588065 -0.020355225 1.1747731 6397929
0.030864757 -0.018658891 1.1747341 6003432
0.11248534 -0.023875132 1.171991 5081042
0.11760483 -0.027127616 1.1664902 5081041
-0.077588864 -0.0098683909 1.1689142 4160963
-0.069475092 -0.0090937391 1.17416 4752075
-0.05435513 -0.0063938797 1.1749539 4949201
-0.047621455 -0.0071127713 1.1749353 5016022
-0.038070828 -0.0084578618 1.1742438 5213659
-0.028265633 -0.0095927641 1.1736531 5411552
-0.018438928 -0.010600954 1.1740565 5740773
-0.0083308322 -0.010837734 1.1748244 6003172
0.0017868625 -0.011071637 1.1743922 6331366
0.011874404 -0.011293426 1.17176 6989552
0.021974947 -0.011530146 1.172128 6792432
0.032056686 -0.011759989 1.1714458 5937640
0.040571094 -0.011031233 1.1736642 5806054
0.051317379 -0.0099726915 1.1746236 5674725
0.058090188 -0.0090048984 1.1745965 5674983
0.10385296 -0.012598895 1.1744636 5146841
0.10980284 -0.014828414 1.1687406 5080789
-0.073998615 -0.0014473423 1.166994 4554184
-0.070523597 -0.00068629533 1.1699787 4751049
-0.055258587 -0.0007577166 1.1729289 4818129
-0.047820363 -0.00093217939 1.1721053 5015507
-0.038293291 -0.0011567995 1.1686749 5147609
-0.028192241 -0.0013934299 1.1673428 5346018
-0.018554311 -0.0019864514 1.1699251 5937898
-0.008124453 -0.00297416 1.1701179 6462952
0.0023436015 -0.0024737865 1.1691921 8303605
0.011709444 -0.0027994141 1.168147 8501495
0.021538945 -0.0040100068 1.1673074 7252467
0.032860339 -0.0037257895 1.1681079 6069484
0.042034402 -0.0028465614 1.1689346 6135528
0.052145291 -0.003449589 1.1720003 5741031
0.061542168 -0.0034638792 1.1735576 5543655
0.071052223 -0.0023824871 1.174521 5477092
0.081145421 -0.0012898743 1.1744823 5739747
0.092509083 -0.0018037558 1.1744474 5280481
0.10165404 -0.0046606511 1.1707391 5015513
0.10708826 -0.0067710504 1.1684239 4949463
-0.067142107 0.00509803 1.1669389 4818122
-0.057687998 0.0058717579 1.166904 5147606
-0.048984222 0.0064145997 1.1668726 4818639
-0.040338043 0.0044756234 1.1668537 5344472
0.004348374 0.0039967075 1.1667089 12971007
0.0088027623 0.003334552 1.1666975 12905215
0.033373155 0.0027640164 1.1666194 5807584
0.046775192 0.0024528205 1.1665769 6004710
0.05286023 0.0032693222 1.1665528 5807083
0.061714299 0.0055510774 1.1686456 5477863
0.070214339 0.0049309209 1.171154 5542628
0.081964627 0.0016912371 1.1744648 5673698
0.092571281 0.0033967048 1.1729214 5804766
0.098149657 0.0012598857 1.1664135 5147865
0.064903721 0.013206169 1.1664637 5412324
-0.0092878817 -0.1970994 1.1797512 3039650
-0.0028556315 -0.19789383 1.179734 3039650
-0.029413328 -0.18873006 1.179776 2842271
-0.02264376 -0.18888727 1.1797545 2973857
-0.012342435 -0.19021185 1.1809902 2973857
-0.0026294356 -0.19218434 1.1822312 3039395
0.0080700181 -0.19050145 1.181439 3171237
0.017404497 -0.18930319 1.1806912 3237030
0.027761785 -0.18899071 1.1811274 3302569
0.036094692 -0.18932647 1.1808965 3237546
-0.04883422 -0.17779684 1.1797857 2908065
-0.041281186 -0.1789398 1.1797665 2973857
-0.032639068 -0.18089975 1.1807477 2973857
-0.02293564 -0.18302108 1.181844 2973858
-0.014658236 -0.18403316 1.1837041 3105444
0.017039727 -0.18476918 1.1836034 3237030
0.028772809 -0.1835314 1.1835586 3302825
0.037711669 -0.18328525 1.1832203 3171754
0.047548801 -0.18404065 1.1814992 3171752
0.057897601 -0.18386033 1.180876 3171753
0.066404089 -0.18094134 1.1804217 3237546
0.074674726 -0.17872956 1.1793835 3303592
-0.059789956 -0.16808149 1.1797737 2908579
-0.05164215 -0.17043117 1.1817585 2908579
-0.041841187 -0.17212453 1.1826437 3105444
-0.03322994 -0.17408746 1.1837159 3105443
0.061400607 -0.17673789 1.1834174 3303339
0.069480248 -0.17465815 1.1820471 3303082
0.077916808 -0.17275551 1.1799147 3237545
0.083910264 -0.16991311 1.1793094 3303850
-0.06855426 -0.15658936 1.1797456 3302822
-0.062036015 -0.16103607 1.1819961 3040165
-0.054992452 -0.16497383 1.1837424 3040167
0.072931454 -0.16794425 1.1833358 3303598
0.079082116 -0.16409561 1.1823553 3238061
0.087685965 -0.16224219 1.1803701 3303596
0.095428512 -0.16002081 1.1792225 3369131
-0.078088164 -0.14583194 1.1797236 3171751
-0.071743906 -0.14960624 1.1811332 3368615
-0.064918399 -0.15341662 1.1837178 3171751
0.097400233 -0.15348211 1.1806835 3369134
-0.079898991 -0.1387345 1.1796944 3369130
-0.073817298 -0.1408212 1.1826847 3434922
0.098755151 -0.14383775 1.1821789 3435183
-0.081419989 -0.13009164 1.1809899 3434923
0.10167177 -0.13680786 1.1822867 3501232
0.10850116 -0.13383622 1.1816378 3435694
0.11526346 -0.13225985 1.1790195 3501232
-0.089383014 -0.11876172 1.1806265 3369646
-0.083747596 -0.12263927 1.1822939 3435182
0.11244632 -0.12468761 1.1829911 3567282
0.11655588 -0.12425926 1.1807936 3567027
-0.097480565 -0.1058715 1.1795893 3501231
-0.092978932 -0.1098939 1.1823444 3435439
0.11263021 -0.11676317 1.1829512 3829686
0.11779276 -0.11407848 1.1811432 3829431
-0.097402021 -0.10248674 1.1795722 3501231
-0.09293589 -0.099340901 1.1812086 3567024
0.12031868 -0.10475227 1.1815331 3830201
-0.097074769 -0.08838357 1.1795013 3632818
-0.093856253 -0.089168891 1.1814946 3698612
0.12267972 -0.094196938 1.1808063 3896507
-0.096852235 -0.078793414 1.179453 3633333
-0.09300366 -0.079064533 1.1822417 3764919
0.12275046 -0.083989903 1.1802554 4093886
-0.097099334 -0.069982558 1.1794101 3633334
-0.093030334 -0.069127165 1.1825925 3830201
0.11997317 -0.074294433 1.1809387 4291523
-0.09237314 -0.058845308 1.181006 3896506
0.11972482 -0.063804448 1.1802653 4619975
-0.088872105 -0.049372822 1.1809951 4028348
0.11412752 -0.052235655 1.1826264 5146320
0.11850007 -0.054563742 1.1816235 4883148
-0.086941056 -0.040007196 1.1795137 3962814
-0.081921734 -0.038751405 1.1820624 3963072
0.11333549 -0.043395169 1.1810851 5146577
0.11705357 -0.045114376 1.1790814 5080527
-0.085356936 -0.030970842 1.179178 4028607
-0.079132289 -0.029357396 1.1812828 4291526
-0.029172532 -0.028520085 1.1829808 5147865
-0.021695618 -0.028467163 1.1829559 5344731
-0.0053727971 -0.02794005 1.1828995 5345501
0.0014196262 -0.028097771 1.1828779 5739743
0.011540666 -0.030571811 1.1815234 5936862
0.020594325 -0.030788623 1.1818281 5871068
0.030827176 -0.029913291 1.18279 5739228
0.048966572 -0.029201828 1.1827267 5213656
0.11166529 -0.034472652 1.1809464 4949970
-0.077189319 -0.021960273 1.1791064 4422856
-0.068642676 -0.01738587 1.1808738 4686797
-0.058248624 -0.016497791 1.1810169 4884690
-0.04788347 -0.018169634 1.1824911 4950486
-0.037451129 -0.019175321 1.1816283 5213659
-0.028917097 -0.020554744 1.1797404 5279707
-0.018783998 -0.021925643 1.1801138 5345244
-0.0085839434 -0.020530224 1.1799845 5411808
0.0012463545 -0.021873593 1.1797566 5806052
0.010504656 -0.025219493 1.1788337 6068964
0.02253072 -0.025875032 1.1787974 6068963
0.032623302 -0.023723394 1.1796765 6003173
0.041120566 -0.022197343 1.1805179 5608417
0.051320024 -0.022440456 1.1810855 5411038
0.058180742 -0.022619747 1.1826638 5279709
0.1028985 -0.021905527 1.1815898 5212630
0.10845401 -0.025634982 1.1798464 5015248
-0.064818352 -0.011805572 1.1790153 4949712
-0.058048777 -0.011962764 1.1789937 4949713
-0.047894418 -0.012198552 1.1789615 5016279
-0.038500968 -0.012792952 1.1789335 5213659
-0.029868409 -0.013745978 1.1789098 5345501
0.04291755 -0.014871664 1.1786757 5871590
0.051392607 -0.01450403 1.1786458 5871847
0.06170544 -0.012500204 1.180602 5543139
0.069016166 -0.011539117 1.1808589 5280225
0.093537599 -0.012114033 1.1824952 5411294
0.09935654 -0.013675839 1.1799383 5279196
0.071333535 -0.0065006167 1.1785405 5411556
0.080963038 -0.0050309151 1.1785015 5412066
0.092245653 -0.0052928999 1.1784656 5477344
0.098962858 -0.0077065974 1.1784555 5213404
-0.0015110308 -0.18759501 1.1876786 3105189
-0.02167679 -0.1786539 1.1887007 3039906
-0.012026505 -0.18101092 1.1891092 3039908
-0.0025151493 -0.18238354 1.1909894 3105447
0.0081007611 -0.18186608 1.1883686 3105702
0.017208582 -0.18083197 1.1875834 3171750
0.026201937 -0.18062752 1.1875528 3237289
0.037707109 -0.17903498 1.187507 3237548
0.047930017 -0.17927235 1.1874745 3171752
0.057017047 -0.17948337 1.1874456 3171752
-0.049058698 -0.16656461 1.1877309 3039909
-0.041225243 -0.16747348 1.1885985 3105701
-0.033127014 -0.1703037 1.1902424 3105443
-0.02365059 -0.17591158 1.1916937 3040163
0.0071421163 -0.17571434 1.1915913 3105960
0.018564845 -0.17486462 1.1915494 3105958
0.027692679 -0.17356879 1.1907129 3237545
0.038109168 -0.17275491 1.1895798 3237547
0.048155196 -0.17267773 1.189041 3237544
0.058222264 -0.17268378 1.1890922 3237545
0.066915296 -0.17090201 1.1880372 3303339
-0.060085133 -0.15687576 1.1877192 3172009
-0.051730193 -0.1602228 1.1901083 3105961
-0.04244284 -0.16264692 1.1916897 3171752
0.041576024 -0.16602322 1.1914297 3303337
0.048414148 -0.16618201 1.191408 3303593
0.058531187 -0.16543955 1.191371 3303594
0.067792818 -0.16304547 1.1900786 3303596
0.074639209 -0.16170883 1.1872994 3238062
-0.067270666 -0.1481853 1.1876998 3434409
-0.061562218 -0.15006706 1.1905138 3237547
-0.053276397 -0.15262511 1.1916757 3237805
0.068927951 -0.15576221 1.1912887 3238318
0.078286901 -0.15305147 1.1901245 3238572
0.088407934 -0.1530804 1.1884112 3434926
0.094916992 -0.15263325 1.1871877 3369134
-0.06939739 -0.13909525 1.1888925 3435179
-0.063494302 -0.1412316 1.1912085 3369388
0.083080776 -0.14646171 1.191196 3500977
0.088779941 -0.14305912 1.1901604 3435186
0.094226167 -0.14322227 1.1871432 3500720
-0.077662334 -0.12815912 1.1886348 3566511
-0.072022676 -0.13116151 1.1902977 3566767
-0.064866967 -0.13390395 1.1916211 3500977
0.090422302 -0.13545968 1.1906173 3501234
0.09835691 -0.13321535 1.18783 3501490
-0.08695212 -0.11477031 1.1875989 3566770
-0.080291256 -0.11949649 1.1902004 3632306
-0.073772907 -0.12457481 1.1916041 3632563
0.10036527 -0.12458624 1.1896188 3699127
0.10783 -0.12348273 1.1874712 3633076
-0.088027433 -0.10915029 1.1885746 3566770
-0.082034856 -0.11017317 1.1915599 3763892
0.10147317 -0.11553073 1.1909821 3633335
0.10819151 -0.11350404 1.1885054 3764407
-0.087919429 -0.099060766 1.1903242 3698868
-0.083586685 -0.099767298 1.1915134 3699126
0.10232071 -0.10357733 1.19092 3962811
0.10885284 -0.10382333 1.189733 3830969
0.11656182 -0.10423464 1.1868763 3830714
-0.088867947 -0.089089535 1.188401 3699126
-0.083607823 -0.089757569 1.1914638 3830712
0.10978415 -0.093899131 1.1902474 4028606
0.11793116 -0.094200447 1.1868221 3962300
-0.088065557 -0.079616711 1.1890283 3830970
-0.083150208 -0.079396963 1.191411 3962813
0.11026792 -0.08484643 1.1908009 4291522
0.11814531 -0.08463484 1.1871376 4094399
-0.088133037 -0.069542915 1.1890929 3962044
-0.083256714 -0.069946349 1.1913645 4093630
