# .PCD v0.7 - Point Cloud Data file format
VERSION 0.7
FIELDS x y z rgba
SIZE 4 4 4 4
TYPE F F F U
COUNT 1 1 1 1
WIDTH 1127
HEIGHT 1
VIEWPOINT 0 0 0 1 0 0 0
POINTS 1127
DATA ascii
0.1175139 -0.18480919 1.1355822 2909086
0.12245071 -0.18413368 1.1332184 3105187
-0.10937575 -0.16119495 1.132257 2709911
-0.10493635 -0.16631198 1.1348269 2644371
0.12431631 -0.17436084 1.1334239 3368356
-0.1114709 -0.15443102 1.1337928 2775444
-0.10665035 -0.15868883 1.1348207 2709910
0.12908322 -0.16462462 1.1340005 3368613
0.13339253 -0.16187987 1.1322838 3499683
-0.11437877 -0.14577331 1.1331108 2841497
0.13114564 -0.15714212 1.1360884 3237027
0.13596822 -0.15471606 1.1333175 3302821
-0.11989536 -0.13402888 1.1316882 2645144
-0.1164735 -0.13576947 1.1343032 2775964
0.13943823 -0.14487165 1.1337533 3237542
0.14365096 -0.14147775 1.1327615 3106215
-0.12142726 -0.12554066 1.1322157 2907291
0.14114946 -0.13536197 1.1338391 3499683
0.14431976 -0.13355806 1.1322383 3303338
-0.12206031 -0.11555517 1.1327426 3039134
0.14623453 -0.12512542 1.1321533 3499947
-0.12669808 -0.10119609 1.1297376 3236770
-0.12469212 -0.10541639 1.1332511 3236770
0.14833751 -0.11467803 1.1321213 3500458
-0.12646839 -0.094725862 1.1294659 3237027
-0.12475655 -0.094980501 1.1334801 3302821
0.1510767 -0.10420926 1.1321496 3632048
-0.12612386 -0.08502052 1.1290584 3302824
-0.12443002 -0.085782014 1.1330937 3302569
0.14966506 -0.095276788 1.1316705 3632047
-0.12623405 -0.075946905 1.1286772 3434408
-0.1233748 -0.073513538 1.1325786 3434665
0.14666587 -0.084141627 1.130839 4026292
-0.1254348 -0.065609843 1.1282432 3631531
-0.1236809 -0.064679615 1.1322076 3631531
0.14705552 -0.076236747 1.129132 4157366
-0.12520511 -0.059139621 1.1279715 4025255
-0.12187503 -0.054040294 1.1300451 3632304
0.14693701 -0.064464539 1.1281929 4289211
-0.1180978 -0.045208279 1.1291022 3568048
0.1441645 -0.053572774 1.1284028 4094399
0.14633894 -0.057980094 1.1299224 4224702
-0.11657552 -0.039290506 1.1271379 3764911
-0.11298422 -0.034999203 1.1294599 3895729
0.14190787 -0.045040525 1.1288331 4487616
-0.11714726 -0.021043226 1.1293743 6458567
-0.11234825 -0.02501028 1.1289402 3895996
0.14222881 -0.034061499 1.1273166 5735616
0.14920303 -0.031073287 1.1267906 9477559
-0.11661337 -0.01833801 1.1302615 6852289
-0.113364 -0.018453158 1.1302663 5933254
0.056856688 0.076932736 1.1222558 9474701
-0.028768267 -0.2248846 1.1509451 7248329
0.0040026717 -0.22767067 1.150261 5801654
0.012060771 -0.2268495 1.1496928 5210039
0.024825862 -0.22787875 1.1510704 6328255
0.032487713 -0.22815028 1.1510817 7379645
0.044045608 -0.2284382 1.1510937 8430007
0.052054971 -0.22711673 1.1470345 8625323
-0.066363163 -0.21576433 1.1425554 9678537
-0.055544298 -0.21587569 1.149092 4422071
-0.046235997 -0.21681982 1.1506065 2778029
-0.036543194 -0.21897781 1.1506971 2513574
-0.029029593 -0.22195542 1.150822 2315684
0.00086222403 -0.22374466 1.1508969 2120102
0.012902274 -0.22417131 1.1509148 2185635
0.026075697 -0.2235432 1.1508883 2186146
0.031509623 -0.22483072 1.1509423 2316696
0.046910971 -0.22318655 1.1508732 4486314
0.054480832 -0.22314388 1.1488695 5997746
0.065728307 -0.22054762 1.1496183 6063288
0.074445538 -0.21934447 1.1507115 6589614
0.082537428 -0.21985021 1.1507328 8757678
-0.071373791 -0.20362598 1.1420456 1855898
-0.064745188 -0.20623314 1.145396 2249885
-0.057148214 -0.2086426 1.1495353 2381985
-0.04909886 -0.21102458 1.1503632 3039902
0.068623498 -0.21355385 1.1504685 2841504
0.074662924 -0.21322039 1.1504544 3302564
0.084303506 -0.21136299 1.1490418 4420011
0.094130255 -0.21106207 1.1446443 6984117
0.10366142 -0.20874131 1.142259 6254993
-0.08214093 -0.1926935 1.1423873 2710418
-0.074534915 -0.19607601 1.1461134 2775447
-0.067894392 -0.19842181 1.1490334 2906776
0.087029934 -0.20352942 1.149647 3171492
0.095584512 -0.20257665 1.1468045 3237285
0.10395958 -0.20183687 1.1425411 3629215
-0.084780395 -0.18548496 1.1460881 2775191
-0.076772369 -0.18915337 1.1487777 2906012
0.097867295 -0.19339019 1.1479533 3040421
0.1048668 -0.19209772 1.14451 3105703
0.11076129 -0.19268274 1.1415846 2777257
-0.099603072 -0.17109263 1.1406796 2710677
-0.09297815 -0.17506313 1.1443789 2709909
-0.086892016 -0.17878276 1.1470078 2709910
0.10631501 -0.18362164 1.1477362 3368100
0.11395824 -0.18224224 1.1432813 3302561
-0.10059866 -0.16438413 1.1435118 2710421
-0.095917419 -0.16722989 1.1477238 2644886
0.10864702 -0.17588201 1.1488862 3040936
0.11679517 -0.17316014 1.146683 3237031
0.12329914 -0.17061253 1.1436603 3368615
-0.10977851 -0.15115984 1.1398427 2776209
-0.10450859 -0.15562759 1.1447845 2841240
0.11912752 -0.16467115 1.1484153 3237287
0.1256592 -0.16289243 1.1431931 3302822
-0.11054268 -0.14429179 1.1440916 2710683
-0.10596643 -0.1476281 1.1470342 2841499
0.12821907 -0.15446077 1.1453959 3237541
0.13328457 -0.1520859 1.141481 3237798
-0.11236698 -0.13564801 1.1443387 2907293
0.13021375 -0.14565885 1.1476169 3237797
0.1350349 -0.1434968 1.1425215 3303334
-0.11825673 -0.12391265 1.1398424 2907805
-0.11611705 -0.12537017 1.1459661 2907805
0.13720633 -0.13410565 1.1446849 3434407
-0.11842559 -0.11453776 1.1409738 3039392
-0.11585026 -0.11558738 1.146356 3039391
0.13948822 -0.1246215 1.1441596 3500202
0.14373988 -0.12208665 1.1386198 3631274
-0.12124846 -0.10519405 1.1424499 3170979
0.14180306 -0.11434942 1.1458571 3631791
0.1452136 -0.11414395 1.1400656 3566510
-0.12128549 -0.094795763 1.1431952 3105957
0.14137514 -0.10327417 1.1441686 3632305
0.14657201 -0.10480662 1.1382277 3501227
-0.12131139 -0.084867425 1.1404905 3237546
0.14123943 -0.094237261 1.1429096 3698099
0.14584051 -0.094991922 1.1378822 3698094
-0.12034307 -0.075145908 1.1403205 3434923
0.1428038 -0.084998168 1.1430676 3895479
0.14497352 -0.087335341 1.1371604 3895477
-0.11959364 -0.064691722 1.1405011 3566256
0.14346318 -0.073665738 1.1439261 4027579
0.14597596 -0.073318914 1.1405753 4157882
-0.11828364 -0.055862144 1.1393734 3567024
0.1417627 -0.064091392 1.1430138 4159422
0.14608435 -0.064576879 1.1386068 4289724
-0.11562166 -0.046214048 1.1367701 3567791
-0.11245152 -0.044169128 1.1420224 3764403
0.14040977 -0.054070897 1.1411016 4356797
-0.11039446 -0.035564423 1.1355604 3830196
0.13808836 -0.044447351 1.1397634 4619718
-0.10853589 -0.024633378 1.137441 3896507
0.13442154 -0.032407042 1.139747 4817095
0.13892592 -0.033278961 1.1365585 4948420
-0.1158144 -0.015158251 1.138135 6916535
-0.1083486 -0.015965879 1.1378609 5210049
0.13380207 -0.025906801 1.141587 5013440
0.13827497 -0.025746174 1.1392449 5998788
0.036165271 0.051436551 1.1341934 5859448
0.044360671 0.051145606 1.1323467 6122362
0.049921755 0.051202931 1.1353469 6319482
0.061072089 0.052241974 1.1393068 5330522
0.036904477 0.055792548 1.1324853 5792108
0.044755284 0.056336947 1.1319286 5527648
0.0500765 0.055562057 1.1351639 5067354
-0.02302666 -0.2249347 1.1539496 4354997
-0.015708096 -0.22613737 1.1560019 4684224
-0.0058061806 -0.22625551 1.1545388 4289976
0.0052479366 -0.22436833 1.1539257 2054307
0.015653824 -0.22528601 1.1539642 2777510
0.021101931 -0.22657689 1.1540183 4026798
0.037563004 -0.22716022 1.1540426 5604271
0.041462306 -0.22565165 1.1539793 4881326
-0.041629113 -0.21392462 1.1534874 3039902
-0.033716872 -0.21510164 1.1540372 2710943
-0.025320835 -0.21719009 1.1569318 2645152
-0.015549944 -0.22025275 1.1604255 2514339
-0.0056110015 -0.22052372 1.159903 2514851
0.0043898541 -0.21843743 1.1582807 2842787
0.014284471 -0.21845677 1.1560795 2908579
0.023964114 -0.21838441 1.1565657 3039651
0.034127362 -0.21940085 1.1577204 2908578
0.043502852 -0.21887189 1.1574479 2778020
0.053587731 -0.21766558 1.1550736 2646433
0.063062802 -0.22074506 1.1537731 5012145
0.074540153 -0.22243255 1.1538438 8955830
-0.054354202 -0.20504452 1.1534007 2841242
-0.044590544 -0.20737687 1.155548 2775960
-0.035632472 -0.20888816 1.1575464 2841500
-0.026307281 -0.2112336 1.1613814 2907551
0.00539607 -0.21162011 1.1613973 3105184
0.014617629 -0.21157843 1.1613955 3170722
0.024562806 -0.21193084 1.1614103 3302053
0.034711745 -0.21173778 1.1614021 3170723
0.045242094 -0.21118975 1.161379 3105188
0.054596718 -0.21079984 1.1596467 3170467
0.064205229 -0.2110938 1.1557698 3236258
0.07446672 -0.2080981 1.1536866 3171236
-0.070558451 -0.19313872 1.1526148 2906776
-0.064110942 -0.19555503 1.1538601 2907033
-0.055700902 -0.19668305 1.1576012 2841497
-0.04659465 -0.20093425 1.1609491 2775704
0.055777699 -0.20529895 1.1611315 3105443
0.064617857 -0.20561221 1.1611446 3105443
0.075537972 -0.20233527 1.1597426 3105956
0.084001288 -0.19991335 1.1561009 3105956
-0.081143275 -0.18178543 1.1521381 2644884
-0.074204661 -0.18547297 1.1552956 2775705
-0.065940283 -0.18852577 1.1580927 2841497
0.079375029 -0.19508082 1.1607022 3172006
0.087112747 -0.19301534 1.1596146 3040421
0.093055665 -0.19098151 1.1570269 2974628
-0.089611143 -0.17270283 1.1517568 2645144
-0.083034962 -0.17457539 1.154897 2710425
-0.077831365 -0.17741714 1.1565301 2776216
0.096827462 -0.18246698 1.1569196 3171493
0.10188259 -0.18054822 1.1536862 3237026
-0.092363916 -0.16448113 1.1540021 2710424
-0.086076573 -0.1667468 1.1580579 2710937
0.09997084 -0.17591283 1.1598971 3302823
0.10644317 -0.1721904 1.1565801 3172005
0.11234694 -0.16929501 1.1556156 3172006
-0.10062917 -0.15291759 1.150926 2841498
-0.096326172 -0.15538347 1.155957 2907290
0.10920292 -0.16518563 1.1594466 3303592
0.11556733 -0.16208573 1.1579819 3237544
0.12186911 -0.15824065 1.1511477 3303337
-0.10209348 -0.14433834 1.1522816 2973342
-0.097615905 -0.14735499 1.1586995 3038879
0.1194721 -0.15443428 1.1583278 3237544
0.12393773 -0.1517541 1.1536778 3303336
-0.109705 -0.13254829 1.1510717 2973342
-0.10375535 -0.13573417 1.1557094 2973600
0.12766853 -0.14271262 1.1544992 3368872
-0.11100367 -0.12458447 1.1520914 3039392
-0.10560729 -0.12535791 1.1577759 3236259
0.12930331 -0.13325928 1.1558537 3500460
0.13381623 -0.13121857 1.150013 3434923
-0.11176134 -0.11489455 1.1522208 3170978
0.13066103 -0.12434202 1.1563967 3500719
0.13544144 -0.12215143 1.1529684 3500718
-0.11792529 -0.10363475 1.1488566 3237029
-0.11416342 -0.10488645 1.1549145 3237286
0.13609305 -0.11320344 1.155367 3697329
-0.11761392 -0.094863243 1.1484883 3237543
-0.115041 -0.094204612 1.1559672 3172263
0.13763353 -0.10417006 1.154482 3697843
-0.11757497 -0.085104041 1.1510811 3303340
-0.11546298 -0.083896987 1.1560348 3303852
0.13777819 -0.093715236 1.1544433 3764149
-0.1172921 -0.075479858 1.1476743 3500716
-0.11452772 -0.073875934 1.155614 3501229
0.14108774 -0.083458282 1.1525828 3764661
-0.11664086 -0.067452267 1.1473372 3566512
-0.11335026 -0.063964576 1.1515582 3632306
0.13846977 -0.07316377 1.1520495 3896764
-0.1124079 -0.054379623 1.1511557 3698357
0.13284448 -0.062834293 1.1538138 4291265
0.13663444 -0.064368866 1.1483495 4225217
-0.11047857 -0.045457665 1.1504171 3764408
0.13396692 -0.053301297 1.1527462 4554434
0.13657972 -0.053371411 1.1467438 4488640
-0.10714497 -0.034832601 1.1507715 3895997
-0.10291295 -0.031649306 1.1538407 4027323
0.13395824 -0.042547811 1.1512938 4817354
-0.10526487 -0.02551309 1.1469104 3962044
-0.10124814 -0.024204336 1.1527272 4093118
0.12507379 -0.029779501 1.1537603 5014224
0.13036741 -0.032866471 1.1498864 4751563
-0.10379854 -0.015212096 1.1451433 4290235
-0.098915257 -0.015066773 1.1496745 4158908
-0.092656784 -0.012851872 1.1530511 4028609
0.12366039 -0.022767358 1.1516865 4817874
0.13035041 -0.022938691 1.1464667 5145287
-0.096296996 -0.0086027384 1.1472678 4487616
-0.09082552 -0.0059551224 1.151427 4356800
0.11525537 -0.0099670887 1.1509266 5276623
0.1214862 -0.01335492 1.1473513 5604813
0.13084123 -0.014962077 1.1460207 6720449
-0.088476948 0.0010021925 1.1524694 5671109
0.1135945 -0.0042842478 1.1521178 5802961
0.11993078 -0.0054493546 1.1480678 6787017
0.038122352 0.014202885 1.151914 12972031
-0.016744893 0.02597411 1.1494184 5869264
0.015507377 0.02126842 1.1516175 7515376
0.022983888 0.020634986 1.151644 8764660
0.032569606 0.019853145 1.1516768 10146554
0.039163139 0.018587738 1.1517298 10870005
-0.074142307 0.036066316 1.1429898 8028800
-0.069008105 0.036250316 1.142982 7305855
-0.012316617 0.027044624 1.1513752 5671370
-0.0090015596 0.026927151 1.1513801 5869265
0.014203851 0.026104838 1.1514144 6988787
0.018623929 0.025948197 1.151421 7185904
0.105129 0.031726204 1.1511776 6314850
-0.067611456 0.041201986 1.142774 8028802
0.10216036 0.035368808 1.1510247 6117979
0.078589104 0.046389408 1.142555 5593178
0.080783918 0.046311624 1.1425582 5658970
-0.020940576 -0.21422093 1.1655104 2973083
-0.015435769 -0.21552524 1.1655651 2973595
-0.0059973886 -0.21540153 1.1662271 2973598
-0.040506184 -0.20243517 1.1650157 2842012
-0.034179587 -0.20404591 1.1650832 2776219
-0.024932042 -0.20678955 1.1667235 2907806
-0.015391844 -0.20843801 1.1684282 2907807
-0.004859223 -0.20934433 1.1686417 2973599
0.0040987283 -0.20743492 1.1658925 3039136
0.014870889 -0.20679876 1.1665329 3170723
0.024847575 -0.20706093 1.1658766 3236770
0.03465689 -0.20697588 1.1652057 3170979
0.043705657 -0.20708323 1.1652101 3170980
0.050417606 -0.2056572 1.1651502 3171236
-0.051279832 -0.1931794 1.1646271 2842012
-0.044655163 -0.19561818 1.1661853 2842011
-0.035126921 -0.19817194 1.1673002 2842012
-0.026895344 -0.19984825 1.1689104 2907805
0.019507788 -0.20288393 1.1690375 3302309
0.025557246 -0.20198983 1.167856 3302308
0.034209795 -0.2022323 1.1665078 3171236
0.044952132 -0.20324503 1.165049 3171236
0.055620339 -0.20218 1.1666722 3105443
0.065505058 -0.20063592 1.16594 3171492
0.072117105 -0.1990312 1.1648718 3040420
-0.071954265 -0.18135434 1.1641307 2841497
-0.06328091 -0.18438785 1.1647917 2907291
-0.054941621 -0.18727687 1.1662632 2907549
-0.048312817 -0.18860802 1.1684386 2907551
0.068858288 -0.19350222 1.1686431 3040420
0.07593599 -0.19199151 1.1666832 3106213
0.083844513 -0.18975937 1.1644824 3106214
-0.073226951 -0.17474017 1.1658546 2907290
-0.066745989 -0.17778558 1.1674838 2973340
0.080300331 -0.18500328 1.1682861 3302823
0.086426765 -0.18293673 1.1657972 3237030
0.09268377 -0.17974505 1.165841 3237031
-0.090096422 -0.16074505 1.1632653 2841497
-0.081827708 -0.16449456 1.1639565 2842012
-0.075790748 -0.16684064 1.1665238 2907547
0.098138362 -0.17229156 1.1646726 3368361
0.10333484 -0.1692635 1.1636214 3237285
-0.091365106 -0.15478414 1.163015 2973085
-0.084596403 -0.15513393 1.1657689 3039135
0.10070042 -0.16528779 1.1634545 3368615
0.10733905 -0.16216296 1.1640512 3237799
0.11202466 -0.15903363 1.1631918 3303337
-0.098298483 -0.14159726 1.1624613 2973857
-0.092997894 -0.14524898 1.1641715 3039137
-0.087099537 -0.14623612 1.1666595 3104930
0.10959279 -0.15469125 1.1650112 3172264
0.11591434 -0.15208136 1.1635671 3238059
-0.099198401 -0.1333231 1.1631147 3039650
-0.095347181 -0.13692813 1.1662687 3105700
0.11949654 -0.14240465 1.1646491 3369132
0.12370283 -0.14280879 1.1625104 3434410
-0.10164947 -0.12464523 1.1634653 3171236
0.12167501 -0.13431771 1.1653566 3500719
0.12512688 -0.13218683 1.1640661 3435183
-0.10836423 -0.11240021 1.1612353 3302823
-0.103786 -0.11442968 1.1639894 3171495
0.1262463 -0.12213912 1.1634622 3566514
-0.10980387 -0.10365494 1.1623238 3368873
-0.10616846 -0.10488679 1.1641226 3368875
0.12928617 -0.11309866 1.1620634 3697588
-0.11038603 -0.094519399 1.1631534 3303850
0.13119318 -0.10345857 1.1642895 3763892
0.13444063 -0.10303468 1.16084 3698099
-0.11136716 -0.084326215 1.1616578 3435181
-0.10553256 -0.084921554 1.1640848 3435438
0.13257109 -0.093359172 1.1644372 3829942
0.13543552 -0.093031853 1.1615639 3764149
-0.10998883 -0.074687257 1.1616534 3501229
0.13304463 -0.080019325 1.163877 3896505
0.13733569 -0.083144799 1.1618246 3830455
-0.10904142 -0.064881511 1.1607796 3632563
-0.10470384 -0.061576825 1.1631045 3567542
0.13094051 -0.072895817 1.1610042 4027837
0.13604192 -0.076691419 1.1597338 3896505
-0.10792633 -0.054873448 1.160154 3829940
-0.10446707 -0.054906894 1.1628244 3699127
0.12978061 -0.063191451 1.1618359 4291009
-0.10714855 -0.044784702 1.1591966 3895737
-0.10344228 -0.043971695 1.1623652 4027576
0.13043243 -0.053206008 1.1607493 4422849
-0.10572929 -0.038174249 1.1581182 4158911
-0.10111316 -0.034555614 1.159968 4093372
0.13072166 -0.043495174 1.1598411 4817355
-0.097033828 -0.025322683 1.1591183 4093630
-0.092156857 -0.021951564 1.1614404 4094397
0.12365442 -0.032469183 1.1601009 5080014
0.12805235 -0.035920899 1.1580217 4883149
-0.094646126 -0.017861113 1.1572652 4028348
-0.090052404 -0.01540415 1.1586633 4028864
0.11950678 -0.022699475 1.159246 4949202
-0.086151809 -0.0059385523 1.1585841 4029123
-0.081856325 -0.0037657022 1.1606766 3963586
0.11377499 -0.012596563 1.1597114 5146069
0.11705858 -0.01722879 1.1572369 5080276
-0.085067615 0.0017658547 1.1564409 5342665
-0.077873334 0.0038274378 1.1603577 4882633
-0.014319635 0.005342558 1.1602936 6070261
-0.007643831 0.0051059946 1.1603035 6528744
-0.00096802879 0.0048694238 1.1603134 8827627
0.014608843 0.0043174326 1.1603364 10340848
0.023328416 0.003372401 1.160376 8895736
0.030805942 0.0024077967 1.1604165 6266608
0.10517928 0.00050941855 1.1594946 5475287
0.10953382 -0.0032318756 1.1579837 5475028
-0.074189834 0.0096025467 1.1581135 5999306
-0.067493744 0.01047451 1.1580768 5540557
-0.058812346 0.013472982 1.1572835 5803727
-0.046040595 0.014876373 1.1598935 4950220
-0.037123203 0.013436101 1.1599538 5016280
-0.027425088 0.012464695 1.1595943 5411294
-0.017383628 0.012018107 1.1577713 5806569
-0.0074003758 0.01174593 1.1594241 7120874
0.0022090944 0.012177184 1.1600064 12379901
0.012778888 0.011172481 1.1575201 13891069
0.022580301 0.010558285 1.1568714 12969723
0.032537941 0.010479502 1.1577597 9946095
0.042595688 0.0099084675 1.1581867 10013177
0.052393138 0.011431292 1.1578816 7449069
0.05911164 0.013128877 1.159966 5411552
0.10240801 0.0044327527 1.1578287 6526426
-0.043887198 0.019746967 1.1596889 6264275
-0.036268506 0.020175464 1.1571686 5803990
-0.026674505 0.020402461 1.1556578 5345755
-0.016628601 0.02130796 1.1556196 5412839
-0.0070228139 0.021581493 1.1561085 5676266
0.0019768951 0.020440355 1.1585156 7253489
0.011797195 0.019832984 1.1566823 8436213
0.021691823 0.01720953 1.1557915 12051453
0.036263879 0.021130122 1.1556267 10082302
0.044073369 0.020113885 1.1556693 10607102
0.052523289 0.018969312 1.1557174 7515119
0.05953604 0.018163197 1.1570857 6068200
-0.0046053985 0.027015366 1.1553799 6001365
-0.00017009303 0.026858196 1.1553864 6396124
0.11246944 0.02863469 1.155311 6447199
-0.011773081 -0.20454973 1.1731113 3039391
-0.0042139562 -0.20418265 1.1745971 3039135
0.0072064167 -0.20522229 1.1731393 3104930
-0.040404569 -0.19236651 1.1725999 2776478
-0.034063403 -0.1934028 1.1746451 2842271
-0.024224363 -0.195299 1.1769084 2907807
-0.015068497 -0.19746082 1.1775134 2908063
-0.0050856853 -0.19861782 1.1786672 2973600
0.0052641733 -0.19802192 1.178175 3105187
0.01519921 -0.19806147 1.1772562 3236773
0.024946224 -0.19709635 1.1765345 3237029
0.035884406 -0.19756678 1.176621 3171237
0.045496855 -0.19895341 1.1743771 3171236
0.055067211 -0.19775751 1.1737493 3105444
0.063962862 -0.19662338 1.1727778 3171493
-0.052277137 -0.18294328 1.1754071 2841758
-0.044263795 -0.18550056 1.1763151 2907551
-0.035397783 -0.18680264 1.1791958 2842271
-0.024760123 -0.1883187 1.1804368 2908064
-0.018055659 -0.18968076 1.180494 2973857
0.0033013923 -0.19043759 1.1805255 3105444
0.016201017 -0.18989517 1.1805027 3237030
0.026230728 -0.19069985 1.1797357 3302823
0.035914585 -0.19026694 1.1795943 3171495
0.045321163 -0.18921086 1.1790812 3105703
0.055016398 -0.18982178 1.1788979 3105703
0.064835466 -0.18975131 1.1769931 3105702
0.073253512 -0.18766268 1.1741172 3105958
-0.063277021 -0.17492232 1.173516 2973598
-0.055347208 -0.17674124 1.1779492 2907551
-0.04552719 -0.17886809 1.1800401 2908065
0.066912696 -0.18127398 1.1801403 3237288
0.075753294 -0.18097627 1.1776811 3302823
0.084484711 -0.17936853 1.1746267 3237287
-0.072276786 -0.16328679 1.1742387 3105183
-0.064937584 -0.16678356 1.1776488 2974112
-0.056719843 -0.16919449 1.179634 2842786
0.077484377 -0.17417517 1.1798421 3171750
0.086237177 -0.17093199 1.1783713 3172008
0.094361112 -0.16964658 1.1739801 3303081
-0.080053963 -0.15342264 1.1716321 3104930
-0.073913127 -0.15570921 1.1777333 3170978
0.089020215 -0.16263235 1.1793573 3303337
0.096847698 -0.16148466 1.177057 3368873
0.10383181 -0.16056034 1.1738107 3237543
-0.089428768 -0.14022149 1.1730795 3040164
-0.082842775 -0.14416382 1.1743689 3105701
-0.076623209 -0.14862341 1.1787703 3302822
0.09873955 -0.15243882 1.1789291 3303597
0.10622457 -0.15046021 1.1744784 3238059
0.11340236 -0.14772564 1.1727258 3303852
-0.091644481 -0.13376313 1.1739204 3106213
-0.083956033 -0.13590059 1.1782361 3172007
0.10744566 -0.14126128 1.1782595 3369387
0.11538797 -0.1414628 1.1744645 3435181
-0.098430879 -0.12338991 1.1710383 3237030
-0.09188538 -0.12411368 1.1754057 3237800
-0.085634097 -0.12768866 1.1778913 3303594
0.10947797 -0.13527749 1.1782084 3500972
0.11803409 -0.13143957 1.1747942 3500976
0.12281796 -0.12890519 1.1699336 3500977
-0.09924148 -0.11403136 1.1724246 3237545
-0.094639711 -0.11569158 1.1764978 3303852
0.12015846 -0.12186237 1.177645 3566772
0.12346713 -0.12247815 1.1736672 3566515
-0.10140813 -0.10424135 1.1721525 3369389
0.12135281 -0.1123734 1.1772465 3763639
0.12474758 -0.11176334 1.1723275 3763639
-0.10769837 -0.090264693 1.1696473 3435181
-0.10245981 -0.094001159 1.1730452 3435438
0.1223881 -0.10132595 1.1767825 3895737
0.12737405 -0.1015998 1.1716129 3764149
-0.10696878 -0.08377073 1.1704422 3435438
-0.1016228 -0.084421076 1.1745346 3501231
0.12258744 -0.09571062 1.1765467 3961530
0.12810425 -0.092143692 1.1712158 3961528
0.13540791 -0.089144357 1.1682638 3895735
-0.10635959 -0.074517757 1.1706542 3501489
-0.10208635 -0.07432621 1.1735309 3501490
0.12322532 -0.077741578 1.1757921 4159679
0.12876718 -0.082811579 1.1712735 3962041
0.13548711 -0.086913444 1.1681701 3895735
-0.10656814 -0.067212753 1.1693465 3501747
-0.10164934 -0.064085819 1.1718842 3567541
0.12270187 -0.071350984 1.1755238 4225473
0.12637535 -0.072151087 1.1715537 4159424
-0.099516474 -0.054056771 1.1703954 3764919
0.12276659 -0.062482391 1.1751513 4422597
0.12673295 -0.062077727 1.1711307 4357059
-0.098677754 -0.044323556 1.1698151 3896505
-0.093924448 -0.044183493 1.1743846 3962298
0.12301823 -0.05187124 1.1747057 4685767
0.12709053 -0.052004375 1.1707077 4422851
-0.096893966 -0.035339728 1.1676077 4027836
-0.091820382 -0.033532776 1.1728455 4028094
0.12151986 -0.041315887 1.172143 4948684
0.12734798 -0.043622945 1.1673532 4751818
-0.094911143 -0.027373262 1.1656717 4093632
-0.089220606 -0.023880675 1.1713762 4094399
0.11514466 -0.030601971 1.1738126 5080784
0.11941695 -0.03202166 1.169068 5211343
-0.08567486 -0.01562801 1.1695459 4094402
-0.079041876 -0.012689345 1.1720611 4226244
-0.072495423 -0.011208519 1.1729997 4620744
-0.018500909 -0.011997432 1.1730324 5412064
0.0039801979 -0.012794085 1.1730657 6463211
0.011910927 -0.016911596 1.1732385 6397929
0.021615129 -0.016614892 1.173226 6397929
0.03091196 -0.01503358 1.1731595 6003432
0.11247133 -0.021335378 1.1709213 5081042
0.11756902 -0.024851128 1.1655641 5081041
-0.0774059 -0.0051526427 1.1666067 4160963
-0.06930086 -0.0042824671 1.1718509 4752075
-0.054151732 -0.0017382577 1.1726019 4949201
-0.047427338 -0.0025387928 1.1726354 5016022
-0.037891615 -0.0040240809 1.1720304 5213659
-0.02809912 -0.0052986816 1.1715193 5411552
-0.018286891 -0.0064100996 1.1719971 5740773
-0.0081850784 -0.0067405999 1.1728116 6003172
0.0019303877 -0.0071128085 1.1724268 6331366
0.012023212 -0.007554017 1.1698428 6989552
0.022118814 -0.0078991875 1.1702577 6792432
0.032199215 -0.0082761496 1.1696228 5937640
0.040714428 -0.0075688288 1.1718451 5806054
0.051469591 -0.0066056177 1.1728054 5674725
0.058253787 -0.0057215467 1.1727682 5674983
0.10396935 -0.0098716319 1.1729422 5146841
0.10991061 -0.012383476 1.1673282 5080789
-0.07370647 0.0031474233 1.1643898 4554184
-0.070232414 0.0039764047 1.1673576 4751049
-0.05497938 0.0038295463 1.1703663 4818129
-0.047541127 0.0035346821 1.169578 5015507
-0.038006093 0.0030678436 1.1661944 5147609
-0.027904294 0.0026597902 1.1649103 5346018
-0.018283036 0.00204622 1.1675494 5937898
-0.0078667467 0.00094015896 1.1678182 6462952
0.0026096879 0.0012791604 1.1669142 8303605
0.011974289 0.00080170482 1.1659174 8501495
0.021790996 -0.00055804104 1.1651605 7252467
0.03311228 -0.00038141012 1.165993 6069484
0.042293597 0.00041671097 1.1668214 6135528
0.052386031 -0.00019466877 1.1699457 5741031
0.061776772 -0.00026500225 1.1715382 5543655
0.071296066 0.00073615462 1.172497 5477092
0.081401944 0.0017043352 1.1724563 5739747
0.092758521 0.0010520071 1.1724836 5280481
0.10188021 -0.0020507723 1.1689181 5015513
0.10729591 -0.0043110922 1.1667033 4949463
-0.066770248 0.0096028 1.1641186 4818122
-0.057307314 0.010260209 1.164091 5147606
-0.048597485 0.010696135 1.1640726 4818639
-0.039975662 0.0086532831 1.1641583 5344472
0.0047017802 0.007628493 1.164201 12971007
0.0091477465 0.0069125071 1.1642311 12905215
0.03370944 0.0060421154 1.1642674 5807584
0.047106739 0.0055673569 1.1642872 6004710
0.053201359 0.0063086972 1.1642561 5807083
0.06207563 0.008559078 1.1662966 5477863
0.070559002 0.007929422 1.1688585 5542628
0.082257628 0.0046726167 1.1723316 5673698
0.09288945 0.0061912388 1.1707664 5804766
0.098463021 0.0037474632 1.1643633 5147865
0.065365769 0.016088925 1.1638452 5412324
-0.011437635 -0.19266671 1.1846228 3039650
-0.0050155679 -0.19353901 1.1846594 3039650
-0.031459138 -0.18405922 1.1842616 2842271
-0.024691965 -0.18429902 1.1842716 2973857
-0.014411815 -0.18570152 1.1855946 2973857
-0.0047278861 -0.1877441 1.1869445 3039395
0.0059939506 -0.18622133 1.1861314 3171237
0.015344842 -0.18516466 1.1853751 3237030
0.025703663 -0.18496163 1.1858387 3302569
0.034032561 -0.18540654 1.185652 3237546
-0.050744716 -0.17289886 1.1837929 2908065
-0.043206219 -0.17413309 1.1838448 2973857
-0.034592059 -0.1761598 1.1849307 2973857
-0.024919041 -0.17835636 1.1861415 2973858
-0.016660906 -0.17939895 1.1880691 3105444
0.015025837 -0.18052182 1.1881161 3237030
0.02677327 -0.17942864 1.1880701 3302825
0.035715558 -0.17930341 1.1877568 3171754
0.045548413 -0.18024105 1.1861023 3171752
0.055900674 -0.18020922 1.1855121 3171753
0.064443707 -0.17741224 1.1849824 3237546
0.07274422 -0.17534068 1.1838945 3303592
-0.061580662 -0.16305873 1.1833799 2908579
-0.053468902 -0.16543174 1.1854812 2908579
-0.043692414 -0.16720966 1.1864656 3105444
-0.035109464 -0.16923559 1.1876425 3105443
0.059482038 -0.17304045 1.1878015 3303339
0.067591064 -0.17111084 1.186386 3303082
0.076057352 -0.16939077 1.1842166 3237545
0.082087137 -0.16664548 1.1835294 3303850
-0.07020355 -0.1514703 1.1828933 3302822
-0.063747779 -0.15590918 1.1853316 3040165
-0.056758795 -0.15986449 1.1872492 3040167
0.07111983 -0.16439608 1.1874384 3303598
0.077320375 -0.16066113 1.1863395 3238061
0.085952848 -0.15898681 1.1843197 3303596
0.093725793 -0.15690333 1.1831201 3369131
-0.079604991 -0.14060648 1.1824372 3171751
-0.073312141 -0.14440249 1.1840096 3368615
-0.066542454 -0.14819683 1.1867592 3171751
0.095772482 -0.15033934 1.1843457 3369134
-0.081328727 -0.13349359 1.1821384 3369130
-0.075283058 -0.13554154 1.185227 3434922
0.097240299 -0.14066333 1.1854883 3435183
-0.082748182 -0.1247909 1.1831075 3434923
0.10024233 -0.13367008 1.1853472 3501232
0.1071097 -0.1308074 1.1846147 3435694
0.11389951 -0.12941106 1.1819655 3501232
-0.090570711 -0.11338665 1.1822951 3369646
-0.084988773 -0.11726771 1.1841261 3435182
0.11116196 -0.12166335 1.1856436 3567282
0.11528379 -0.12136646 1.1834474 3567027
-0.098506413 -0.10044663 1.1807508 3501231
-0.094063587 -0.10441841 1.18367 3435439
0.11144294 -0.11374863 1.1853112 3829686
0.11664397 -0.11119544 1.1834246 3829431
-0.098386407 -0.097066022 1.1806089 3501231
-0.093887627 -0.093916014 1.1821446 3567024
0.11928251 -0.10189245 1.1834788 3830201
-0.097886376 -0.082980163 1.1800174 3632818
-0.094684407 -0.083730012 1.1820506 3698612
0.12177493 -0.091400631 1.1823709 3896507
-0.097546354 -0.073401771 1.1796151 3633333
-0.093710743 -0.073615968 1.1824266 3764919
0.12197241 -0.081222609 1.1814431 4093886
-0.097685479 -0.064596206 1.1792454 3633334
-0.093617 -0.063672826 1.1824093 3830201
0.11931169 -0.07147558 1.1817566 4291523
-0.092828736 -0.053465504 1.180446 3896506
0.11919397 -0.061015498 1.1806946 4619975
-0.089212038 -0.044042993 1.1800979 4028348
0.11373077 -0.049300283 1.1826048 5146320
0.11807784 -0.051716678 1.1817054 4883148
-0.087161586 -0.034762729 1.1782784 3962814
-0.082135834 -0.033474233 1.1807979 3963072
0.11305214 -0.040514015 1.1807345 5146577
0.11675557 -0.042351142 1.1788099 5080527
-0.085465908 -0.025764845 1.1776146 4028607
-0.079229064 -0.024149992 1.1796819 4291526
-0.02926876 -0.023855127 1.1815374 5147865
-0.021791711 -0.023893662 1.1815389 5344731
-0.005463562 -0.023566611 1.1815251 5345501
0.0013264548 -0.02380722 1.1815351 5739743
0.011420942 -0.026452065 1.1803117 5936862
0.0204702 -0.026767008 1.1806585 5871068
0.030709721 -0.025980569 1.1816262 5739228
0.048856571 -0.025491543 1.1816055 5213656
0.11149171 -0.031583197 1.1802595 4949970
-0.077188455 -0.016862638 1.1772407 4422856
-0.068592437 -0.012329683 1.17887 4686797
-0.05818883 -0.011562787 1.1790197 4884690
-0.047849908 -0.013304204 1.1805941 4950486
-0.03742782 -0.014467359 1.1798087 5213659
-0.02890503 -0.016018964 1.1780056 5279707
-0.01879077 -0.017497636 1.1784679 5345244
-0.0085740322 -0.016231522 1.1783257 5411808
0.0012398008 -0.017701298 1.1781851 5806052
0.010459505 -0.021190904 1.1774217 6068964
0.022476703 -0.021992847 1.1774553 6068963
0.032591861 -0.019932434 1.1782926 6003173
0.041104298 -0.018479228 1.1791092 5608417
0.05129806 -0.018824585 1.1797241 5411038
0.05815075 -0.019028313 1.181334 5279709
0.10287724 -0.018895686 1.1804042 5212630
0.10839251 -0.022754118 1.1788211 5015248
-0.064693913 -0.0068687499 1.1768209 4949712
-0.057926733 -0.0071085542 1.1768309 4949713
-0.047775973 -0.0074682683 1.1768459 5016279
-0.038390458 -0.0081769526 1.1768756 5213659
-0.029770177 -0.0092346147 1.1769199 5345501
0.042996939 -0.01124911 1.177004 5871590
0.051475912 -0.010985434 1.1769929 5871847
0.061805889 -0.0090354905 1.1789126 5543139
0.069126919 -0.0081541091 1.1791615 5280225
0.093633883 -0.0089647844 1.1809111 5411294
0.099441789 -0.01069054 1.1784359 5279196
0.071513519 -0.0032333583 1.1766671 5411556
0.081160359 -0.0018827766 1.1766104 5412066
0.092438981 -0.0022824556 1.176627 5477344
0.099126145 -0.004776001 1.1767317 5213404
-0.0035716416 -0.18297002 1.1922226 3105189
-0.023629799 -0.17375377 1.1928366 3039906
-0.014010497 -0.17621064 1.1933687 3039908
-0.0045229895 -0.17762771 1.1953344 3105447
0.0061071678 -0.17733622 1.1927366 3105702
0.015229537 -0.17644221 1.1919483 3171750
0.024224769 -0.17634791 1.1919442 3237289
0.035748657 -0.17489754 1.1918833 3237548
0.045967951 -0.17525968 1.1918985 3171752
0.055051766 -0.17558157 1.1919118 3171752
-0.05085833 -0.16137815 1.1913162 3039909
-0.043039531 -0.16234899 1.1922467 3105701
-0.034982085 -0.16521418 1.1940249 3105443
-0.025579896 -0.17087877 1.1957185 3040163
0.0052130893 -0.17105818 1.1957258 3105960
0.016645437 -0.17034891 1.1956959 3105958
0.025791191 -0.16919553 1.1948467 3237545
0.036220592 -0.16855031 1.1937238 3237547
0.04626856 -0.16861475 1.1932207 3237544
0.056334574 -0.16874073 1.1933103 3237545
0.065052241 -0.16710465 1.1922231 3303339
-0.061765287 -0.15156363 1.1909043 3172009
-0.053459968 -0.15492074 1.1934472 3105961
-0.044208314 -0.15739685 1.1951525 3171752
0.03976335 -0.1617972 1.1953366 3303337
0.046599057 -0.16203943 1.1953467 3303593
0.056724489 -0.16142134 1.1953207 3303594
0.066018984 -0.15918905 1.1939758 3303596
0.07289049 -0.15803924 1.1911751 3238062
-0.068843842 -0.14279352 1.190536 3434409
-0.063168295 -0.14463872 1.1934394 3237547
-0.054918323 -0.14725207 1.1947266 3237805
0.067239106 -0.15188025 1.1949199 3238318
0.07663437 -0.14932796 1.1936917 3238572
0.086759962 -0.14954284 1.1920192 3434926
0.09327805 -0.14922014 1.1908045 3369134
-0.070863165 -0.13364044 1.1913835 3435179
-0.064994447 -0.13576084 1.1937993 3369388
0.081504904 -0.14276154 1.1945369 3500977
0.087248705 -0.13946888 1.1933978 3435186
0.09270259 -0.13980959 1.1904094 3500720
-0.078992762 -0.12262214 1.1906898 3566511
-0.073395871 -0.1256289 1.1924841 3566767
-0.066278711 -0.12840685 1.1939353 3500977
0.088982396 -0.13187817 1.1935793 3501234
0.096953146 -0.12983483 1.1907411 3501490
-0.088114515 -0.10916942 1.1891241 3566770
-0.081520729 -0.11387627 1.191924 3632306
-0.075069733 -0.11897763 1.1935394 3632563
0.099060945 -0.12117032 1.1922171 3699127
0.10654577 -0.12023756 1.1900584 3633076
-0.089124233 -0.10350452 1.1898872 3566770
-0.083154641 -0.10448857 1.1929311 3763892
0.100275 -0.1120846 1.1932485 3633335
0.10702589 -0.1102325 1.1907241 3764407
-0.088898636 -0.09335915 1.1912626 3698868
-0.084578872 -0.094073534 1.1924937 3699126
0.10126894 -0.10015284 1.1927475 3962811
0.10780152 -0.10052168 1.1915952 3830969
0.11551439 -0.1011318 1.188785 3830714
-0.089718632 -0.083455257 1.1889682 3699126
-0.08447735 -0.084072992 1.1920737 3830712
0.10885245 -0.090597242 1.1917456 4028606
0.11700659 -0.091123819 1.1883646 3962300
-0.088802502 -0.073976099 1.1892476 3830970
-0.083892837 -0.073727757 1.1916393 3962813
0.1094451 -0.08153677 1.1919656 4291522
0.11733671 -0.081556387 1.1883268 4094399
-0.088746935 -0.063906744 1.1889392 3962044
-0.083883531 -0.064284749 1.1912427 4093630
0.11140897 -0.070875607 1.191251 4554438
0.11622556 -0.071948044 1.1875594 4357059
-0.087767504 -0.053916212 1.1881384 4093886
-0.083165497 -0.053238701 1.1907789 4291009
0.10995128 -0.060308058 1.1901845 4686026
0.11597368 -0.06074236 1.1870888 4685769
-0.085899517 -0.046773206 1.1865039 4159935
-0.080813229 -0.044365615 1.1892624 4225985
0.10304688 -0.050068505 1.1906441 5015248
0.10908527 -0.051668439 1.1880424 5014991
-0.077450983 -0.03469995 1.1881163 4292037
-0.072160378 -0.037021454 1.1900977 4619977
-0.049132247 -0.030999228 1.1898446 5279449
-0.041157261 -0.031281836 1.1898564 5016538
-0.028665546 -0.032864209 1.1899228 4950743
-0.019208588 -0.034875385 1.1900072 4950488
-0.010111126 -0.03504134 1.1900141 5147351
0.00036598183 -0.034462851 1.1899897 5278422
0.010846341 -0.037185505 1.1892142 5212886
0.02021585 -0.036891177 1.1883399 5278423
0.030212365 -0.036387276 1.1888192 5147094
0.041092768 -0.037127197 1.1901013 4885460
0.050627306 -0.0359919 1.1893256 4950741
0.059750948 -0.035769466 1.190044 5016279
0.10190717 -0.040235825 1.1888301 5212370
0.10925759 -0.04176195 1.1862918 5212369
-0.07512337 -0.027821727 1.1877097 4423370
-0.0729381 -0.024721712 1.1871791 4554187
-0.048487853 -0.026011907 1.1893684 5147610
-0.038609639 -0.025705568 1.1876205 5081818
-0.029589798 -0.028299384 1.1877294 5016538
-0.018394839 -0.027254231 1.1878189 5278938
-0.0092727738 -0.026971184 1.1878068 5344730
0.0011597266 -0.028263859 1.1867934 5673948
0.011300629 -0.030907296 1.1858368 5805277
0.020384442 -0.031229191 1.1858503 5541848
0.030644003 -0.030456841 1.1858177 5475544
0.040943835 -0.028550044 1.1857376 5213397
0.051570032 -0.029519863 1.1864847 5082070
0.061282799 -0.029011473 1.1881589 5016536
0.070292905 -0.027090453 1.1896795 5213915
0.081069358 -0.026495457 1.1896545 5279453
0.091990307 -0.027338326 1.1896898 5213659
0.10131822 -0.030655079 1.1882275 5212628
0.10793696 -0.030924067 1.1858368 5146833
-0.072402455 -0.018853903 1.1853313 4554443
-0.047130443 -0.017932013 1.1852924 5016281
-0.039895609 -0.019097112 1.1853412 5147611
-0.0088157682 -0.021107212 1.1854254 5411294
0.062123362 -0.019077457 1.1853397 5148123
0.070840314 -0.019382536 1.1855526 5213915
0.080861993 -0.019902818 1.1871148 5213917
0.09161412 -0.02019383 1.1877041 5213659
0.099553347 -0.02229064 1.1858079 5212887
0.092644371 -0.013343588 1.1850986 5279708
0.097186282 -0.013504542 1.1851053 5411037
-0.019976392 -0.17161021 1.2007536 3106213
-0.014256182 -0.17181291 1.200762 3105959
-0.0030023782 -0.17286569 1.2008061 3105706
0.0074806293 -0.17258319 1.2007942 3105960
-0.030601341 -0.16436684 1.2004495 3105700
-0.0232208 -0.16584709 1.2012622 3105957
-0.0140637 -0.16617158 1.2012758 3106216
-0.0037637921 -0.16662183 1.2021453 3106217
0.0068896352 -0.16649133 1.2019682 3171752
0.014800146 -0.16629179 1.2016219 3303337
0.026109926 -0.16408756 1.2004373 3369130
0.032974176 -0.16433081 1.2004474 3369132
-0.042798508 -0.15271045 1.2002938 3171753
-0.033215381 -0.15536505 1.202794 3171752
-0.022939008 -0.15592524 1.2048992 3172010
-0.013804807 -0.15748882 1.2059156 3172012
-0.0037582191 -0.15739655 1.2067078 3237802
0.0069282642 -0.15709592 1.2061492 3303338
0.016125675 -0.15744165 1.2063638 3369133
0.026442716 -0.15764421 1.2046508 3369388
0.036583651 -0.15769629 1.2039616 3303853
0.0459054 -0.15693568 1.2018883 3369643
0.056035608 -0.15655187 1.2003561 3303851
-0.060106944 -0.14043182 1.1994447 3303598
-0.052102927 -0.14347219 1.201288 3303341
-0.043605518 -0.14537433 1.2047994 3303340
-0.034317523 -0.14702758 1.2077284 3369132
-0.026218064 -0.14919983 1.2078196 3303600
0.007179982 -0.15038335 1.2078691 3303598
0.019848209 -0.15083227 1.2078878 3435186
0.027333979 -0.15109754 1.2078989 3369391
0.037123058 -0.15144444 1.2079134 3369392
0.047033451 -0.14890584 1.2071908 3369390
0.056634404 -0.14832224 1.2035785 3435184
0.066072613 -0.14719215 1.1997274 3369392
-0.060810473 -0.13337126 1.1999488 3369646
-0.053766001 -0.13574693 1.2048528 3303853
-0.046621121 -0.13926008 1.2074023 3173034
0.049262088 -0.14081453 1.2074668 3566773
0.057489421 -0.13982391 1.2067579 3566516
0.067361802 -0.13841006 1.2037625 3500977
0.077249818 -0.13952318 1.2010911 3500975
-0.070548095 -0.12109626 1.1986327 3632562
-0.061784152 -0.12435971 1.2017723 3501236
-0.054281112 -0.12461939 1.2063428 3501494
0.069908686 -0.12927642 1.2069821 3698612
0.077458896 -0.12997845 1.2046459 3567283
0.086402319 -0.12796313 1.2018558 3567283
0.093925141 -0.12528971 1.1988075 3501747
-0.077397212 -0.11120727 1.1982175 3895478
-0.071908437 -0.11383862 1.2008302 3698613
-0.063059114 -0.11493966 1.2050467 3633080
0.071583115 -0.12271125 1.2067064 3699128
0.078251824 -0.11975716 1.2065823 3830713
0.087740712 -0.1197545 1.2053812 3699126
0.094609998 -0.11890491 1.1985394 3633333
-0.078420669 -0.10315969 1.1978796 3961271
-0.071694136 -0.10365216 1.2029046 3896247
-0.065055594 -0.10634831 1.2060205 3764921
0.078391843 -0.11281413 1.2062908 3962300
0.089337498 -0.11070967 1.2057313 3896506
0.096942134 -0.10931047 1.2001382 3764920
-0.079452164 -0.093744457 1.1989856 3830712
-0.072582655 -0.093351535 1.2041402 4093627
0.092685558 -0.099956408 1.2057507 4028352
0.098097533 -0.099761829 1.2004045 3962812
-0.079486303 -0.083408408 1.199052 3962556
-0.073094159 -0.084540866 1.2046599 4028606
0.092527866 -0.089549087 1.2053137 4357317
0.098929226 -0.090130448 1.2013346 4225985
0.10445708 -0.086750828 1.197189 4225985
-0.078675605 -0.074430704 1.1986749 4028606
-0.073920138 -0.074543715 1.2046849 4094655
0.0933391 -0.081546128 1.2049776 4554695
0.099247783 -0.07978829 1.2002997 4554182
0.10551734 -0.07839559 1.1968381 4619462
-0.078980073 -0.063833229 1.1966991 4159424
-0.070975386 -0.062869817 1.2029629 4160448
-0.064614229 -0.061432436 1.2041342 4554440
0.094273575 -0.06821499 1.2044178 4620747
0.099805936 -0.069521859 1.2022207 4686026
0.10616921 -0.070788875 1.1965187 4619977
-0.078017846 -0.054225735 1.1958246 4291265
-0.069959618 -0.054302551 1.2010825 4357573
-0.06436915 -0.054528572 1.2038443 4751563
0.0098160915 -0.05446925 1.2038412 4818903
0.017521035 -0.053974226 1.2038203 4819160
0.092733189 -0.059634935 1.2040575 4752590
0.10012972 -0.060333744 1.2018348 4817869
0.10530919 -0.062747091 1.1961811 4752076
-0.075691722 -0.04472477 1.1954256 4291778
-0.069677517 -0.044087186 1.1989809 4554440
-0.064083219 -0.046474077 1.2035061 4883149
-0.045253705 -0.040236659 1.1992406 5674209
-0.039514456 -0.040440038 1.199249 5082331
-0.028258286 -0.043599252 1.2012498 4950745
-0.019006196 -0.045766041 1.198872 4884953
-0.0098238373 -0.046090685 1.1986853 4753366
0.00053769816 -0.045311037 1.1998535 4884692
0.011060866 -0.047341686 1.1990936 4884692
0.019841215 -0.046903197 1.1997306 4884692
0.030074663 -0.045972627 1.2021497 4950484
0.04097335 -0.047383457 1.2004296 4950488
0.049756948 -0.047393154 1.2014242 4950489
0.060408842 -0.046279408 1.2024293 5411037
0.069394663 -0.046307713 1.203498 5542623
0.083573945 -0.044794023 1.2034343 5213404
0.09124551 -0.047946114 1.2035667 5081558
0.099469654 -0.050578237 1.201275 5015248
-0.07009083 -0.034459494 1.1949946 4685772
-0.04786114 -0.034737669 1.196098 5542365
-0.038902812 -0.035233282 1.1961707 4951002
-0.030179679 -0.036616981 1.1950848 4884951
-0.020989731 -0.038815424 1.1951771 4753366
-0.0072206436 -0.038158879 1.1951494 4950484
0.0016355421 -0.038758829 1.1951745 5015763
0.031636231 -0.040680319 1.1952549 5015764
0.038500484 -0.040923566 1.1952651 4885461
0.050466001 -0.040366605 1.1952416 4884950
0.061286472 -0.039609242 1.1970575 5082072
0.070697457 -0.038680177 1.1999749 5542624
0.080230735 -0.040074855 1.2024355 5279197
0.090420581 -0.039304987 1.1996006 5213144
0.097636402 -0.042256162 1.1953206 5212627
0.065138079 -0.032711722 1.1949201 5016538
0.070919156 -0.03119988 1.1948565 5213917
0.080540746 -0.029061139 1.1947666 5345245
0.090802863 -0.031706087 1.1955448 5213917
0.18187326 -0.036756534 1.203096 13158081
-0.013684402 -0.15230593 1.2119535 3303598
-0.00097429752 -0.15275633 1.2119724 3303850
-0.041731786 -0.14067774 1.2114655 3303853
-0.032023914 -0.1426025 1.2119037 3304111
-0.022534374 -0.14498383 1.2137532 3303857
-0.013473383 -0.14560255 1.2144245 3303856
-0.0030524777 -0.14599276 1.2146909 3369903
0.0074008228 -0.14496182 1.211645 3435441
0.016429741 -0.14619434 1.2116966 3435187
0.02692391 -0.14592886 1.2116854 3500978
0.037442889 -0.1460264 1.2116895 3369649
0.044201951 -0.14464767 1.2116314 3435441
-0.049632061 -0.13292298 1.2111399 3370159
-0.043111745 -0.13392463 1.2111819 3370416
-0.032771833 -0.13445944 1.2134563 3436469
-0.022415012 -0.13503385 1.2162327 3502005
-0.013133229 -0.13536276 1.2162464 3501749
-0.0028146738 -0.13921039 1.2164079 3501493
0.0077453838 -0.1360051 1.2150221 3567542
0.017029732 -0.13640726 1.2159773 3567541
0.02744092 -0.13668498 1.2148002 3633333
0.037797287 -0.13685957 1.2122428 3567541
0.046414349 -0.13647476 1.2112882 3633079
0.056522768 -0.13464817 1.2112114 3632566
-0.049716678 -0.12444338 1.2107837 3501750
-0.042873781 -0.12485175 1.2133031 3567798
-0.034500759 -0.12558813 1.2158362 3633848
-0.021049041 -0.12927896 1.215991 3633591
-0.0140877 -0.12952563 1.2160013 3699128
0.007997687 -0.12914762 1.2159853 3830714
0.018439695 -0.12951764 1.2160007 3764921
0.027966097 -0.12890559 1.2159749 3830712
0.038548145 -0.12838119 1.2155954 3830713
0.047263931 -0.12840296 1.2152864 3830458
0.057595912 -0.1285854 1.2133274 3764409
0.065769836 -0.1274159 1.2114637 3764407
-0.05834407 -0.1132722 1.2103148 3698874
-0.051757041 -0.11409543 1.2126012 3764923
-0.043228228 -0.11497471 1.2153904 3765435
-0.036962952 -0.11942973 1.2155775 3699641
0.056628373 -0.1227463 1.215716 3896252
0.066909343 -0.11875299 1.2129269 3831226
0.074286811 -0.11843458 1.2105304 3830458
-0.060648184 -0.10371473 1.2107036 3896508
-0.051510904 -0.10382563 1.2149224 4028352
-0.043646075 -0.10480073 1.2149632 4094143
0.068530694 -0.10894668 1.2115619 4159936
0.077893682 -0.10808224 1.2100956 4028352
0.085972652 -0.10700072 1.2100502 3962559
-0.068294041 -0.093731694 1.2094942 4093628
-0.06139781 -0.094008878 1.2102565 4028352
-0.051167119 -0.09454006 1.2142197 4094401
-0.044394791 -0.093167603 1.2144748 4225986
0.070320852 -0.099745072 1.2133852 4357317
0.078623593 -0.099055633 1.2125316 4225732
0.08747071 -0.09902031 1.209715 4159938
-0.06893903 -0.083966263 1.2090842 4028609
-0.060766447 -0.084271207 1.2104617 3963330
-0.051440109 -0.084506571 1.2141111 4160708
-0.045133676 -0.08780238 1.2142495 4292035
0.073414817 -0.086200058 1.2141812 4620236
0.078766622 -0.08917883 1.2129161 4488649
0.087212063 -0.090261884 1.2093472 4357318
-0.069731519 -0.073700219 1.2086531 4160449
-0.061141398 -0.074026987 1.2123656 4160708
-0.051857945 -0.07433258 1.2136838 4489161
0.080203913 -0.079942212 1.212846 4555212
0.088522226 -0.079176113 1.2088817 4620489
-0.16153434 -0.061624989 1.2131511 14082013
-0.068094462 -0.066382498 1.2083458 4226242
-0.05991457 -0.064278528 1.2107595 4620234
-0.052750383 -0.062384848 1.2131821 5079759
-0.018703461 -0.063204475 1.2132163 6791922
-0.010540755 -0.062333073 1.2131796 5608162
-9.8747201e-005 -0.062703103 1.2131951 5016279
0.009944384 -0.065148607 1.2119329 5608413
0.018444246 -0.06394054 1.2132469 4950485
0.025426161 -0.063607626 1.2132329 5016277
0.08331386 -0.069140956 1.2134647 4752847
0.089213371 -0.069496796 1.2102416 4620747
-0.060272161 -0.055422213 1.2088863 4948687
-0.049906034 -0.058616776 1.2130239 5408980
-0.028243057 -0.056332886 1.2110031 6134248
-0.019571882 -0.056188479 1.2104194 5344990
-0.01064887 -0.056674212 1.2107972 4884696
0.00051119272 -0.057109572 1.2108996 4818902
0.010920236 -0.058856491 1.208029 4818646
0.02008187 -0.058067754 1.2087108 4818646
0.030200638 -0.057943258 1.2097421 4884696
0.040298618 -0.057805575 1.209772 5344733
0.049544364 -0.058129158 1.2094281 5936870
0.05928212 -0.057837117 1.2121562 5608416
0.068402193 -0.057238076 1.212965 5082072
0.081166491 -0.05859055 1.2100191 5016278
0.087452933 -0.060412664 1.2080938 4884178
-0.02856544 -0.050059494 1.20766 5082331
0.00032115448 -0.05108314 1.2077028 4687574
0.023430437 -0.051902059 1.2077368 4687574
0.031377036 -0.051523145 1.207721 4819159
0.038451467 -0.052434355 1.2077591 4950233
0.051161576 -0.052884761 1.207778 5542369
0.059937287 -0.05191141 1.207737 5805540
0.072853185 -0.050185744 1.2076645 5213659
0.080171116 -0.050445072 1.2076752 5147866
0.08896137 -0.052683063 1.2077692 5081557
-0.0026665134 -0.13486981 1.2202291 3633335
-0.029804632 -0.12332205 1.2197444 3699641
-0.022301011 -0.12403631 1.2197744 3765177
-0.012596215 -0.12448587 1.2214416 3830714
-0.0023471555 -0.12575349 1.2227288 3962299
0.0082245823 -0.12365294 1.2204252 4028092
0.017009785 -0.1247721 1.2200909 3962300
0.026530612 -0.12472889 1.220531 3962299
0.036130369 -0.1237044 1.2219841 3962299
0.048564106 -0.12317743 1.2197376 3896509
0.058358472 -0.12305871 1.2197326 3830714
-0.03917234 -0.11261574 1.2192949 3962813
-0.032678511 -0.11450078 1.2211534 3962813
-0.021774821 -0.11600949 1.2234409 4028350
-0.012613603 -0.11845826 1.2235436 4093886
-0.0056065796 -0.11870657 1.223554 4093886
0.0085317269 -0.11570276 1.2234278 4291263
0.017874427 -0.11603384 1.2234416 4291265
0.027217122 -0.11636491 1.2234554 4291265
0.037727658 -0.11673737 1.2234709 4225471
0.04814142 -0.11696041 1.220978 4159424
0.057400867 -0.11720245 1.2194867 4028351
-0.040006086 -0.10327046 1.2189025 4159681
-0.034535788 -0.10509367 1.2218907 4159937
0.00882167 -0.1075351 1.2230847 4685507
0.018431075 -0.10694101 1.2230597 4685766
0.027306635 -0.10725553 1.2230729 4685768
0.039321732 -0.10776627 1.2230942 4685254
0.048559453 -0.10776169 1.2228436 4553924
0.05774178 -0.10791068 1.2193468 4357059
0.063633882 -0.10577865 1.2190069 4291524
-0.040705085 -0.095301159 1.2189014 4291267
-0.034891415 -0.09450271 1.221737 4291525
0.019580729 -0.10090671 1.2228063 5080013
0.026587754 -0.10115501 1.2228167 5013964
0.041935321 -0.097025774 1.2226431 5014215
0.048942346 -0.09727408 1.2226535 4948424
0.058247525 -0.097567692 1.2218651 4686025
0.065883249 -0.097305179 1.2202525 4554696
-0.047411155 -0.082047619 1.2180113 4423366
-0.041960724 -0.0843205 1.219975 4489158
-0.036061253 -0.08725217 1.2222333 4554697
0.0423081 -0.086524494 1.2222022 6725605
0.049540412 -0.087014437 1.2222227 5541334
0.058657825 -0.087103873 1.2222264 4949456
0.068593882 -0.088679031 1.2207673 4752076
-0.048244905 -0.072702318 1.2176188 4751821
-0.042561244 -0.074136592 1.2203481 4817612
-0.01679597 -0.071578994 1.221575 6133729
-0.014460296 -0.071661763 1.2215785 5804510
0.010036672 -0.073308706 1.2216474 6726116
0.018239146 -0.072820529 1.2216269 6791913
