# .PCD v0.7 - Point Cloud Data file format
VERSION 0.7
FIELDS x y z rgba
SIZE 4 4 4 4
TYPE F F F U
COUNT 1 1 1 1
WIDTH 174
HEIGHT 1
VIEWPOINT 0 0 0 1 0 0 0
POINTS 174
DATA ascii
-0.029145205 -0.053593069 1.0740228 5134174
-0.023377489 -0.055826545 1.0708942 5134176
-0.027985446 -0.05069761 1.0775446 4871515
-0.04263908 -0.068061784 1.068065 4936281
-0.033729311 -0.071554944 1.0631789 5199967
-0.029154314 -0.072476551 1.0617522 5397348
-0.048031241 -0.06224905 1.0751342 4673880
-0.041037872 -0.062532313 1.0712919 4870232
-0.032021802 -0.064850613 1.0690014 5068382
-0.022671793 -0.066903897 1.0667452 5068384
-0.014756568 -0.06819991 1.0661699 4476504
-0.045187522 -0.055444084 1.0812241 4607822
-0.03859932 -0.05573073 1.0783343 4673623
-0.028553069 -0.058255807 1.0745792 5134174
-0.018461298 -0.059690274 1.072175 4739419
-0.01118755 -0.062306985 1.0705285 4081746
-0.042398989 -0.051687397 1.0883726 4410445
-0.034312017 -0.050287053 1.0848254 4213839
-0.024463505 -0.051928341 1.0821795 4345429
-0.01515799 -0.054079138 1.0789348 4016211
-0.0075970888 -0.056722641 1.077027 3621193
-0.031853445 -0.047142863 1.0885756 3884109
-0.022708736 -0.0483284 1.0865389 3752784
-0.012955777 -0.050338373 1.0834414 3621192
-0.0064957365 -0.05236882 1.0805219 3686459
-0.054324251 -0.08188723 1.0682628 4673626
-0.047131352 -0.081758454 1.0634474 4870741
-0.038938724 -0.084331527 1.0600417 5265754
-0.029236156 -0.086015224 1.0577786 5397604
-0.020165395 -0.088291772 1.0591137 4608350
-0.052283995 -0.073242113 1.0725998 4673629
-0.045051992 -0.074060112 1.0676816 4870744
-0.037684195 -0.076336503 1.0638691 5134174
-0.025392013 -0.077979743 1.0621099 5397606
-0.017186593 -0.082316756 1.062865 4476760
-0.009829022 -0.082775131 1.0653213 4015442
-0.055754863 -0.070478164 1.0834225 3883351
-0.052686401 -0.067081891 1.0791535 4475995
-0.022287976 -0.073740207 1.0661395 5068641
-0.01250739 -0.075159736 1.0670471 4082513
-0.0063489377 -0.079061583 1.0689176 3752531
-0.050400268 -0.059933603 1.0859699 4079443
-0.0075055584 -0.069650218 1.0726942 3621705
-0.0039670579 -0.074336633 1.0716039 3751503
-0.0064359382 -0.063639268 1.0776957 3490378
-0.049424909 -0.10401828 1.0589498 5002588
-0.046432197 -0.10463504 1.0579993 5528419
-0.056021776 -0.096223161 1.0690322 4739163
-0.050363604 -0.097047769 1.0629624 5002333
-0.041589871 -0.099018246 1.0598859 5397092
-0.032207474 -0.10063682 1.0594617 5332066
-0.026094908 -0.10239075 1.0595274 4740695
-0.056158762 -0.089483768 1.069031 4082256
-0.050129659 -0.090151772 1.0650378 5068120
-0.028436106 -0.095807046 1.059868 5200736
-0.019487258 -0.097042531 1.0611889 4345175
-0.012081861 -0.099039301 1.0619091 4278096
-0.013764285 -0.0893365 1.0651686 4147028
-0.0092656426 -0.093723968 1.0659593 3819087
-0.0069402531 -0.086276636 1.0690912 3687502
-0.046473123 -0.12109286 1.0551215 5528423
-0.042254128 -0.1216013 1.0542296 5397348
-0.053557858 -0.1102515 1.0605079 4804702
-0.044781838 -0.1117511 1.0571795 5462626
-0.035658892 -0.1151884 1.0564642 5003105
-0.026804803 -0.11535028 1.0572046 4804440
-0.058535524 -0.10350415 1.0713165 3817824
-0.054426558 -0.10377961 1.0643404 4673622
-0.039423004 -0.10687167 1.0595752 5660265
-0.031964794 -0.10736585 1.0585008 5069150
-0.022445995 -0.10898148 1.0590973 4475986
-0.015845228 -0.10746625 1.0605698 4014924
-0.017654587 -0.10418811 1.06156 4606547
-0.011414744 -0.10422805 1.0619222 3620428
-0.054729279 -0.1293595 1.0565374 4079956
-0.048988514 -0.12944306 1.052433 5266270
-0.043263659 -0.13208571 1.0524451 5002845
-0.055326458 -0.12356002 1.060582 4079963
-0.049197648 -0.12502389 1.0551963 5330781
-0.038506981 -0.12700593 1.0547025 5002331
-0.033380404 -0.12278122 1.0570018 5001816
-0.028425228 -0.12281503 1.0585675 4540755
-0.021879181 -0.11863547 1.0614361 4213074
-0.052386977 -0.14622661 1.0545994 5265766
-0.052132651 -0.14107706 1.0564176 5068639
-0.043425735 -0.1413943 1.0547259 4214103
-0.057770777 -0.13174677 1.0601429 1580089
-0.037284244 -0.13525511 1.0555855 4145996
-0.032713793 -0.13180697 1.058519 4212054
-0.058649585 -0.14795171 1.0576305 3618132
-0.053901281 -0.14966641 1.0552089 5199718
-0.047353063 -0.15027979 1.0540428 4214875
-0.069262721 -0.19823587 1.0213996 528927
-0.064708278 -0.1996223 1.0193974 1517876
-0.068552837 -0.21470846 1.0200522 4419983
-0.080374166 -0.20615682 1.0282063 1651559
-0.075130828 -0.20430192 1.0251713 1782104
-0.064773329 -0.20649807 1.0184444 4154236
-0.058603123 -0.20842908 1.0217617 3028033
-0.069717996 -0.2046662 1.0325878 2369321
-0.062580056 -0.2034329 1.0279349 2040105
-0.063038178 -0.1900982 1.0438749 4146252
-0.081439592 -0.21694039 1.0308391 5077683
-0.076024555 -0.21875998 1.0261192 4617364
-0.06734173 -0.22080246 1.0230476 4549258
-0.060593132 -0.2165256 1.023685 6582660
-0.078524671 -0.2067776 1.0368918 7695014
-0.069984667 -0.20654446 1.0377165 2040625
-0.062000565 -0.20685416 1.0357752 2172202
-0.057415511 -0.21112797 1.0301875 2760198
-0.080096468 -0.23125529 1.0257502 4683677
-0.074765734 -0.23235391 1.024057 3831442
-0.084849656 -0.22477597 1.0322626 3299734
-0.079088472 -0.22636323 1.0276994 4683420
-0.071211241 -0.22905099 1.0253845 3960460
-0.1116755 -0.28358352 0.98349333 3829135
-0.10390303 -0.28486231 0.9814257 4223637
-0.09823855 -0.28633067 0.97925311 3960467
-0.10913738 -0.27781945 0.9904902 3498881
-0.10111164 -0.27885857 0.98806638 3895695
-0.093283936 -0.27988738 0.9869436 3631246
-0.10521096 -0.2688188 0.99663317 3499128
-0.098716065 -0.27069503 0.99390304 4025235
-0.09007474 -0.27326608 0.99314004 3499655
-0.10141893 -0.26177198 1.0019544 3826560
-0.095113009 -0.26348695 1.0002337 4156303
-0.087758914 -0.26729634 0.99903876 3630985
-0.097728394 -0.25846413 1.0106168 3893387
-0.091507927 -0.25833747 1.0079082 4157333
-0.084375121 -0.26105237 1.0073764 3762828
-0.093078919 -0.25527906 1.0174724 3762325
-0.086988106 -0.25198933 1.0153303 4420507
-0.081142902 -0.25510323 1.0148259 3828877
-0.089289635 -0.24678966 1.0277743 4222878
-0.083366662 -0.24636716 1.0219778 4552347
-0.077608339 -0.25009182 1.0216777 3631755
-0.088357888 -0.23736408 1.0304826 3627913
-0.080955803 -0.2384471 1.0253843 4683676
-0.073691234 -0.24134479 1.0260274 3892613
-0.070152365 -0.23426433 1.029376 3563127
-0.11643266 -0.29338101 0.98028672 3033484
-0.10889731 -0.29744315 0.97859931 2897991
-0.09921281 -0.29852334 0.97587806 3891064
-0.091823995 -0.30082411 0.9752242 2638186
-0.11705543 -0.28605747 0.98713577 666715
-0.10765103 -0.28950149 0.98228002 4813457
-0.093908265 -0.29035729 0.98036826 3499654
-0.087015465 -0.29453701 0.98063111 3561592
-0.1136622 -0.27911675 0.9955402 6722
-0.090674028 -0.2846294 0.98727715 3694979
-0.084364191 -0.28730109 0.98676127 3233144
-0.085537232 -0.27871233 0.99430329 3104639
-0.081031092 -0.28208429 0.99491489 2640231
-0.082767844 -0.27277243 1.0015041 2907007
-0.078559518 -0.277224 1.0029693 3099492
-0.099431425 -0.26112241 1.0169932 4089741
-0.079753384 -0.26724318 1.0087497 3496061
-0.075146504 -0.27101785 1.0111858 4278874
-0.094420373 -0.25672957 1.0221354 2972810
-0.076689914 -0.26171136 1.0170313 3757171
-0.073372066 -0.26593566 1.0173836 3748927
-0.091304466 -0.25349635 1.0259554 3630740
-0.073596969 -0.25637057 1.0212935 3953004
-0.11149104 -0.30508044 0.97753763 984897
-0.10032084 -0.30477974 0.97722024 4350584
-0.082215078 -0.29293263 0.99186772 4674411
-0.079184346 -0.28964314 0.99948478 6974583
-0.076919824 -0.28267413 1.0079941 3815753
-0.10297637 -0.26779395 1.0232875 5799072
-0.072885856 -0.2747761 1.0127616 5064001
-0.083735742 -0.30612504 0.99526078 7039097
-0.081917532 -0.30339193 1.0001354 7565430
-0.079527944 -0.29781651 1.0063757 8223350
-0.077063031 -0.28918895 1.0094876 9076613
