# .PCD v0.7 - Point Cloud Data file format
VERSION 0.7
FIELDS x y z rgba
SIZE 4 4 4 4
TYPE F F F U
COUNT 1 1 1 1
WIDTH 1128
HEIGHT 1
VIEWPOINT 0 0 0 1 0 0 0
POINTS 1128
DATA ascii
0.12319726 -0.19965926 1.1214368 10929103
-0.099951312 -0.1726428 1.1373037 2971544
-0.094280116 -0.17679185 1.1375346 2774929
0.1190211 -0.19002651 1.1239122 2909086
0.12381452 -0.1894467 1.1212472 3105187
-0.10666937 -0.15899351 1.1360927 2709911
-0.10224989 -0.1643202 1.1382354 2644371
0.12602179 -0.17974871 1.1215763 3368356
-0.10842866 -0.15220992 1.1379329 2775444
-0.10369968 -0.15664822 1.1385343 2709910
0.13114534 -0.17019147 1.1220841 3368613
0.13542546 -0.16754171 1.120158 3499683
-0.11107761 -0.14344713 1.1376622 2841497
0.13359277 -0.16283974 1.1242201 3237027
0.13830559 -0.16049613 1.1212007 3302821
-0.11627097 -0.13149561 1.1369019 2645144
-0.11274822 -0.13341714 1.1392417 2775964
0.14213032 -0.15078491 1.1216559 3237542
0.14638321 -0.14750333 1.1204755 3106215
-0.11747505 -0.12297987 1.1377429 2907291
0.14416689 -0.14134158 1.1218692 3499683
0.14728644 -0.1395981 1.1201097 3303338
-0.11773166 -0.11299732 1.1385621 3039134
0.14947823 -0.13123274 1.1201119 3499947
-0.12206191 -0.098418579 1.1362315 3236770
-0.11997762 -0.10279636 1.139498 3236770
0.15192984 -0.12086198 1.1202056 3500458
-0.12162976 -0.091954164 1.1361088 3237027
-0.11967106 -0.092374064 1.1399941 3302821
0.15502058 -0.11049215 1.1203182 3632048
-0.12098151 -0.082257554 1.1359246 3302824
-0.11905669 -0.083183855 1.1398195 3302569
0.15388639 -0.10150887 1.1201584 3632047
-0.12080659 -0.073178098 1.1357807 3434408
-0.11761922 -0.070946477 1.1395459 3434665
0.15122117 -0.090263799 1.119807 4026292
-0.11968504 -0.062864333 1.1355561 3631531
-0.1176472 -0.062100425 1.139419 3631531
0.15176879 -0.082331873 1.1182783 4157366
-0.11925288 -0.05639993 1.1354333 4025255
-0.11562343 -0.0514699 1.1374117 3632304
0.15199132 -0.070540681 1.1176463 4289211
-0.11161618 -0.042742334 1.136446 3568048
0.14961134 -0.059574686 1.1183127 4094399
0.15172808 -0.064090118 1.1195744 4224702
-0.11002339 -0.036825355 1.134536 3764911
-0.10614492 -0.032717884 1.1367246 3895729
0.1476797 -0.050988819 1.1191055 4487616
-0.1098263 -0.018637292 1.1372648 6458567
-0.10520361 -0.022744313 1.1364167 3895996
0.14827599 -0.03998851 1.1178488 5735616
0.15529935 -0.037214465 1.1169416 9477559
-0.10914406 -0.015976131 1.1381832 6852289
-0.10590704 -0.016196556 1.1379716 5933254
0.066591121 0.073809654 1.1212091 9474701
-0.027239757 -0.22574894 1.1478329 7248329
0.0053038429 -0.2295752 1.144928 5801654
0.013331487 -0.22900015 1.1438525 5210039
0.02611647 -0.23047972 1.1443623 6328255
0.033749223 -0.23099947 1.1438637 7379645
0.045267042 -0.23166181 1.1431092 8430007
0.053036943 -0.23048969 1.1385674 8625323
-0.064966284 -0.21518922 1.1421632 9678537
-0.053756692 -0.21583009 1.1479703 4422071
-0.044407435 -0.21711639 1.1488459 2778029
-0.034808397 -0.21958886 1.1482452 2513574
-0.027408438 -0.22281057 1.1478013 2315684
0.0023469459 -0.22556843 1.1458676 2120102
0.014341272 -0.22638516 1.1450838 2185635
0.027499035 -0.22618355 1.1442081 2186146
0.032877956 -0.22764739 1.1438726 2316696
0.048289545 -0.22650166 1.1428336 4486314
0.055710703 -0.22664928 1.1403388 5997746
0.067065068 -0.22444019 1.1404126 6063288
0.075870775 -0.22355044 1.1409611 6589614
0.083925061 -0.2243184 1.140438 8757678
-0.069582447 -0.20288554 1.1422902 1855898
-0.062843472 -0.2057969 1.1451311 2249885
-0.055080853 -0.20856372 1.1487005 2381985
-0.047080711 -0.21122697 1.1489375 3039902
0.070246123 -0.21756981 1.141247 2841504
0.076279812 -0.21743187 1.1408448 3302564
0.085866325 -0.21584967 1.1388494 4420011
0.095391981 -0.21574676 1.1338249 6984117
0.10482216 -0.21367142 1.1308782 6254993
-0.079925627 -0.19162354 1.1436142 2710418
-0.07221397 -0.19535148 1.146746 2775447
-0.065482073 -0.19799028 1.1491635 2906776
0.088891841 -0.20812804 1.1394718 3171492
0.097271755 -0.20737532 1.1360984 3237285
0.1053733 -0.20679058 1.1313142 3629215
-0.082072318 -0.18443745 1.1476611 2775191
-0.074036635 -0.18843564 1.1497254 2906012
0.099936202 -0.19830257 1.1373264 3040421
0.10673789 -0.19714357 1.1334646 3105703
0.11240702 -0.19783878 1.1301445 2777257
-0.09671475 -0.16942972 1.1436027 2710677
-0.090003334 -0.17371264 1.1467575 2709909
-0.083890073 -0.17769811 1.1488863 2709910
0.10868037 -0.18881047 1.1368016 3368100
0.11606145 -0.18755776 1.1318905 3302561
-0.097295322 -0.16277264 1.1466626 2710421
-0.092450775 -0.16588292 1.1504849 2644886
0.11134463 -0.18118487 1.1379908 3040936
0.11942098 -0.17866898 1.1353267 3237031
0.12579852 -0.17625146 1.1319487 3368615
-0.1062372 -0.14916235 1.1439393 2776209
-0.1008136 -0.15393224 1.14841 2841240
0.12214888 -0.17031066 1.1371158 3237287
0.12838529 -0.16860193 1.1315225 3302822
-0.10648973 -0.14239222 1.1484013 2710683
-0.10184889 -0.1459544 1.1509517 2841499
0.13136864 -0.16032118 1.1337645 3237541
0.13624784 -0.15800519 1.1295866 3237798
-0.10799828 -0.1337039 1.1489856 2907293
0.13380212 -0.15165266 1.1360711 3237797
0.1383539 -0.14950904 1.1307263 3303334
-0.11376327 -0.1216651 1.1451836 2907805
-0.11128226 -0.12335847 1.1511147 2907805
0.14098001 -0.14025599 1.1329788 3434407
-0.11353859 -0.11232419 1.14656 3039392
-0.11065723 -0.11360382 1.151733 3039391
0.14354521 -0.13083988 1.1325443 3500202
0.14751294 -0.12829317 1.1268029 3631274
-0.11593954 -0.10293793 1.1484535 3170979
0.1463142 -0.12069857 1.1343448 3631791
0.14934731 -0.12044499 1.1283488 3566510
-0.11557348 -0.092568241 1.1494619 3105957
0.14615582 -0.10957314 1.1329682 3632305
0.15090147 -0.11110968 1.126662 3501227
-0.11543593 -0.082573861 1.1470162 3237546
0.14624712 -0.10050546 1.1319493 3698099
0.15048434 -0.10127067 1.1266133 3698094
-0.11414962 -0.072887808 1.1470284 3434923
0.14813265 -0.091329694 1.1322373 3895479
0.14983407 -0.093573108 1.1261433 3895477
-0.11303391 -0.062472254 1.1474233 3566256
0.14923245 -0.080052376 1.1333365 4027579
0.15153319 -0.079695389 1.1298376 4157882
-0.11149934 -0.053662151 1.146435 3567024
0.14780402 -0.070406564 1.1327798 4159422
0.15181191 -0.070910774 1.1280875 4289724
-0.10868411 -0.044037595 1.1439071 3567791
-0.10511237 -0.042241178 1.1489896 3764403
0.14667258 -0.060298845 1.131214 4356797
-0.10318606 -0.033533707 1.1426257 3830196
0.14459895 -0.050572094 1.1302744 4619718
-0.10083777 -0.022724263 1.1446555 3896507
0.14135161 -0.038423419 1.130803 4817095
0.14560753 -0.039353035 1.1273046 4948420
-0.10772857 -0.013040945 1.146065 6916535
-0.10032814 -0.014082141 1.1452808 5210049
0.14107476 -0.031959407 1.1328431 5013440
0.14538935 -0.031879596 1.1302171 5998788
0.045859151 0.048679382 1.1338325 5859448
0.053902961 0.048173845 1.1314448 6122362
0.059645474 0.047968775 1.1340737 6319482
0.071057916 0.048537195 1.1373178 5330522
0.046634268 0.053054318 1.13219 5792108
0.054446489 0.05335921 1.1311328 5527648
0.059936635 0.052323982 1.133991 5067354
-0.021320576 -0.22606733 1.1504517 4354997
-0.013929697 -0.22756222 1.1519878 4684224
-0.0041532069 -0.22796085 1.149875 4289976
0.00689587 -0.22641663 1.148585 2054307
0.01724501 -0.22767155 1.1479168 2777510
0.022637967 -0.22913922 1.1475804 4026798
0.039036527 -0.23025586 1.1465088 5604271
0.042972706 -0.22887324 1.1462276 4881326
-0.039527483 -0.21445197 1.1514902 3039902
-0.031641006 -0.21589929 1.1514894 2710943
-0.023151184 -0.21833715 1.1537725 2645152
-0.013284596 -0.22180927 1.1565386 2514339
-0.0034154356 -0.2223876 1.1553578 2514851
0.0065245992 -0.22058263 1.1531353 2842787
0.016249353 -0.22086211 1.1502892 2908579
0.02593698 -0.22111666 1.1501403 3039651
0.036113095 -0.22249301 1.150599 2908578
0.0454638 -0.22226074 1.1497247 2778020
0.055408895 -0.22131708 1.1467245 2646433
0.064669214 -0.22466503 1.1447271 5012145
0.076062769 -0.22672468 1.1440014 8955830
-0.051921137 -0.20516533 1.1524634 2841242
-0.0421241 -0.20787069 1.1539054 2775960
-0.033112139 -0.20972554 1.1552724 2841500
-0.023643477 -0.21247604 1.1584263 2907551
0.0079626106 -0.21388949 1.1563503 3105184
0.017160714 -0.21414649 1.1557438 3170722
0.027068121 -0.2148211 1.1550964 3302053
0.037195869 -0.21495672 1.1544266 3170723
0.047715142 -0.2147496 1.1537257 3105188
0.056945704 -0.21461558 1.1513933 3170467
0.066267163 -0.21511418 1.1468875 3236258
0.076468296 -0.21239644 1.1442112 3171236
-0.067726701 -0.19272387 1.1530443 2906776
-0.061298221 -0.19538096 1.1538022 2907033
-0.052706815 -0.19688293 1.1569531 2841497
-0.043553084 -0.20151702 1.1595874 2775704
0.058407351 -0.20919856 1.1529357 3105443
0.067213938 -0.20979825 1.1523602 3105443
0.078125671 -0.20683952 1.1503273 3105956
0.086412884 -0.20459408 1.1461998 3105956
-0.077926733 -0.18102491 1.1535506 2644884
-0.070927933 -0.1850204 1.1561514 2775705
-0.062608615 -0.18841481 1.1583219 2841497
0.082262054 -0.19974217 1.1512156 3172006
0.089978963 -0.19789937 1.1496745 3040421
0.095807619 -0.19598894 1.1467544 2974628
-0.08608678 -0.17166576 1.1539556 2645144
-0.079388641 -0.17383569 1.1566088 2710425
-0.07419011 -0.17688821 1.1578245 2776216
0.099852771 -0.18760128 1.1466144 3171493
0.10475025 -0.18575934 1.1431055 3237026
-0.08840622 -0.16342385 1.1565837 2710424
-0.081950217 -0.16600227 1.1601592 2710937
0.10340421 -0.18123648 1.1495436 3302823
0.1097712 -0.1776361 1.1459037 3172005
0.11569537 -0.1749081 1.144627 3172006
-0.096454181 -0.1515187 1.1543499 2841498
-0.091920845 -0.15425962 1.1590235 2907290
0.11294822 -0.17080562 1.1487586 3303592
0.11930636 -0.16787449 1.1469578 3237544
0.12527952 -0.16404966 1.1398238 3303337
-0.09753409 -0.14293689 1.1560148 2973342
-0.092755549 -0.1462718 1.1620466 3038879
0.12348404 -0.16036588 1.1472394 3237544
0.12772778 -0.15770529 1.1423755 3303336
-0.10480142 -0.13087776 1.1556053 2973342
-0.098675899 -0.13438061 1.1597604 2973600
0.1318102 -0.14881532 1.143178 3368872
-0.10575888 -0.12290701 1.1569089 3039392
-0.10003502 -0.12401035 1.1622052 3236259
0.13385081 -0.13946056 1.1446604 3500460
0.13804272 -0.13740775 1.1385891 3434923
-0.1061756 -0.11320482 1.1573324 3170978
0.13554423 -0.1306102 1.1453379 3500719
0.14016438 -0.12848245 1.1416595 3500718
-0.11215697 -0.1016633 1.1546655 3237029
-0.10805532 -0.10320178 1.1604297 3237286
0.14127487 -0.11962937 1.1442351 3697329
-0.1115711 -0.092899673 1.1544989 3237543
-0.10849796 -0.09252999 1.1618071 3172263
0.14306201 -0.11062977 1.1434791 3697843
-0.11103134 -0.083221599 1.1573292 3303340
-0.10856287 -0.082219839 1.1621623 3303852
0.14356036 -0.10018798 1.1436949 3764149
-0.11064173 -0.073521852 1.1541551 3500716
-0.10731557 -0.072226562 1.161934 3501229
0.14709033 -0.08999645 1.1418805 3764661
-0.10974026 -0.06551335 1.1539787 3566512
-0.10606602 -0.062251087 1.1580611 3632306
0.14479597 -0.079611801 1.1417804 3896764
-0.10482532 -0.052694254 1.1578397 3698357
0.13965246 -0.069157794 1.1441704 4291265
0.14302582 -0.070663944 1.138432 4225217
-0.10264469 -0.043822583 1.1572014 3764408
0.14102787 -0.059640471 1.1432724 4554434
0.1432423 -0.059630606 1.1371115 4488640
-0.098934658 -0.033324778 1.1576042 3895997
-0.09440656 -0.030365556 1.1604681 4027323
0.14129189 -0.048856571 1.1420956 4817354
-0.096991926 -0.023968711 1.1538644 3962044
-0.092564404 -0.022950687 1.1594361 4093118
0.13302664 -0.035879616 1.1454617 5014224
0.13794973 -0.039029066 1.1411718 4751563
-0.09529268 -0.013676047 1.1522654 4290235
-0.090123929 -0.013813235 1.1564684 4158908
-0.0835879 -0.011895597 1.1594815 4028609
0.13172184 -0.028771162 1.1436629 4817874
0.13804981 -0.029015943 1.1380124 5145287
-0.087448165 -0.0073738471 1.1540588 4487616
-0.081631556 -0.0050198436 1.1579152 4356800
0.12372676 -0.015689351 1.14378 5276623
0.12959363 -0.019177943 1.1397188 5604813
0.13878249 -0.021050178 1.1377364 6720449
-0.078984439 0.0018265396 1.1589763 5671109
0.12234138 -0.0099904835 1.1452208 5802961
0.12835847 -0.01124876 1.1407353 6787017
0.047689244 0.010930084 1.1504408 12972031
-0.0067908913 0.024536245 1.151852 5869264
0.025356777 0.01872988 1.1518086 7515376
0.032793328 0.017854124 1.1513281 8764660
0.042328767 0.016761601 1.1507115 10146554
0.048864871 0.015282325 1.1502994 10870005
-0.064106531 0.036654651 1.1494637 8028800
-0.058980346 0.036672413 1.1491234 7305855
-0.0022111908 0.02540873 1.1535401 5671370
0.0010912772 0.025183849 1.1533244 5869265
0.024208559 0.02360972 1.1518137 6988787
0.02861185 0.023309879 1.1515261 7185904
0.11506598 0.026287511 1.1457478 6314850
-0.057432018 0.041580081 1.1489491 8028802
0.11221965 0.030027181 1.1458821 6117979
0.088538758 0.042033464 1.1392597 5593178
0.090725236 0.041884571 1.1391168 5658970
-0.01812551 -0.21574768 1.1621171 2973083
-0.012676427 -0.21723062 1.1617773 2973595
-0.0032162741 -0.21743089 1.1618209 2973598
-0.037268646 -0.20332524 1.1632061 2842012
-0.031009594 -0.20514131 1.1628174 2776219
-0.021774171 -0.20822698 1.163777 2907806
-0.012205357 -0.21022968 1.1648092 2907807
-0.001718089 -0.2114822 1.1643076 2973599
0.0071027903 -0.20978926 1.161025 3039136
0.017909229 -0.20952015 1.1609725 3170723
0.027807657 -0.21008724 1.1596559 3236770
0.037550062 -0.21030158 1.1583446 3170979
0.046571158 -0.21070203 1.157752 3170980
0.053309843 -0.20949306 1.1572874 3171236
-0.047722831 -0.19371822 1.1637596 2842012
-0.04109817 -0.1964121 1.1648173 2842011
-0.031610362 -0.19930273 1.1652393 2842012
-0.023353728 -0.20128828 1.1662625 2907805
0.022829507 -0.20582768 1.1632651 3302309
0.028816663 -0.20509793 1.1617118 3302308
0.037350349 -0.20558348 1.1597925 3171236
0.047934756 -0.20690326 1.1576062 3171236
0.058715843 -0.20622924 1.1585517 3105443
0.068579249 -0.20498663 1.1572112 3171492
0.075159058 -0.20356822 1.1557517 3040420
-0.067970574 -0.18122056 1.1649208 2841497
-0.05938115 -0.18455039 1.164934 2907291
-0.051067434 -0.18774724 1.1657813 2907549
-0.044360876 -0.18935153 1.1674821 2907551
0.072341964 -0.19804206 1.1598673 3040420
0.079325192 -0.1967082 1.1574856 3106213
0.087145992 -0.19467393 1.1548271 3106214
-0.068902522 -0.17461839 1.166891 2907290
-0.062437281 -0.17791563 1.1680136 2973340
0.084020048 -0.18991157 1.1589743 3302823
0.090039246 -0.18797709 1.1561413 3237030
0.096391149 -0.18499216 1.1558547 3237031
-0.085417122 -0.1600185 1.1657693 2841497
-0.077253714 -0.16405141 1.1658211 2842012
-0.071146622 -0.16666126 1.1679263 2907547
0.10200962 -0.17769003 1.154519 3368361
0.10722733 -0.17480418 1.1532056 3237285
-0.086495295 -0.154015 1.1657534 2973085
-0.079578251 -0.15465921 1.1680471 3039135
0.10472477 -0.17074215 1.1533124 3368615
0.11149082 -0.16785154 1.1535505 3237799
0.11621491 -0.16485322 1.1524645 3303337
-0.092996128 -0.14060025 1.1659893 2973857
-0.087723531 -0.14446725 1.1672549 3039137
-0.081713445 -0.14571275 1.1693244 3104930
0.11405557 -0.16048586 1.1545488 3172264
0.1203556 -0.15804347 1.1527588 3238059
-0.09356907 -0.13232231 1.166909 3039650
-0.089646779 -0.13613528 1.1697112 3105700
0.12432836 -0.14852118 1.1538472 3369132
0.12837099 -0.14900257 1.1514273 3434410
-0.09569484 -0.12358248 1.1676387 3171236
0.12682267 -0.14053147 1.154614 3500719
0.13025434 -0.13847893 1.1531537 3435183
-0.1021184 -0.11106987 1.1661643 3302823
-0.097443216 -0.1133213 1.1685598 3171495
0.13167433 -0.12845998 1.1527313 3566514
-0.10318533 -0.10231569 1.1675655 3368873
-0.099485159 -0.10371348 1.1690898 3368875
0.13492377 -0.11948778 1.1513646 3697588
-0.10340057 -0.093192264 1.1686617 3303850
0.13729872 -0.10997915 1.1537032 3763892
0.14032839 -0.10956628 1.1500598 3698099
-0.10412831 -0.082935482 1.1674916 3435181
-0.098172396 -0.083785787 1.1695143 3435438
0.13902698 -0.099937543 1.1540151 3829942
0.1417087 -0.099624529 1.1509689 3764149
-0.10242518 -0.073349722 1.1676399 3501229
0.13991798 -0.086609691 1.1537619 3896505
0.14395791 -0.089815073 1.1513537 3830455
-0.10120244 -0.063559547 1.1669536 3632563
-0.096613154 -0.060462054 1.1690712 3567542
0.13787633 -0.079345696 1.1512141 4027837
0.14275227 -0.083268285 1.149516 3896505
-0.099789537 -0.053579465 1.1665089 3829940
-0.096167654 -0.053798124 1.1689446 3699127
0.13710445 -0.069635302 1.1523649 4291009
-0.098731749 -0.043498747 1.1657574 3895737
-0.09480238 -0.042893376 1.1686952 4027576
0.13802472 -0.059650175 1.1514902 4422849
-0.097160697 -0.036910661 1.1647555 4158911
-0.092313677 -0.033495508 1.1663888 4093372
0.13858555 -0.049932558 1.1508104 4817355
-0.087985419 -0.024379723 1.1655062 4093630
-0.082856081 -0.021233261 1.1675874 4094397
0.13193022 -0.038694713 1.1518121 5080014
0.13606387 -0.04222877 1.149362 4883149
-0.0854697 -0.016951412 1.1636893 4028348
-0.080713913 -0.014683776 1.1648442 4028864
0.12807155 -0.028776027 1.1514781 4949202
-0.076506041 -0.0053508654 1.1647481 4029123
-0.072012387 -0.0033764765 1.166608 3963586
0.12272992 -0.018509328 1.1525738 5146069
0.12568635 -0.023175903 1.1497729 5080276
-0.07530085 0.0023702309 1.1627333 5342665
-0.067801751 0.0040895641 1.1662199 4882633
-0.0043711662 0.0035465956 1.1620202 6070261
0.0022792816 0.0030937493 1.1615857 6528744
0.0089297332 0.0026408955 1.1611511 8827627
0.024447449 0.0015842393 1.1601372 10340848
0.033113942 0.00035656244 1.1595801 8895736
0.040541112 -0.00085048378 1.1591051 6266608
0.11459029 -0.0051308051 1.1532531 5475287
0.1187076 -0.0089683458 1.1513653 5475028
-0.064076588 0.0098016858 1.1638851 5999306
-0.05737111 0.010456987 1.1634307 5540557
-0.048662156 0.013193317 1.162145 5803727
-0.035707697 0.01411023 1.1639451 4950220
-0.026859457 0.012380771 1.1633834 5016280
-0.017243819 0.01110597 1.1623632 5411294
-0.0073626768 0.010384522 1.159874 5806569
0.0026915912 0.0097439289 1.1608601 7120874
0.012327705 0.0098475814 1.1608207 12379901
0.02267373 0.0085696056 1.1576209 13891069
0.032385852 0.0076562762 1.1563147 12969723
0.042371623 0.0072306916 1.1565448 9946095
0.052410558 0.0063227043 1.1562958 10013177
0.062213875 0.0075351745 1.1553864 7449069
0.069107309 0.0089564845 1.1570673 5411552
0.11185232 -0.0010755658 1.1518722 6526426
-0.033407196 0.018912286 1.1637225 6264275
-0.025957657 0.019162729 1.160719 5803990
-0.01647958 0.019120194 1.1585875 5345755
-0.0064322297 0.019700542 1.1579125 5412839
0.0031887777 0.019649297 1.1577762 5676266
0.012281377 0.018151723 1.1595575 7253489
0.021935793 0.017277069 1.1570684 8436213
0.031656645 0.014359906 1.1554637 12051453
0.04631263 0.01780951 1.1544412 10082302
0.054069251 0.016540073 1.1539452 10607102
0.062460557 0.015121527 1.1534092 7515119
0.069515646 0.014051475 1.1542932 6068200
0.0057378346 0.025019951 1.1570277 6001365
0.010156297 0.024719082 1.156739 6396124
0.12254911 0.022847719 1.1493107 6447199
-0.008160213 -0.20659047 1.1693412 3039391
-0.00051258318 -0.20650932 1.1703361 3039135
0.010747205 -0.20787796 1.1681057 3104930
-0.036332406 -0.19347687 1.171019 2776478
-0.029911077 -0.19477367 1.1726165 2842271
-0.020016475 -0.1970489 1.1741802 2907807
-0.010919724 -0.1995219 1.1741277 2908063
-0.00092841312 -0.20103282 1.1745939 2973600
0.0093820915 -0.2007592 1.1734382 3105187
0.019229567 -0.20109531 1.1718682 3236773
0.028936567 -0.20042698 1.1705325 3237029
0.039834935 -0.20125362 1.1698884 3171237
0.049228869 -0.20288885 1.1669838 3171236
0.058773644 -0.20198682 1.1657593 3105444
0.067621142 -0.20111521 1.1642345 3171493
-0.047669768 -0.18375453 1.1748368 2841758
-0.039706327 -0.18659393 1.1751517 2907551
-0.030721871 -0.188261 1.1774101 2842271
-0.020084055 -0.19015424 1.1779112 2908064
-0.013440346 -0.19173381 1.1774935 2973857
0.0078355949 -0.19318256 1.1761032 3105444
0.020717606 -0.19305781 1.175247 3237030
0.03064324 -0.19416559 1.1738029 3302823
0.040306695 -0.19404286 1.1730366 3171495
0.04969079 -0.19327837 1.1719337 3105703
0.059327282 -0.19419771 1.1710987 3105703
0.068998963 -0.19439313 1.1685555 3105702
0.077279292 -0.1925002 1.1651865 3105958
-0.058489069 -0.17533267 1.1738753 2973598
-0.050355315 -0.17752832 1.1777308 2907551
-0.040498711 -0.18002862 1.1791179 2908065
0.071563713 -0.186077 1.1717724 3237288
0.080231369 -0.18599847 1.1687462 3302823
0.088796258 -0.18459126 1.1651665 3237287
-0.067020953 -0.16343594 1.175481 3105183
-0.059599757 -0.16726074 1.1783123 2974112
-0.051357679 -0.16999011 1.179692 2842786
0.082329825 -0.17931879 1.1709598 3171750
0.091074429 -0.17632172 1.1689997 3172008
0.098935857 -0.17518023 1.1641182 3303081
-0.074609689 -0.15325731 1.1736406 3104930
-0.068167984 -0.15590797 1.1792657 3170978
0.094196983 -0.16814673 1.17001 3303337
0.10189355 -0.16719054 1.1672302 3368873
0.10868008 -0.16640429 1.1635567 3237543
-0.083415247 -0.1398041 1.1760334 3040164
-0.07689786 -0.14399152 1.1767874 3105701
-0.070561893 -0.1487692 1.1806569 3302822
0.10421018 -0.15826544 1.1692017 3303597
0.11145419 -0.15640905 1.1643205 3238059
0.11859242 -0.15386139 1.1621697 3303852
-0.085350238 -0.13330284 1.1771806 3106213
-0.077475682 -0.1358057 1.1809268 3172007
0.11323079 -0.14736161 1.1682441 3369387
0.120899 -0.14771616 1.1639318 3435181
-0.09195134 -0.12264013 1.1750132 3237030
-0.085165091 -0.12369499 1.1789217 3237800
-0.078891486 -0.12753735 1.1809002 3303594
0.11545844 -0.14144763 1.1682107 3500972
0.12390126 -0.13779671 1.16434 3500976
0.12844378 -0.13528632 1.1592412 3500977
-0.092350714 -0.11330175 1.1766856 3237545
-0.087553993 -0.11522119 1.1804045 3303852
0.12653132 -0.12837508 1.1672858 3566772
0.12955235 -0.12898843 1.1630851 3566515
-0.094195247 -0.10344293 1.1768036 3369389
0.1280203 -0.11892243 1.1670494 3763639
0.13110805 -0.11828803 1.1619351 3763639
-0.1001542 -0.08920645 1.1750704 3435181
-0.094836973 -0.093202367 1.1780214 3435438
0.12939958 -0.10790574 1.1667974 3895737
0.13402782 -0.10819912 1.1613063 3764149
-0.099153556 -0.082763754 1.1759794 3435438
-0.09357892 -0.083698854 1.1796941 3501231
0.12977464 -0.10229546 1.1666908 3961530
0.13505287 -0.0987643 1.1611009 3961528
0.14224793 -0.095923297 1.1577522 3895735
-0.098216645 -0.073544666 1.1763843 3501489
-0.093761928 -0.073570557 1.1789782 3501490
0.13097483 -0.084342569 1.1663498 4159679
0.13603607 -0.089463636 1.1613505 3962041
0.14239694 -0.093694396 1.1577098 3895735
-0.098260194 -0.066203639 1.1752779 3501747
-0.093083493 -0.063308403 1.1775652 3567541
0.13065338 -0.077933423 1.1662778 4225473
0.13403244 -0.078742959 1.1620561 4159424
-0.090710759 -0.05331666 1.1761932 3764919
0.13099629 -0.069064707 1.1661259 4422597
0.13470528 -0.068678662 1.1618649 4357059
-0.089579895 -0.043603465 1.1758049 3896505
-0.084538475 -0.04374275 1.1800545 3962298
0.13158032 -0.058459047 1.1659327 4685767
0.13537809 -0.058614366 1.1616738 4422851
-0.087637506 -0.034624994 1.1737125 4027836
-0.082176492 -0.033127591 1.1786498 4028094
0.13027996 -0.04779442 1.1637411 4948684
0.13570334 -0.050156865 1.1585221 4751818
-0.085513718 -0.026676856 1.1718522 4093632
-0.079349674 -0.023528114 1.1772571 4094399
0.12439551 -0.036929429 1.1660957 5080784
0.12830046 -0.038356151 1.1610464 5211343
-0.075650565 -0.015347548 1.1754067 4094402
-0.06877216 -0.012695305 1.1775541 4226244
-0.062131956 -0.011453591 1.178098 4620744
-0.0083071981 -0.013991542 1.1745645 5412064
0.014088533 -0.015516542 1.1731011 6463211
0.021868723 -0.019891962 1.1726487 6397929
0.031556182 -0.019909501 1.1720064 6397929
0.040877678 -0.018628903 1.1713693 6003432
0.12185808 -0.027505346 1.1636209 5081042
0.12647502 -0.031036176 1.1578535 5081041
-0.067236945 -0.0050688609 1.1721961 4160963
-0.058784164 -0.0046057627 1.176917 4752075
-0.043540269 -0.002575092 1.1767354 4949201
-0.03685905 -0.0035936311 1.176307 5016022
-0.027438803 -0.0053698495 1.1750398 5213659
-0.017749192 -0.0069464669 1.1738546 5411552
-0.0079702642 -0.0083877891 1.1736586 5740773
0.0021459367 -0.0090675279 1.1737994 6003172
0.012196611 -0.0097564757 1.1727418 6331366
0.022079851 -0.010453366 1.1694902 6989552
0.032163452 -0.011136577 1.1692322 6792432
0.042162791 -0.011822291 1.1679274 5937640
0.050823271 -0.011452332 1.1696028 5806054
0.061644644 -0.010864682 1.1698787 5674725
0.068438374 -0.010200113 1.1694183 5674983
0.11390089 -0.015831947 1.1664846 5146841
0.11937676 -0.018380061 1.160431 5080789
-0.063407987 0.0031646714 1.1699512 4554184
-0.059722677 0.0037990287 1.1727045 4751049
-0.044320643 0.0030757785 1.1747001 4818129
-0.036963508 0.0025618672 1.1734178 5015507
-0.027689246 0.0018793792 1.1694047 5147609
-0.017711693 0.0011796951 1.1674501 5346018
-0.0079661831 0.00018270314 1.1694353 5937898
0.0024018288 -0.0012671053 1.1689913 6462952
0.01280312 -0.001242958 1.16741 8303605
0.022061702 -0.0019959807 1.1657887 8501495
0.031756625 -0.0036517084 1.1643546 7252467
0.043107472 -0.0038647428 1.1644459 6069484
0.052345045 -0.0033874288 1.1646893 6135528
0.062591985 -0.0044107959 1.1671276 5741031
0.072058313 -0.0048288703 1.1680977 5543655
0.081648327 -0.0041632354 1.1684542 5477092
0.091757461 -0.0035221279 1.1677742 5739747
0.10306305 -0.0045424625 1.1670392 5280481
0.11182338 -0.0078401491 1.1628052 5015513
0.11700393 -0.010213129 1.1601831 4949463
-0.056287766 0.0093970001 1.1693882 4818122
-0.046829619 0.0097480789 1.1687557 5147606
-0.038129494 0.0099020153 1.1681763 4818639
-0.029594949 0.0075793937 1.167644 5344472
0.014930353 0.0051072687 1.1647264 12971007
0.019341905 0.0042470992 1.1644464 12905215
0.043810323 0.0025809631 1.1628475 5807584
0.057156742 0.0016721562 1.1619754 6004710
0.06325826 0.0022162795 1.1615627 5807083
0.072317705 0.0041212663 1.1630722 5477863
0.080922835 0.0031471699 1.1650548 5542628
0.092703998 -0.00058081746 1.1676686 5673698
0.10325766 0.00063497573 1.1654474 5804766
0.10831799 -0.0018115938 1.1586324 5147865
0.07569699 0.011604965 1.1606009 5412324
-0.0066743959 -0.19504461 1.181102 3039650
-0.00029695407 -0.19612513 1.1806948 3039650
-0.026371958 -0.18578649 1.1822739 2842271
-0.019630486 -0.18624553 1.1818334 2973857
-0.0093400367 -0.18801598 1.1824425 2973857
0.00033569708 -0.1904074 1.1831017 3039395
0.01102799 -0.18921098 1.1816247 3171237
0.020340819 -0.1884374 1.180283 3237030
0.030708794 -0.18858278 1.1800702 3302569
0.038988058 -0.18929194 1.1793257 3237546
-0.045255445 -0.17399865 1.1833549 2908065
-0.037775926 -0.17547739 1.1828802 2973857
-0.029183654 -0.17781104 1.1833465 2973857
-0.019533074 -0.18035212 1.1838635 2973858
-0.011207761 -0.18171409 1.1852179 3105444
0.020358646 -0.18386355 1.1831552 3237030
0.032108847 -0.18315059 1.1823653 3302825
0.041011095 -0.18330652 1.1814687 3171754
0.050678357 -0.18451644 1.1791488 3171752
0.060965665 -0.18480375 1.177881 3171753
0.069546856 -0.1822715 1.1768622 3237546
0.077825233 -0.18044084 1.1752841 3303592
-0.055753432 -0.16380511 1.1839027 2908579
-0.047608219 -0.16649631 1.1854062 2908579
-0.037854828 -0.16861627 1.1857013 3105444
-0.029287765 -0.17095065 1.1862603 3105443
0.064930297 -0.17782021 1.1801105 3303339
0.072991639 -0.17611618 1.1782146 3303082
0.081353299 -0.1746124 1.1755379 3237545
0.087416001 -0.17204607 1.1745257 3303850
-0.063989401 -0.15193449 1.1842762 3302822
-0.057544373 -0.1566453 1.1861725 3040165
-0.050584815 -0.16087598 1.1875263 3040167
0.076808169 -0.16955063 1.1792022 3303598
0.083048247 -0.16598974 1.177793 3238061
0.091583781 -0.16454116 1.1752535 3303596
0.099329181 -0.16267844 1.173599 3369131
-0.073024601 -0.14076343 1.1847129 3171751
-0.066776238 -0.14480294 1.1857722 3368615
-0.059975967 -0.14888851 1.1879748 3171751
0.10167369 -0.15622026 1.1748528 3369134
-0.074520446 -0.13359293 1.1847076 3369130
-0.068360724 -0.13591953 1.1873398 3434922
0.10354166 -0.14663181 1.1761404 3435183
-0.075576447 -0.12487867 1.1859872 3434923
0.10676502 -0.13973822 1.175979 3501232
0.11366414 -0.13708046 1.1748694 3435694
0.12031167 -0.13583268 1.1718161 3501232
-0.083041631 -0.11320905 1.1859783 3369646
-0.077488415 -0.1173176 1.1873403 3435182
0.1180841 -0.12810412 1.1758605 3567282
0.12206265 -0.12788078 1.1734066 3567027
-0.090614721 -0.099981323 1.1852858 3501231
-0.086130135 -0.10417344 1.1878057 3435439
0.11861274 -0.12019652 1.1757103 3829686
0.12376463 -0.11776236 1.1735512 3829431
-0.090388924 -0.096603751 1.1852216 3501231
-0.085695252 -0.093644395 1.1865376 3567024
0.12671693 -0.1085547 1.1736668 3830201
-0.089448102 -0.082530558 1.1849543 3632818
-0.086148538 -0.083439179 1.1867532 3698612
0.12948875 -0.098122686 1.1726629 3896507
-0.088808343 -0.072960787 1.1847725 3633333
-0.084808148 -0.073376089 1.1873195 3764919
0.12997273 -0.087934792 1.1719812 4093886
-0.088670701 -0.064148501 1.1846349 3633334
-0.084376611 -0.063444465 1.1875472 3830201
0.12767194 -0.078118965 1.1727147 4291523
-0.083369523 -0.053218052 1.1857946 3896506
0.1278425 -0.06763538 1.1719271 4619975
-0.079463691 -0.043911625 1.1854477 4028348
0.12291737 -0.055806123 1.174487 5146320
0.12711205 -0.058336485 1.1732433 4883148
-0.077220105 -0.034656256 1.1837323 3962814
-0.07200063 -0.03360077 1.185948 3963072
0.12241905 -0.046954516 1.1728877 5146577
0.12592517 -0.048857186 1.1706783 5080527
-0.07526508 -0.025703207 1.1831858 4028607
-0.068855934 -0.02434849 1.1848792 4291526
-0.018899476 -0.025722936 1.1834563 5147865
-0.011443714 -0.026003666 1.1829658 5344731
0.0048508514 -0.026205383 1.1818879 5345501
0.011615082 -0.026665986 1.1814458 5739743
0.021512968 -0.029601857 1.1794956 5936862
0.030549658 -0.030219123 1.1792393 5871068
0.040851224 -0.029791571 1.179552 5739228
0.058964692 -0.029890187 1.1783519 5213656
0.12113666 -0.037968177 1.1727417 4949970
-0.066730432 -0.017066866 1.1824939 4422856
-0.057897292 -0.01286108 1.1836691 4686797
-0.047485761 -0.012435943 1.1831545 4884690
-0.03713198 -0.014553815 1.1840019 4950486
-0.026828432 -0.016031973 1.1825047 5213659
-0.0184983 -0.017808788 1.1801071 5279707
-0.0084316712 -0.019626409 1.1798667 5345244
0.0017916095 -0.018688455 1.1790857 5411808
0.011519851 -0.020470917 1.1782639 5806052
0.020546304 -0.024235085 1.1768088 6068964
0.032506056 -0.025426455 1.1760328 6068963
0.042718593 -0.023718469 1.1762557 6003173
0.051310658 -0.022564672 1.1765479 5608417
0.061505117 -0.023256734 1.176483 5411038
0.068436787 -0.023726381 1.1776338 5279709
0.11298747 -0.025017038 1.1737721 5212630
0.11825373 -0.029007249 1.1717333 5015248
-0.053955756 -0.007475175 1.1815068 4949712
-0.047214277 -0.0079342276 1.1810663 4949713
-0.037102066 -0.0086228028 1.1804055 5016279
-0.027763991 -0.0096356571 1.1798009 5213659
-0.019200062 -0.010972783 1.1792523 5345501
0.05330842 -0.015344664 1.1745061 5871590
0.061772898 -0.01535555 1.1739447 5871847
0.072266057 -0.013794564 1.1752305 5543139
0.079613626 -0.013157919 1.1750202 5280225
0.10414051 -0.014809594 1.1751355 5411294
0.10971357 -0.016654059 1.1722414 5279196
0.082000017 -0.0082505345 1.1724995 5411556
0.091663346 -0.0072120726 1.1718434 5412066
0.10289913 -0.0079771578 1.1711092 5477344
0.10949007 -0.010687917 1.1707115 5213404
0.0019936971 -0.18581975 1.1884111 3105189
-0.017656455 -0.17597896 1.1905737 3039906
-0.0081123058 -0.17875977 1.1904106 3039908
0.0014287774 -0.18053675 1.1917126 3105447
0.011871994 -0.1805186 1.1884304 3105702
0.020949285 -0.17989926 1.1870675 3171750
0.029923324 -0.1800963 1.1864752 3237289
0.041461788 -0.1790188 1.185694 3237548
0.051642269 -0.17971203 1.1850288 3171752
0.060691588 -0.18032822 1.1844375 3171752
-0.044488274 -0.16269088 1.1911577 3039909
-0.036663294 -0.16393961 1.1915478 3105701
-0.028609982 -0.16711195 1.1927201 3105443
-0.019316508 -0.17312238 1.1936491 3040163
0.011388157 -0.17429921 1.1916294 3105960
0.022812067 -0.17396004 1.1908666 3105958
0.031917579 -0.17308065 1.189448 3237545
0.042268224 -0.17274302 1.1876593 3237547
0.052254416 -0.17311907 1.1864959 3237544
0.062294908 -0.17357343 1.1859208 3237545
0.070974514 -0.17219138 1.1843051 3303339
-0.055057883 -0.15252064 1.1917107 3172009
-0.046724588 -0.15621343 1.1936172 3105961
-0.037471727 -0.15903375 1.1946481 3171752
0.046136327 -0.16615495 1.1892058 3303337
0.052946068 -0.16661865 1.1887608 3303593
0.063063711 -0.16632837 1.1880854 3303594
0.072322257 -0.16436225 1.1861898 3303596
0.079033032 -0.16335928 1.1829737 3238062
-0.061842144 -0.14351906 1.1920297 3434409
-0.056056634 -0.14562601 1.1945065 3237547
-0.047834545 -0.14853951 1.1951828 3237805
0.073849574 -0.15712544 1.187236 3238318
0.083227076 -0.15484609 1.1854581 3238572
0.093209773 -0.15534291 1.1831193 3434926
0.099642664 -0.15519831 1.1814877 3369134
-0.063488916 -0.13433206 1.1932387 3435179
-0.057551727 -0.13670684 1.1952095 3369388
0.08836329 -0.14846653 1.1861471 3500977
0.094130166 -0.14533164 1.1847166 3435186
0.099364132 -0.14576676 1.1813688 3500720
-0.071265794 -0.12304135 1.1933589 3566511
-0.065670215 -0.12627587 1.1947052 3566767
-0.058572896 -0.12932163 1.1956152 3500977
0.096129879 -0.13780889 1.1849755 3501234
0.10396501 -0.13594776 1.1816723 3501490
-0.080005653 -0.10926238 1.1927357 3566770
-0.073408678 -0.11425531 1.1949767 3632306
-0.06704434 -0.1196053 1.1960356 3632563
0.10645833 -0.12739977 1.1832249 3699127
0.11381499 -0.12665112 1.1806035 3633076
-0.080769993 -0.10359079 1.193706 3566770
-0.074652746 -0.10485075 1.1963254 3763892
0.10804588 -0.11838984 1.1844034 3633335
0.11467823 -0.11668888 1.1814886 3764407
-0.080109827 -0.093499571 1.1953194 3698868
-0.075746238 -0.094386972 1.1962457 3699126
0.10941167 -0.10648729 1.1841395 3962811
0.11583947 -0.10703579 1.1825517 3830969
0.12332871 -0.10781816 1.1792265 3830714
-0.080738477 -0.083515145 1.1933345 3699126
-0.075331099 -0.084387213 1.1960725 3830712
0.11723584 -0.097158454 1.1828831 4028606
0.12513103 -0.097855993 1.1789619 3962300
-0.07948336 -0.074081853 1.1937923 3830970
-0.074423417 -0.074058317 1.1958618 3962813
0.1181502 -0.088131368 1.1832925 4291522
0.12578417 -0.088306829 1.1791439 4094399
-0.079104461 -0.064014919 1.1937351 3962044
-0.074117742 -0.064613253 1.195704 4093630
0.12042615 -0.077523828 1.1827197 4554438
0.124954 -0.078650117 1.1786939 4357059
-0.077838793 -0.054043155 1.1931241 4093886
-0.073054917 -0.05358769 1.195473 4291009
0.1192637 -0.066889353 1.1820183 4686026
0.12505452 -0.067433462 1.1785239 4685769
-0.075838082 -0.046922274 1.1915513 4159935
-0.070504591 -0.04475721 1.1940297 4225985
0.11275691 -0.05644799 1.1831888 5015248
0.1185559 -0.058170743 1.1801565 5014991
-0.066895932 -0.035177741 1.1929096 4292037
-0.061570317 -0.03772283 1.1944801 4619977
-0.038415007 -0.032444954 1.1928672 5279449
-0.03047031 -0.032985933 1.192348 5016538
-0.018061807 -0.034973312 1.1915538 4950743
-0.0086933747 -0.0372913 1.1909661 4950488
0.00037445128 -0.03775195 1.1903714 5147351
0.010841582 -0.037512664 1.1896735 5278422
0.021150688 -0.040551063 1.188143 5212886
0.030448427 -0.040536508 1.1866629 5278423
0.040466338 -0.04036998 1.1864972 5147094
0.051375367 -0.041496791 1.1870428 4885460
0.060872771 -0.04065007 1.1856714 4950741
0.070026062 -0.040743046 1.1857946 5016279
0.11183809 -0.046537522 1.1817023 5212370
0.11895224 -0.048230767 1.1786489 5212369
-0.064366311 -0.028369963 1.1925247 4423370
-0.062115543 -0.025328971 1.1919302 4554187
-0.037633091 -0.02746994 1.1924756 5147610
-0.027884202 -0.027435929 1.1900911 5081818
-0.01897 -0.030322544 1.1895418 5016538
-0.0077636559 -0.029643379 1.1889222 5278938
0.0013427977 -0.02965571 1.1883183 5344730
0.011637527 -0.031257354 1.1865896 5673948
0.021599045 -0.034200639 1.1849025 5805277
0.030648358 -0.034816839 1.1843113 5541848
0.040904611 -0.034376591 1.1836245 5475544
0.051236637 -0.032802917 1.1829162 5213397
0.061849631 -0.034136515 1.1829392 5082070
0.071662158 -0.033989076 1.183984 5016536
0.080812134 -0.032403298 1.1849576 5213915
0.091578327 -0.032157198 1.1842399 5279453
0.10244349 -0.033353999 1.1835366 5213659
0.11153848 -0.036929812 1.1813817 5212628
0.11797534 -0.037347399 1.1785553 5146833
-0.061500929 -0.019433133 1.1901999 4554443
-0.036267839 -0.019329563 1.1885246 5016281
-0.029089006 -0.020729281 1.1880687 5147611
0.0018442776 -0.023746535 1.1860608 5411294
0.072656617 -0.024013944 1.1813673 5148123
0.081353553 -0.024606928 1.1809995 5213915
0.091431811 -0.025494181 1.1818866 5213917
0.10218333 -0.026149325 1.1817609 5213659
0.10990686 -0.028449409 1.1792951 5212887
0.10327564 -0.019267201 1.179267 5279708
0.1078003 -0.019575298 1.1789714 5411037
-0.013426727 -0.17417268 1.1982851 3106213
-0.0077282339 -0.17456073 1.1979128 3105959
0.0034623034 -0.17597827 1.1971911 3105706
0.013926025 -0.17603523 1.1964978 3105960
-0.023795782 -0.16658339 1.1988624 3105700
-0.016432879 -0.16832361 1.1991512 3105957
-0.0073105562 -0.16894478 1.198555 3106216
0.003002692 -0.16975208 1.1987346 3106217
0.013620488 -0.1699619 1.1978616 3171752
0.021494118 -0.17000926 1.1970015 3303337
0.03277196 -0.16814086 1.1951327 3369130
0.039610144 -0.16860649 1.1946859 3369132
-0.0355727 -0.15453815 1.1998024 3171753
-0.025943844 -0.15756927 1.2016 3171752
-0.015577739 -0.15851952 1.2030109 3172010
-0.0064555276 -0.16040543 1.2033855 3172012
0.0036185663 -0.16066036 1.2035183 3237802
0.014250411 -0.16069081 1.2022667 3303338
0.023425244 -0.16134 1.2018681 3369133
0.033596665 -0.16182959 1.1994765 3369388
0.043663949 -0.1621912 1.1981218 3303853
0.052852266 -0.16167636 1.1954606 3369643
0.062869079 -0.16157901 1.1932765 3303851
-0.052470863 -0.14168668 1.200402 3303598
-0.044472583 -0.1450341 1.2016385 3303341
-0.035835333 -0.14730601 1.2045351 3303340
-0.026438875 -0.14933889 1.2068051 3369132
-0.018429348 -0.15177402 1.2063092 3303600
0.014841864 -0.15403958 1.2041352 3303598
0.02746198 -0.15489893 1.2033105 3435186
0.034919322 -0.15540673 1.2028233 3369391
0.044671226 -0.15607077 1.2021861 3369392
0.05459477 -0.15383565 1.2008784 3369390
0.063955776 -0.15346451 1.1966592 3435184
0.073157653 -0.15253559 1.1922265 3369392
-0.052899003 -0.13462353 1.2011294 3369646
-0.045636691 -0.13735965 1.2054986 3303853
-0.038465619 -0.14117095 1.2074839 3173034
0.057111315 -0.14583138 1.2012117 3566773
0.065304406 -0.1450887 1.1999892 3566516
0.075004406 -0.14391378 1.1963886 3500977
0.084654801 -0.14527293 1.1930462 3500975
-0.062277056 -0.1220081 1.2007658 3632562
-0.05344452 -0.12563854 1.2032398 3501236
-0.045674324 -0.12626629 1.2072996 3501494
0.078064628 -0.1349591 1.1996634 3698612
0.085419238 -0.135841 1.1968193 3567283
0.094226576 -0.13404068 1.1934997 3567283
0.10162287 -0.13152976 1.1900324 3501747
-0.068797387 -0.11189479 1.2010511 3895478
-0.063243799 -0.11477318 1.2032305 3698613
-0.054182567 -0.11627544 1.2068275 3633080
0.079940632 -0.12844652 1.1994442 3699128
0.086684152 -0.12570769 1.198957 3830713
0.09606982 -0.12597944 1.1971356 3699126
0.1025063 -0.12516557 1.1898811 3633333
-0.06956549 -0.10381205 1.2009844 3961271
-0.062548198 -0.10465969 1.2055428 3896247
-0.05581753 -0.10765385 1.2081468 3764921
0.087041736 -0.11876746 1.1988322 3962300
0.09799353 -0.11700408 1.1976084 3896506
0.10526305 -0.11569913 1.1915649 3764920
-0.070201404 -0.094402209 1.2023931 3830712
-0.063002914 -0.094373442 1.2070937 4093627
0.10170065 -0.10636947 1.1976792 4028352
0.1067583 -0.10620381 1.1919956 3962812
-0.069878586 -0.084076181 1.2027224 3962556
-0.063178837 -0.085568383 1.207868 4028606
0.10187005 -0.095954441 1.1975163 4357317
0.10797653 -0.096633539 1.1931119 4225985
0.11333621 -0.093322359 1.1886989 4225985
-0.068788268 -0.075122483 1.2025197 4028606
-0.063659981 -0.07555417 1.2081995 4094655
0.10293031 -0.087975748 1.1973298 4554695
0.10857996 -0.086282641 1.1923198 4554182
0.11465587 -0.084999375 1.1884902 4619462
-0.068858482 -0.06447053 1.2008362 4159424
-0.060436539 -0.06393896 1.206583 4160448
-0.053967521 -0.062741019 1.20737 4554440
0.10428071 -0.074671544 1.1970464 4620747
0.10961127 -0.076096192 1.1944584 4686026
0.11554476 -0.07741186 1.1883206 4619977
-0.067627788 -0.054878879 1.2001432 4291265
-0.059253111 -0.055360768 1.2048569 4357573
-0.053506389 -0.055843368 1.2072389 4751563
0.02048149 -0.058186837 1.2023652 4818903
0.028181281 -0.057941247 1.2018508 4819160
0.10301378 -0.066039443 1.1970048 4752590
0.11022258 -0.066916272 1.1942841 4817869
0.11493947 -0.069340214 1.1882433 4752076
-0.065009691 -0.045450885 1.1998322 4291778
-0.058759511 -0.045106132 1.2029998 4554440
-0.052968413 -0.047796115 1.2070861 4883149
-0.034253113 -0.042057257 1.2017518 5674209
-0.028535658 -0.04244658 1.2013782 5082331
-0.017287815 -0.046022382 1.2025552 4950745
-0.0082885586 -0.048421707 1.1995208 4884953
0.00084597804 -0.049038351 1.1987233 4753366
0.011281988 -0.04862703 1.1992279 4884692
0.021658391 -0.050975867 1.1977274 4884692
0.030471405 -0.050839618 1.1977973 4884692
0.040865883 -0.050307665 1.1995618 4950484
0.051575713 -0.052023076 1.1970944 4950488
0.060399853 -0.052344527 1.1975095 4950489
0.07112626 -0.051604342 1.1978407 5411037
0.080156244 -0.051952962 1.1983159 5542623
0.094344959 -0.050898157 1.1973593 5213404
0.10189699 -0.054299507 1.1969079 5081558
0.10986077 -0.057132822 1.1940153 5015248
-0.059101626 -0.035364445 1.1992934 4685772
-0.036869608 -0.036392625 1.198927 5542365
-0.027947536 -0.037179936 1.1983988 4951002
-0.019365383 -0.038815167 1.1967078 4884951
-0.01026912 -0.041311812 1.1961408 4753366
0.0034836046 -0.041101079 1.1952254 4950484
0.012297175 -0.041988023 1.1946536 5015763
0.042156987 -0.044881694 1.192715 5015764
0.048995171 -0.045347329 1.1922683 4885461
0.060946032 -0.045177788 1.191473 4884950
0.071880959 -0.044821355 1.1925929 5082072
0.081487417 -0.044277918 1.1949084 5542624
0.091106974 -0.046047568 1.1967016 5279197
0.10111202 -0.045530729 1.193224 5213144
0.10793046 -0.048595637 1.1884061 5212627
0.075818993 -0.037996206 1.1903819 5016538
0.081631996 -0.036671229 1.1899769 5213917
0.091294885 -0.034843594 1.1893094 5345245
0.10148967 -0.037839878 1.1893449 5213917
0.19263257 -0.046042498 1.1907687 13158081
-0.0057674069 -0.15539661 1.2095313 3303598
0.0068944292 -0.15625879 1.208704 3303850
-0.033374481 -0.14285707 1.21118 3303853
-0.02372993 -0.14510655 1.2109309 3304111
-0.014227239 -0.14784378 1.2120926 3303857
-0.0051681865 -0.14877383 1.2121515 3303856
0.0052287001 -0.14950852 1.2117231 3369903
0.015491717 -0.14873359 1.208024 3435441
0.024457701 -0.15025885 1.2074516 3435187
0.034932025 -0.15033323 1.2067578 3500978
0.045419693 -0.1507715 1.2060685 3369649
0.052203879 -0.14961134 1.2056016 3435441
-0.041010126 -0.13484448 1.2115698 3370159
-0.034538768 -0.13605757 1.2111583 3370416
-0.024097482 -0.13698915 1.2127343 3436469
-0.013608145 -0.13797459 1.2148093 3502005
-0.0043616071 -0.13860422 1.214205 3501749
0.0058084689 -0.14278704 1.2135913 3501493
0.016359705 -0.13988869 1.2115964 3567542
0.025667302 -0.14061737 1.2119292 3567541
0.035964794 -0.1411998 1.2100644 3633333
0.046121676 -0.14163956 1.2068286 3567541
0.054666869 -0.14150801 1.2053202 3633079
0.064805478 -0.14000839 1.2046258 3632566
-0.040828355 -0.12636001 1.2114342 3501750
-0.033854507 -0.12705871 1.2134875 3567798
-0.025364948 -0.12813507 1.2154459 3633848
-0.0120652 -0.13226251 1.2146237 3633591
-0.0051302966 -0.13273473 1.2141706 3699128
0.016907647 -0.13307194 1.2127136 3830714
0.027309999 -0.13378029 1.2120339 3764921
0.03683003 -0.13347663 1.2113979 3830712
0.047376961 -0.13328503 1.2103375 3830713
0.05604858 -0.13358063 1.2094564 3830458
0.06621965 -0.13404384 1.2068191 3764409
0.07429076 -0.13308905 1.2044526 3764407
-0.049081936 -0.11490661 1.2118149 3698874
-0.042392507 -0.11600513 1.2136424 3764923
-0.033735842 -0.11723632 1.2158424 3765435
-0.027627228 -0.12189538 1.215505 3699641
0.065608665 -0.12824415 1.2094127 3896252
0.07581751 -0.12451096 1.2060561 3831226
0.083030738 -0.1243661 1.203189 3830458
-0.051028661 -0.10529377 1.2125953 3896508
-0.041646317 -0.10581617 1.2162008 4028352
-0.033833221 -0.10704625 1.2157004 4094143
0.077680536 -0.11472858 1.2048354 4159936
0.086952865 -0.11412799 1.2027798 4028352
0.095044091 -0.11330788 1.202231 3962559
-0.058391847 -0.095038928 1.2121432 4093628
-0.051474184 -0.095560126 1.2124436 4028352
-0.041032255 -0.096530832 1.2157116 4094401
-0.03421478 -0.095385961 1.2155559 4225986
0.07989791 -0.10564323 1.2067689 4357317
0.088146552 -0.10519993 1.2053895 4225732
0.096788622 -0.10537399 1.2019998 4159938
-0.058728576 -0.085250162 1.2120229 4028609
-0.050499074 -0.085857302 1.2128526 3963330
-0.040969312 -0.086494565 1.2158746 4160708
-0.034783274 -0.089995466 1.2155151 4292035
0.083497159 -0.092232443 1.2077017 4620236
0.088651024 -0.095347196 1.206013 4488649
0.096805587 -0.096604988 1.201871 4357318
-0.059196703 -0.074955881 1.211904 4160449
-0.050400212 -0.075662352 1.215035 4160708
-0.041066691 -0.076304495 1.2157326 4489161
0.090394959 -0.086163528 1.2060817 4555212
0.09846019 -0.085558876 1.2016003 4620489
-0.15004969 -0.060041383 1.222725 14082013
-0.057334349 -0.067689344 1.2116747 4226242
-0.048948243 -0.065918386 1.2135984 4620234
-0.041581713 -0.064324871 1.2155923 5079759
-0.0076519456 -0.066247448 1.2133695 6791922
0.00051619485 -0.065640219 1.2128189 5608162
0.010918546 -0.066348553 1.2121391 5016279
0.020769507 -0.069082543 1.2101587 5608413
0.029372903 -0.068186894 1.2109418 4950485
0.036346518 -0.068080038 1.2104776 5016277
0.093905076 -0.075489692 1.2067674 4752847
0.099567749 -0.07594794 1.2031556 4620747
-0.049124166 -0.057007115 1.2119768 4948687
-0.038626723 -0.060647979 1.2153426 5408980
-0.017074959 -0.059012398 1.2119617 6134248
-0.0084599536 -0.059132986 1.2108138 5344990
0.00044701248 -0.059917647 1.2105923 4884696
0.011568891 -0.060716894 1.2099504 4818902
0.021704393 -0.062720686 1.2063593 4818646
0.030912509 -0.062248088 1.2064576 4818646
0.041075185 -0.062479723 1.2068249 4884696
0.051152684 -0.062670045 1.206195 5344733
0.060340278 -0.063283376 1.2052364 5936870
0.070238635 -0.063381791 1.2073257 5608416
0.079407074 -0.063100852 1.2075487 5082072
0.091900066 -0.06478478 1.2037376 5016278
0.097982727 -0.066756092 1.2013582 4884178
-0.017399127 -0.052642573 1.2088065 5082331
0.011377768 -0.054602094 1.2069261 4687574
0.034399286 -0.056169711 1.2054218 4687574
0.042336442 -0.056048084 1.2048936 4819159
0.049363278 -0.05718866 1.2044441 4950233
0.062025115 -0.058050849 1.2036166 5542369
0.070807807 -0.057361498 1.203024 5805540
0.083743185 -0.056053735 1.2021469 5213659
0.091033332 -0.056550153 1.2016705 5147866
0.099729732 -0.059073415 1.2011304 5081557
0.0063518994 -0.13855992 1.2175028 3633335
-0.020350875 -0.12613028 1.2190932 3699641
-0.012889827 -0.12708776 1.2186122 3765177
-0.0031183772 -0.12789693 1.2196267 3830714
0.0071433373 -0.12953068 1.2202055 3962299
0.017609067 -0.12771127 1.2172663 4028092
0.026310842 -0.12910482 1.2163275 3962300
0.035836097 -0.12938209 1.2161424 3962299
0.045539193 -0.12870929 1.2169874 3962299
0.057811953 -0.12852393 1.2139431 3896509
0.06758374 -0.12872241 1.2132978 3830714
-0.029357376 -0.11511787 1.2195302 3962813
-0.022824852 -0.11726249 1.2209101 3962813
-0.011853667 -0.11918571 1.2224376 4028350
-0.0027939118 -0.12193182 1.2218767 4093886
0.0041864999 -0.12240714 1.2214205 4093886
0.018381126 -0.11986051 1.2204419 4291263
0.027688343 -0.12049428 1.2198337 4291265
0.03699556 -0.12112804 1.2192255 4291265
0.047466181 -0.12184103 1.2185414 4225471
0.057682827 -0.12233281 1.2153651 4159424
0.06681253 -0.12283367 1.2132633 4028351
-0.029895542 -0.10574324 1.2194294 4159681
-0.024308493 -0.10782391 1.2220049 4159937
0.018926661 -0.1117002 1.2202868 4685507
0.028528906 -0.1114172 1.2196457 4685766
0.037370764 -0.11201927 1.2190681 4685768
0.049337558 -0.1129193 1.2182873 4685254
0.058534406 -0.11320707 1.2174308 4553924
0.067460388 -0.11355747 1.2133358 4357059
0.073387377 -0.11160889 1.2126637 4291524
-0.030320903 -0.097758457 1.2196754 4291267
-0.024311857 -0.097226761 1.2221425 4291525
0.029864883 -0.10541862 1.2194698 5080013
0.036845297 -0.10589395 1.2190137 5013964
0.05228126 -0.10226077 1.2179368 5014215
0.059261672 -0.10273609 1.2174807 4948424
0.06848076 -0.10330922 1.2160757 4686025
0.076000445 -0.10325006 1.2139722 4554696
-0.036614582 -0.084275246 1.2195625 4423366
-0.031129057 -0.08677645 1.2211061 4489158
-0.025199087 -0.089958459 1.2228973 4554697
0.052982658 -0.091768935 1.2177374 6725605
0.060180165 -0.092493251 1.2172706 5541334
0.069270283 -0.092878014 1.2166733 4949456
0.079031393 -0.094733581 1.2145253 4752076
-0.037152752 -0.074900597 1.2194617 4751821
-0.031356424 -0.07659249 1.2217747 4817612
-0.0054935794 -0.074905351 1.2213709 6133729
-0.0031667762 -0.075063795 1.2212188 5804510
