# .PCD v0.7 - Point Cloud Data file format
VERSION 0.7
FIELDS x y z rgba
SIZE 4 4 4 4
TYPE F F F U
COUNT 1 1 1 1
WIDTH 1130
HEIGHT 1
VIEWPOINT 0 0 0 1 0 0 0
POINTS 1130
DATA ascii
-0.0019705826 0.020669885 0.98412502 5670854
0.0065089818 0.020766579 0.9826498 5802194
0.015933961 0.019957274 0.98169196 6132189
0.023490187 0.020128831 0.98271298 5737423
-0.010823047 0.023027964 0.98405975 4350608
-0.0020043533 0.022556961 0.98409486 4285852
0.0071844449 0.024136938 0.98276484 4022164
0.01623762 0.025089733 0.98261118 4153228
0.024367299 0.025861613 0.98412448 4284293
-0.079675376 -0.0022971258 0.99324977 6128822
-0.075506046 -0.0010794178 0.9932434 5801146
-0.072089031 0.0040066689 0.99204779 5272735
-0.064268738 0.0062939823 0.98947865 5536936
-0.054986823 0.0089616925 0.98789668 5801142
-0.045345478 0.010535561 0.98715156 6263759
0.077271163 0.010042839 0.99354315 5864111
-0.061759289 0.01321891 0.99155807 5270664
-0.052865829 0.015465952 0.98923159 5008273
-0.043604817 0.016287006 0.98826545 5206430
-0.034136664 0.018532962 0.98739243 5074073
-0.025261406 0.018697739 0.98965585 5274031
-0.015226511 0.020542927 0.987086 5405876
-0.0067079142 0.020695753 0.9871102 5998788
0.0018106792 0.020848595 0.98713434 5802444
0.02836071 0.020414256 0.98822433 5538507
0.036298525 0.020310789 0.9886145 4944316
0.04547767 0.019808374 0.98928761 5008558
0.056021318 0.019746296 0.99115509 4612496
0.062851489 0.017403431 0.99338073 4546960
-0.049630191 0.022052243 0.99295527 5401735
-0.043841936 0.022086143 0.99117255 5270150
-0.033528239 0.022818759 0.99127883 5203846
-0.021087721 0.024677396 0.99225247 4875914
-0.013645781 0.026598364 0.98870891 4875142
-0.0041644983 0.026891574 0.98944825 4743815
0.0045360085 0.027982175 0.98927939 4678280
0.015129929 0.029908724 0.98943174 4809598
0.028091649 0.027936324 0.9884882 4612484
0.035799325 0.026734851 0.98973793 4677249
0.045117363 0.026132546 0.99106824 5005437
0.055178344 0.026621796 0.99320972 5268860
-0.012663851 0.032239586 0.99290824 5006720
-0.092082262 -0.012763754 1.0019791 5932737
-0.087833807 -0.010963358 1.0013636 5933251
-0.092564046 -0.0073691458 1.0026553 6192539
-0.084531501 -0.0039353073 0.99817443 5930664
0.089833438 0.0030967072 1.0013609 6983363
0.097010791 0.0022975877 1.0047299 6061227
0.10233071 0.0030596629 1.0047343 5400966
-0.081979185 0.0044685528 0.99951053 6189971
-0.075331002 0.0075719878 0.99710649 5861520
-0.067719355 0.010381043 0.99608535 5664907
0.069343239 0.012362503 0.99648184 5996731
0.077345923 0.011115059 0.99807239 5731750
0.086795434 0.0097850487 1.0015781 5927827
0.095127523 0.0073597133 1.0046432 5861518
-0.072923034 0.012356646 1.0014383 6058377
-0.061968226 0.015853308 0.99934977 5467271
-0.05656701 0.019278772 0.99872863 5466762
0.066932648 0.018960722 0.9977693 5268360
0.075387493 0.017436527 1.0012871 5663111
0.083691999 0.015198804 1.0029823 6517124
-0.054775495 0.022231959 0.9999373 5532297
-0.040990837 0.024954662 0.99793661 5204613
-0.034810729 0.027528398 0.99920917 5138821
-0.025133308 0.027074844 0.99677038 4876167
-0.017441889 0.030388474 0.99592328 5138310
-0.0059809256 0.03059411 0.99595577 5138050
0.036679339 0.031359494 0.99607682 5006203
0.0463433 0.030595034 0.99649423 5202812
0.054421175 0.029385164 0.99616373 5203582
0.064298019 0.025511608 1.0000569 5597049
-0.032052815 0.032423958 1.0038462 5269636
-0.023538541 0.033225507 1.0013597 5204101
-0.013967244 0.03374961 0.99975598 5072257
-0.0041375738 0.033662871 0.999313 5006718
0.0054397793 0.033770457 0.99804103 4875393
0.015060742 0.034091264 1.0010664 4875390
0.025535496 0.034200609 1.0012702 4874877
0.035718489 0.034313008 1.0002495 5006460
0.042932644 0.033648327 1.0015606 5202811
-0.10288972 -0.01505094 1.0085828 6980776
-0.09673813 -0.0147058 1.0073963 6129600
-0.10195249 -0.0084339231 1.0114806 7570324
-0.094693094 -0.0052446127 1.0078518 6651024
-0.088561624 0.00065140426 1.0071769 6781327
0.09496294 8.109957e-005 1.0077592 6854356
0.1065293 0.00042401254 1.0096235 7111067
-0.084414661 0.0065468624 1.0082209 6583439
0.097673684 0.01135359 1.008388 6845830
0.10596192 0.0089308619 1.0106528 7436672
-0.072290346 0.017764658 1.0105982 6321290
-0.066117644 0.018770248 1.0095834 5795463
0.076542452 0.021136284 1.0113664 5860223
0.086326212 0.016590931 1.0092691 6649473
0.093783483 0.016173638 1.0134997 6977411
-0.072796211 0.022326402 1.010631 7372164
-0.063354865 0.022771046 1.0094032 6123396
-0.054081563 0.027335718 1.0115263 5729669
-0.045553435 0.02806785 1.0115621 5336195
-0.038871098 0.030515313 1.0068557 5270149
0.066452146 0.028059088 1.007224 5532277
0.074004054 0.025389597 1.0120908 5860472
-0.054673832 0.032453597 1.0127764 6714755
-0.045608673 0.032616243 1.0128021 5794947
-0.034818891 0.034455687 1.0107062 5466498
-0.024404805 0.037199527 1.0095447 5466240
-0.013937838 0.037932143 1.010716 5334655
-0.0034704935 0.038234219 1.0092436 5138044
0.0055641243 0.039066106 1.0098586 5072252
0.015250752 0.039042622 1.0091968 5072247
0.024916973 0.038663909 1.0088539 5137530
0.035149489 0.03820616 1.0125365 5137788
0.044240717 0.03505455 1.0100434 5268347
0.11348295 -0.0072542727 1.0169352 7374502
-0.1027381 -0.004955776 1.0203667 9214113
-0.093979225 -0.00091720372 1.0184722 6978442
0.10955159 -0.005376175 1.0168929 7112109
0.11395641 -0.001083903 1.0174699 8686741
-0.09221445 0.0049002618 1.0189992 7636109
-0.086932361 0.0090809464 1.018049 7437970
0.11387673 0.0070427954 1.0167084 9277068
0.079245523 0.022697046 1.0173507 5992060
0.085837424 0.020793088 1.0199853 6451580
0.092750162 0.019736439 1.0187736 6516347
-0.062557489 0.025354989 1.0168654 6254982
-0.059076522 0.029915504 1.0228044 6648965
-0.043074261 0.028909586 1.0158694 5270660
0.060325656 0.032852799 1.0191299 5662844
0.066217363 0.031595483 1.0192684 5794679
0.074873045 0.028946549 1.0182375 5926261
0.083100423 0.025521733 1.0213182 6253428
-0.053006571 0.034661964 1.0174968 7043204
-0.043927263 0.035503462 1.0179286 6188928
-0.033605747 0.038797408 1.0188417 5991293
-0.023877971 0.041125029 1.018935 5794427
-0.014089467 0.041255832 1.0181633 5597052
-0.0058780983 0.04094623 1.0169938 5399930
0.0034745643 0.041436553 1.015815 5203324
0.014189939 0.041628793 1.0158454 5269365
0.026882101 0.041912511 1.0168806 5334394
0.036070056 0.04110679 1.0189224 5466234
0.042651553 0.039422914 1.0198033 5597049
0.060273211 0.03578338 1.019083 5991033
0.064887948 0.035839364 1.0213826 6055795
-0.02195058 0.043102741 1.0187094 6056827
-0.012971269 0.044447526 1.0222166 5859449
-0.0045959707 0.044728756 1.0211381 5728377
0.0045767939 0.044370905 1.0227727 5532027
0.015235406 0.044001549 1.0228119 5532021
-0.099979803 -0.0031485558 1.0262043 7306630
-0.098030105 -0.0021297336 1.0261941 7438985
-0.080860049 0.016080633 1.0319581 7044228
-0.076928318 0.016054593 1.0289705 6255491
0.08797501 0.023343898 1.0263689 6187632
0.093376279 0.023932725 1.0263762 6119529
-0.062763929 0.028608546 1.0258141 6780808
0.055821665 0.033097357 1.0261128 5465215
0.079579145 0.028484091 1.0312613 6056820
0.085705385 0.02786842 1.02959 5988198
-0.050517831 0.037092522 1.0257169 7108737
-0.044213962 0.040144071 1.0289884 7108222
-0.035833538 0.041291356 1.0256958 6582396
0.047107998 0.040117428 1.028224 5859705
0.052499432 0.038339958 1.0270189 5728122
-0.031377323 0.044800341 1.0281541 6713719
-0.024982471 0.045854881 1.0295575 6450807
-0.016769025 0.04619813 1.0279274 6122104
-0.0049543194 0.047395363 1.0279453 6122617
0.0073618786 0.048137143 1.0283886 6057083
0.013689402 0.048110068 1.0293423 6057334
-0.085853487 0.01481168 1.0349631 7832202
0.079167932 0.031949729 1.0352052 5792617
0.082144588 0.03200312 1.0352137 5724767
-0.04312335 0.043649435 1.0346367 7764863
-0.023350023 0.047973856 1.0346295 6384242
-0.014420072 0.048134074 1.0346549 6121843
0.1613933 -0.075873628 1.0561844 13950701
0.16442424 -0.075819254 1.056193 13160147
0.16335969 -0.07280682 1.0561416 13423577
0.16262445 -0.085420787 1.0633414 12898285
0.1666324 -0.086335003 1.0628685 12832198
0.16107626 -0.079519168 1.061385 10136266
0.16784957 -0.079874381 1.061519 13159885
0.16131003 -0.073210061 1.0626425 12175571
0.16664506 -0.072106317 1.059141 13093836
-0.14204609 -0.11102224 1.0745997 1720740
-0.14293979 -0.10414546 1.0742755 3628972
-0.14408696 -0.097982459 1.0755855 4745397
0.16196552 -0.087071486 1.0723668 6256041
0.16655843 -0.089668646 1.0726227 12767188
0.16004656 -0.077989802 1.0742162 7312841
-0.13957122 -0.13500455 1.0861914 2903988
-0.1364546 -0.13494864 1.0862002 1324707
-0.14124532 -0.12301428 1.0852449 2904505
-0.14008425 -0.11425467 1.0837586 2644141
0.1623328 -0.10672817 1.0866834 5801403
0.16677156 -0.1069949 1.0867015 11779799
-0.13996512 -0.10318727 1.0816822 3039906
0.16133013 -0.097664401 1.0855355 3630254
0.16756685 -0.098382153 1.0849782 11516624
0.17465061 -0.098194517 1.0865858 13685195
-0.14263299 -0.094230205 1.083895 2708908
0.16096313 -0.089215979 1.0845245 3762605
0.16578841 -0.092937537 1.0834738 10465738
0.16101268 -0.082468979 1.0802915 6721740
-0.14061223 -0.076834634 1.0852604 1588628
-0.13749561 -0.076778717 1.0852692 3826867
-0.13276188 -0.15015161 1.092455 3694011
-0.13784689 -0.14374416 1.0903367 7178192
-0.13261738 -0.14338021 1.0915012 2114980
-0.13826066 -0.13227978 1.0901525 1063065
-0.13373317 -0.13500424 1.0911102 2447769
-0.1379267 -0.12471282 1.0900329 2578847
-0.1354423 -0.12417523 1.0930325 2907546
0.1622944 -0.11764453 1.0923581 6851775
0.16787724 -0.11710326 1.0908667 13029078
-0.13742043 -0.11459926 1.0906233 3104917
-0.1356668 -0.11163028 1.0928317 3170462
0.16070919 -0.10688071 1.0921814 3040417
0.17049269 -0.11005405 1.0907624 13422807
0.17335625 -0.106874 1.0907207 13619661
-0.13973127 -0.10211745 1.090417 3104162
0.15932705 -0.098702326 1.0914037 2973607
-0.13921539 -0.093778685 1.0905356 3169952
0.15955497 -0.088555865 1.0933858 2843043
-0.14118411 -0.084149472 1.0895337 3301299
-0.1274562 -0.16180249 1.1026587 4750553
-0.12377909 -0.16393046 1.1047045 1196192
-0.12959094 -0.15462655 1.0993372 3036848
-0.12566821 -0.15674682 1.104584 1789334
0.15836747 -0.14765166 1.1028258 12898004
-0.12874021 -0.14369391 1.100588 2776475
0.15870626 -0.13856371 1.1015817 9087435
0.16444287 -0.13387421 1.0981244 13488846
-0.13117871 -0.13300258 1.1001875 3038106
0.15837234 -0.12793499 1.1004109 4354994
0.16618901 -0.12586623 1.0980021 13752800
-0.13323064 -0.12330663 1.1014711 2973083
0.15816687 -0.11815197 1.1011622 2121388
-0.13829586 -0.10991812 1.0967966 3301280
-0.1348372 -0.1147499 1.1005214 3039132
0.15875766 -0.11011375 1.0988945 2646946
0.17488651 -0.10454834 1.1006896 13817039
-0.13840853 -0.10362279 1.0966959 3366820
-0.13587049 -0.10396393 1.10171 3105183
0.15689945 -0.097841911 1.1022267 3631271
0.17590106 -0.10242531 1.1006589 13817037
-0.13860881 -0.092431106 1.0965168 3499424
-0.1359109 -0.093341224 1.1003402 3302563
0.15638395 -0.087611236 1.101303 3369127
-0.13604338 -0.083846085 1.0998883 3434147
0.15812445 -0.077979557 1.1021229 2908578
0.16383725 -0.075278953 1.1001883 8233160
-0.14086778 -0.072820894 1.0970542 3365295
-0.1355352 -0.073889092 1.1000774 3499689
0.15874566 -0.068394139 1.1017098 4024485
0.16368663 -0.06686233 1.1000535 11192030
-0.13949971 -0.063882589 1.0990591 2181536
-0.13427916 -0.063627802 1.1002715 3433908
0.15786889 -0.062936857 1.1039734 2708114
-0.13804244 -0.055571202 1.1029316 8233201
-0.13419072 -0.056648474 1.1012464 3564980
0.0051883152 0.11882673 1.0965968 9935247
0.010884161 0.11983097 1.0965986 9934992
-0.11802836 -0.17260157 1.1135541 929696
-0.11384575 -0.17284301 1.1158791 1984411
0.14843462 -0.16387054 1.1165552 13424882
-0.11920464 -0.16309601 1.1111063 2512540
-0.11455892 -0.16485912 1.114416 2906513
0.14965986 -0.15796432 1.11402 8955594
0.15530123 -0.15657647 1.1104596 14080986
-0.1266111 -0.14913526 1.1114606 2381461
-0.12341127 -0.15422843 1.1134895 2776212
0.14971147 -0.14838167 1.1126317 3697834
-0.12716654 -0.14321043 1.1121978 2841752
-0.12496866 -0.14744173 1.1154392 2906774
0.15138647 -0.13842669 1.1129582 2646183
-0.12924746 -0.13266931 1.1130471 2907034
-0.12515949 -0.13677813 1.1152685 2775704
0.15180375 -0.12966657 1.1139199 3696546
0.15377858 -0.12510368 1.1132865 3761571
-0.13043083 -0.12326101 1.1114805 2973083
0.15534997 -0.11898564 1.1125271 3368880
-0.13170581 -0.11308385 1.1107696 3039134
0.15543985 -0.10738152 1.1119484 3500454
-0.13206896 -0.10264491 1.110302 3171232
0.15421434 -0.098948285 1.1128231 3631529
-0.13278088 -0.093899459 1.1094601 3302564
0.15253592 -0.08865317 1.1083673 3697839
0.15294811 -0.088849202 1.1113722 3763633
-0.13306516 -0.083336554 1.1100909 3368355
0.15331353 -0.077591337 1.110908 3436468
0.16755944 -0.073706575 1.1111764 10992842
-0.13091269 -0.072880059 1.1099309 3697068
0.1509258 -0.064622581 1.11498 3765679
0.15418613 -0.06714119 1.1102115 3830452
0.16712916 -0.069462717 1.1111073 11387079
-0.12994681 -0.065121874 1.1076099 3631022
-0.12782685 -0.06188222 1.1070647 3500456
0.15017501 -0.057765439 1.111979 3830449
0.15690714 -0.058177713 1.1095268 5207985
0.16343297 -0.059007276 1.113596 10334913
-0.13040605 -0.053072754 1.1094879 3434161
0.14915605 -0.048856217 1.1115797 3893939
0.15626074 -0.049225457 1.1108061 8428221
-0.1308524 -0.042993221 1.1128976 6194370
-0.12634377 -0.040796228 1.1137339 4421311
0.14679836 -0.037039407 1.1134361 5734064
0.15316264 -0.040581655 1.1146035 10203587
-0.12512992 -0.034107566 1.113631 6852289
0.1452141 -0.031179734 1.1112283 8955077
0.012561719 0.096100345 1.1119843 9737616
-0.086842209 -0.20861748 1.1248685 7635861
-0.083457515 -0.20900679 1.1275523 8100012
-0.09728536 -0.19884215 1.127347 10535920
-0.090203613 -0.20142955 1.1250571 5996227
-0.083521754 -0.20541735 1.1274948 6394567
-0.10746568 -0.18811724 1.119143 8431615
-0.1004322 -0.19039077 1.1219709 1526185
-0.094219878 -0.19260702 1.1261141 1262491
0.1294347 -0.18579802 1.1278471 11717846
-0.11617354 -0.17971699 1.1189818 7571711
-0.10915484 -0.18183534 1.1205933 1917611
-0.10214442 -0.18417028 1.1244308 2379673
-0.095343426 -0.18695834 1.1271635 2644619
0.13090153 -0.17889826 1.1277416 5010097
0.13816187 -0.17585331 1.1245724 10599906
0.145245 -0.17452943 1.1237162 14081762
-0.10938643 -0.17296602 1.1231065 2709143
0.13175467 -0.16828215 1.1275749 2909858
0.13840771 -0.16774878 1.1237686 4026283
0.14601932 -0.16786347 1.1201118 12307424
-0.11653709 -0.15940189 1.1186566 2775446
-0.11208849 -0.16348943 1.1216453 2775442
0.13949597 -0.15876815 1.124447 3105445
0.14444104 -0.15792827 1.1194483 2578854
-0.11870497 -0.1522066 1.1206893 2775449
-0.11445993 -0.15446413 1.125252 2906778
0.14164618 -0.14890617 1.1256965 3564451
0.14499414 -0.14793219 1.121691 3433893
-0.12271638 -0.14358181 1.1216797 2840984
0.14299127 -0.14067236 1.1271696 3565217
0.14675152 -0.13857333 1.1218139 3499430
-0.12772809 -0.13179414 1.1181813 2841497
-0.12473208 -0.13342252 1.1242175 2907290
0.14883015 -0.12787566 1.1239834 3237547
-0.12808207 -0.12231801 1.1196294 2973083
-0.12535447 -0.12268096 1.1240443 3038877
0.15174541 -0.11811794 1.1250188 3827369
0.15440741 -0.11710621 1.1188283 3564710
-0.12932217 -0.11235067 1.1207238 3039391
-0.1266599 -0.11415628 1.124571 3170977
0.15183428 -0.10803035 1.1246763 3565735
0.15425433 -0.10855249 1.1186914 3500198
-0.12960164 -0.10412897 1.122735 3170977
0.15194257 -0.099020049 1.1238663 3631790
0.1530479 -0.10063633 1.1265625 3434923
-0.1299423 -0.093597166 1.1215658 3302823
0.151401 -0.08757402 1.1238487 3566513
-0.13008609 -0.083618954 1.1200727 3368614
0.15033045 -0.078335747 1.1237365 3632560
-0.12972443 -0.075884581 1.121284 3565995
0.14895426 -0.068211876 1.1222987 3895728
-0.12706363 -0.060761698 1.1226513 3697842
0.1464424 -0.058322374 1.1206663 4158132
-0.1255465 -0.052449748 1.121287 3502262
0.14511694 -0.047658026 1.1216922 4027837
-0.1230696 -0.042899668 1.1205564 3698611
0.14004503 -0.036238916 1.1254947 4619197
0.14592291 -0.039321981 1.1200231 4946612
-0.12943107 -0.036633942 1.1166583 7180220
-0.12192045 -0.033385593 1.1238309 4815032
0.13984609 -0.029771037 1.1247243 5209534
0.14456178 -0.028051071 1.1173772 8425655
0.013742302 0.092142746 1.1150515 9474444
-0.059772078 -0.21833518 1.1347759 8300241
-0.078120589 -0.21052724 1.1309572 7642055
-0.070623502 -0.21101595 1.1331251 4815810
-0.063808203 -0.21431994 1.1346992 5210825
-0.087470487 -0.19878665 1.1303772 932767
-0.08044526 -0.20207776 1.132136 2382238
-0.07178098 -0.20492515 1.1345246 2251168
0.11165565 -0.19838251 1.1349931 6518691
0.11747845 -0.19727474 1.1335649 11319227
-0.0893244 -0.19204822 1.1321307 2447513
-0.083875418 -0.19538751 1.1343347 2513045
0.11917414 -0.18901554 1.1338145 4617903
0.1262269 -0.18895242 1.1308877 10929103
-0.098976195 -0.18120053 1.1315154 2971544
-0.09299916 -0.18484992 1.1321378 2774929
0.12108259 -0.17972293 1.1330581 2909086
0.1259784 -0.17872381 1.1307238 3105187
-0.10674129 -0.16817136 1.1298287 2709911
-0.10203725 -0.1731092 1.1322753 2644371
0.12731925 -0.16887397 1.1311864 3368356
-0.10919604 -0.16157103 1.1315341 2775444
-0.1041559 -0.16559078 1.1324625 2709910
0.13155887 -0.15891549 1.1320255 3368613
0.13571699 -0.15590107 1.1303903 3499683
-0.11256151 -0.15306604 1.1310697 2841497
0.1332169 -0.15139033 1.134311 3237027
0.13790551 -0.14863928 1.1316147 3302821
-0.11869614 -0.14159977 1.129939 2645144
-0.11518855 -0.14322256 1.1325158 2775964
0.14084445 -0.13863835 1.132313 3237542
0.14487079 -0.13499989 1.1314189 3106215
-0.12067963 -0.13322192 1.1306823 2907291
0.14204532 -0.12905635 1.1326488 3499683
0.14511617 -0.12704489 1.1311023 3303338
-0.12184551 -0.1233015 1.1314662 3039134
0.14657795 -0.11852273 1.1312399 3499947
-0.12724081 -0.1091372 1.128823 3236770
-0.12501547 -0.11333422 1.1322306 3236770
0.14812005 -0.10798068 1.1314831 3500458
-0.12735674 -0.10265906 1.1287193 3237027
-0.12563731 -0.10292611 1.1327294 3302821
0.15029623 -0.097384945 1.1317885 3632048
-0.12753063 -0.092941865 1.1285639 3302824
-0.12580213 -0.093716383 1.1325821 3302569
0.14840999 -0.088531099 1.1315374 3632047
-0.12812488 -0.083880223 1.1284175 3434408
-0.12540315 -0.081399836 1.1323868 3434665
0.14482118 -0.077554017 1.1309874 4026292
-0.12787843 -0.073507458 1.1282527 3631531
-0.12618023 -0.07258819 1.1322439 3631531
0.14478962 -0.069597974 1.1294866 4157366
-0.12799436 -0.067029327 1.128149 4025255
-0.1249432 -0.06181512 1.1303614 3632304
0.14404346 -0.057828456 1.128852 4289211
-0.12164219 -0.052772626 1.129656 3568048
0.14069304 -0.047109287 1.1293373 4094399
0.14309843 -0.051432241 1.1307473 4224702
-0.12043634 -0.046733063 1.127849 3764911
-0.11708142 -0.042317957 1.1302893 3895729
0.13798362 -0.038723655 1.1299831 4487616
-0.12198372 -0.028606504 1.1305554 6458567
-0.11697935 -0.032299213 1.1300298 3895996
0.13771912 -0.027707487 1.1287519 5735616
0.14452429 -0.02433873 1.1283194 9477559
-0.12159586 -0.025900595 1.1315136 6852289
-0.11834498 -0.025842272 1.1315228 5933254
0.046545912 0.078666866 1.1263704 9474701
-0.02286429 -0.22793245 1.147046 7248329
0.010009269 -0.22894716 1.1463647 5801654
0.018012518 -0.22768265 1.1458361 5210039
0.030813128 -0.22806469 1.1472157 6328255
0.038478531 -0.22792716 1.1472374 7379645
0.050035294 -0.22759815 1.1472683 8430007
0.05796627 -0.22574623 1.143263 8625323
-0.060885098 -0.22061664 1.1388094 9678537
-0.050081547 -0.22032018 1.1453656 4422071
-0.040737465 -0.22080524 1.1468765 2778029
-0.030943338 -0.22244453 1.1469332 2513574
-0.023281559 -0.2250192 1.1469982 2315684
0.0066630752 -0.22521214 1.1470947 2120102
0.018708708 -0.22499602 1.1471289 2185635
0.031829804 -0.22366534 1.1471487 2186146
0.037324682 -0.22466202 1.1471817 2316696
0.052616302 -0.22219712 1.1471902 4486314
0.060174868 -0.22169858 1.1452056 5997746
0.071266979 -0.21852612 1.1460469 6063288
0.079906538 -0.21688831 1.1471908 6589614
0.088013858 -0.21696189 1.1472173 8757678
-0.066536337 -0.20875385 1.1386026 1855898
-0.059780952 -0.21108967 1.1418995 2249885
-0.052069847 -0.21319693 1.1459923 2381985
-0.043905515 -0.21516667 1.1467766 3039902
0.07378377 -0.21141228 1.1470844 2841504
0.079796791 -0.21075675 1.1470927 3302564
0.089325681 -0.20835149 1.1457505 4420011
0.09912625 -0.20741259 1.1413846 6984117
0.108522 -0.20452541 1.139082 6254993
-0.077872247 -0.19842407 1.1392025 2710418
-0.070099786 -0.20149145 1.1428571 2775447
-0.063346058 -0.20355454 1.1457306 2906776
0.091629341 -0.20040195 1.1465644 3171492
0.10012336 -0.19892058 1.1437669 3237285
0.10845077 -0.19762452 1.1395431 3629215
-0.080896214 -0.19146514 1.1430826 2775191
-0.072706103 -0.19476956 1.1456946 2906012
0.10191126 -0.18965834 1.1451583 3040421
0.10883483 -0.18790525 1.1417656 3105703
0.11475475 -0.18809876 1.1388394 2777257
-0.096461505 -0.17774874 1.1380146 2710677
-0.089637294 -0.18145476 1.1416248 2709909
-0.083363563 -0.18491131 1.1441705 2709910
0.10982545 -0.17945057 1.1452132 3368100
0.11738807 -0.17755009 1.140813 3302561
-0.097816452 -0.17117871 1.1410171 2710421
-0.092993677 -0.17387898 1.1451646 2644886
0.11173977 -0.17163 1.1465683 3040936
0.1197329 -0.16842091 1.1444548 3237031
0.12609424 -0.16545227 1.1415139 3368615
-0.10768615 -0.15837234 1.1376705 2776209
-0.10218957 -0.16267928 1.142507 2841240
0.12160704 -0.15986741 1.1464115 3237287
0.12803905 -0.1576077 1.141252 3302822
-0.1088198 -0.15166748 1.1420939 2710683
-0.10407452 -0.15483007 1.1449596 2841499
0.13014303 -0.14911149 1.1436781 3237541
0.13507795 -0.14636888 1.1398375 3237798
-0.11110331 -0.14314269 1.1425605 2907293
0.13166283 -0.14027628 1.1461306 3237797
0.13636619 -0.13772851 1.1411039 3303334
-0.11760736 -0.13162559 1.1383559 2907805
-0.11539838 -0.13312532 1.1444447 2907805
0.13803107 -0.1282942 1.1435145 3434407
-0.11827765 -0.12230559 1.1397291 3039392
-0.11565474 -0.12335566 1.1450882 3039391
0.13980365 -0.11869135 1.1432399 3500202
0.14391881 -0.11579029 1.1377772 3631274
-0.12159678 -0.11316731 1.1414399 3170979
0.14156511 -0.10835792 1.1452079 3631791
0.14496499 -0.10782048 1.1394314 3566510
-0.12218972 -0.10280866 1.142454 3105957
0.14054786 -0.097281188 1.1438056 3632305
0.14582443 -0.098379403 1.1378388 3501227
-0.1227434 -0.092828996 1.140007 3237546
0.13993086 -0.08823476 1.1427804 3698099
0.14457014 -0.088612072 1.1377457 3698094
-0.12229547 -0.083068527 1.1400909 3434923
0.14099947 -0.078932576 1.143181 3895479
0.14329615 -0.080996506 1.1372203 3895477
-0.12210555 -0.072597452 1.1405436 3566256
0.14105192 -0.067607224 1.144334 4027579
0.1435456 -0.067039937 1.140999 4157882
-0.12126796 -0.063684262 1.1396477 3567024
0.13884342 -0.058116805 1.1436659 4159422
0.14318873 -0.058256421 1.1392576 4289724
-0.1191227 -0.053843539 1.1373011 3567791
-0.11607097 -0.051769398 1.1426115 3764403
0.13695897 -0.048136525 1.1420105 4356797
-0.1144706 -0.042902339 1.1363791 3830196
0.13412815 -0.038619075 1.1409162 4619718
-0.11320013 -0.031940199 1.1385461 3896507
0.12982358 -0.026795231 1.1412032 4817095
0.13437092 -0.027342483 1.1380035 4948420
-0.12097485 -0.022888191 1.1394686 6916535
-0.11347635 -0.023288876 1.1391907 5210049
0.12885621 -0.020387262 1.1432093 5013440
0.13331623 -0.019927435 1.1408824 5998788
0.027234975 0.051801577 1.1375972 5859448
0.035435859 0.051996395 1.1357623 6122362
0.040983271 0.052272514 1.1387756 6319482
0.052058667 0.053801939 1.1427864 5330522
0.027742025 0.056233689 1.1360041 5792108
0.035553053 0.057210505 1.1354795 5527648
0.040905163 0.056636959 1.1387057 5067354
-0.017130876 -0.2277541 1.1500612 4354997
-0.0097603593 -0.22861737 1.1520984 4684224
0.00013503153 -0.22816895 1.1506553 4289976
0.011073135 -0.22567931 1.1501163 2054307
0.021513142 -0.22604108 1.1501547 2777510
0.027022358 -0.22704037 1.1501878 4026798
0.043491066 -0.22674489 1.1502346 5604271
0.047304295 -0.22502927 1.1502191 4881326
-0.036294337 -0.2177441 1.1498418 3039902
-0.028331026 -0.2185111 1.1503789 2710943
-0.019838024 -0.22022296 1.1532376 2645152
-0.0099206399 -0.2228495 1.1566732 2514339
1.905486e-005 -0.2225761 1.1561664 2514851
0.0098956637 -0.21991768 1.1546214 2842787
0.019779151 -0.21935186 1.1524429 2908579
0.029440679 -0.21877572 1.1529529 3039651
0.039642669 -0.21927801 1.154104 2908578
0.048976772 -0.21824262 1.1538666 2778020
0.05898495 -0.21643865 1.1515473 2646433
0.068612114 -0.21897331 1.150189 5012145
0.080163121 -0.22004721 1.1502423 8955830
-0.049475417 -0.20955643 1.1499557 2841242
-0.039603051 -0.2114194 1.1520642 2775960
-0.030578844 -0.21250188 1.1540433 2841500
-0.021145128 -0.21444511 1.1578375 2907551
0.010533597 -0.21313961 1.1579157 3105184
0.019739769 -0.21260586 1.157936 3170722
0.029689556 -0.21242733 1.1579641 3302053
0.039813705 -0.21169284 1.157984 3170723
0.050299771 -0.21058322 1.1579992 3105188
0.05962177 -0.20964988 1.1562989 3170467
0.069235712 -0.20932993 1.1524376 3236258
0.079324439 -0.20573786 1.150456 3171236
-0.066291645 -0.19851592 1.1494414 2906776
-0.059725408 -0.20061624 1.1506385 2907033
-0.051270451 -0.20139059 1.1543682 2841497
-0.041953173 -0.20523527 1.1576257 2775704
0.060505968 -0.20413418 1.1579281 3105443
0.069350228 -0.2039755 1.1579533 3105443
0.080081016 -0.20008522 1.1566614 3105956
0.088406146 -0.19712141 1.1531028 3105956
-0.077467248 -0.18773511 1.1492345 2644884
-0.070344418 -0.19112782 1.1523113 2775705
-0.061931301 -0.19380686 1.1550474 2841497
0.083524317 -0.1926637 1.1578171 3172006
0.091141656 -0.19016075 1.1568009 3040421
0.096969783 -0.1877462 1.1542802 2974628
-0.086407721 -0.17911047 1.1490691 2645144
-0.079743713 -0.18071032 1.1521747 2710425
-0.074397251 -0.18331178 1.1537457 2776216
0.1002816 -0.17904261 1.1544018 3171493
0.10522991 -0.17677352 1.1512306 3237026
-0.089597628 -0.17110844 1.1515201 2710424
-0.083201885 -0.17313987 1.1555302 2710937
0.10306782 -0.17240956 1.1575551 3302823
0.10933508 -0.1682622 1.1543502 3172005
0.11507665 -0.16503185 1.1534745 3172006
-0.098465875 -0.15992649 1.1487254 2841498
-0.094041824 -0.16228898 1.1537007 2907290
0.11171424 -0.16119692 1.1574032 3303592
0.11790533 -0.15772484 1.1560338 3237544
0.12399885 -0.15337285 1.1493157 3303337
-0.10038747 -0.15147567 1.1502992 2973342
-0.095760897 -0.15441467 1.1566471 3038879
0.1213956 -0.14988749 1.1565864 3237544
0.12571587 -0.14685303 1.1520175 3303336
-0.10861668 -0.14008115 1.1493773 2973342
-0.10250951 -0.14306432 1.1539446 2973600
0.12895776 -0.13764973 1.1530811 3368872
-0.1103397 -0.13222714 1.1505998 3039392
-0.10491478 -0.13285881 1.1562747 3236259
0.13008416 -0.12816095 1.1546835 3500460
0.13448685 -0.12573141 1.1489077 3434923
-0.11161387 -0.1225981 1.1509783 3170978
0.13096325 -0.11920106 1.15546 3500719
0.1356229 -0.11667025 1.1521004 3500718
-0.11836736 -0.11159973 1.1478925 3237029
-0.11454943 -0.11280573 1.1539245 3237286
0.13579358 -0.10776552 1.1547313 3697329
-0.11852452 -0.1028175 1.1477519 3237543
-0.11599711 -0.10221687 1.1552513 3172263
0.13685025 -0.098642886 1.1540837 3697843
-0.11900911 -0.093140721 1.1505965 3303340
-0.11696902 -0.091951683 1.1555846 3303852
0.13643642 -0.088197753 1.1543159 3764149
-0.11923759 -0.08342997 1.1474404 3500716
-0.11656988 -0.081887461 1.1554253 3501229
0.13919513 -0.077733971 1.1527288 3764661
-0.11901566 -0.075373024 1.1473126 3566512
-0.1159198 -0.071825452 1.1516299 3632306
0.13603161 -0.067583464 1.1524562 3896764
-0.11549027 -0.062196653 1.1514777 3698357
0.12986116 -0.057618171 1.1544744 4291265
0.13373253 -0.05880595 1.1489809 4225217
-0.1140395 -0.053168297 1.1509746 3764408
0.13047385 -0.048014361 1.1536564 4554434
0.133092 -0.047789119 1.1476601 4488640
-0.11127838 -0.042393263 1.1516114 3895997
-0.10722515 -0.039069422 1.1547716 4027323
0.12989219 -0.037242584 1.1524826 4817354
-0.10989523 -0.032889627 1.147997 3962044
-0.1059593 -0.03151983 1.153855 4093118
0.12033637 -0.025034904 1.1552584 5014224
0.12579075 -0.027733393 1.151318 4751563
-0.10897952 -0.022482671 1.1465003 4290235
-0.10411501 -0.022194639 1.151045 4158908
-0.097986773 -0.019737326 1.154492 4028609
0.11855236 -0.018056698 1.1533636 4817874
0.12524663 -0.017735243 1.1481564 5145287
-0.10184355 -0.01553981 1.1488123 4487616
-0.096524969 -0.012712851 1.153051 4356800
0.10947643 -0.005707778 1.152916 5276623
0.11588247 -0.0086643398 1.1492684 5604813
0.12531117 -0.0097349137 1.1479179 6720449
-0.094552234 -0.0056695342 1.1542784 5671109
0.1075134 -0.00015450269 1.15425 5802961
0.11390646 -0.00087430328 1.1501857 6787017
0.03116188 0.014277965 1.1543529 12972031
-0.024253443 0.023165382 1.1520377 5869264
0.0082021262 0.020131953 1.1541878 7515376
0.015701769 0.019897908 1.154215 8764660
0.025315529 0.019628108 1.1542493 10146554
0.031967178 0.018715404 1.1542846 10870005
-0.08210215 0.030343801 1.1457418 8028800
-0.076985106 0.030801654 1.1457505 7305855
-0.019890405 0.024419516 1.1540316 5671370
-0.016573807 0.024479017 1.1540411 5869265
0.0066423602 0.024895556 1.154107 6988787
0.011064488 0.02497489 1.1541195 7185904
0.097137719 0.035365179 1.1542226 6314850
-0.075854689 0.035824522 1.1456739 8028802
0.093978927 0.03884691 1.1541572 6117979
0.069860339 0.048810109 1.1459219 5593178
0.072056174 0.048849508 1.1459281 5658970
-0.015630227 -0.21724799 1.1619 2973083
-0.010063671 -0.21825767 1.1619335 2973595
-0.00064595975 -0.2176477 1.1626201 2973598
-0.035796866 -0.20651421 1.1616659 2842012
-0.029393345 -0.20778628 1.1617062 2776219
-0.020013936 -0.21007419 1.163296 2907806
-0.010400843 -0.21125489 1.1649791 2907807
0.00016495306 -0.21160313 1.1651931 2973599
0.0090105971 -0.20914769 1.1625146 3039136
0.019732838 -0.20795447 1.1631958 3170723
0.029709868 -0.20766675 1.1625557 3236770
0.039501235 -0.20704098 1.1619095 3170979
0.048542812 -0.2066654 1.1619318 3170980
0.055169083 -0.20488216 1.161924 3171236
-0.047049079 -0.19783959 1.1614923 2842012
-0.040305015 -0.19996101 1.163002 2842011
-0.030654989 -0.20203078 1.1640723 2842012
-0.022347078 -0.20330665 1.1656573 2907805
0.024151817 -0.2038641 1.1658113 3302309
0.030145947 -0.20261809 1.1646672 3302308
0.038800295 -0.2023634 1.1633328 3171236
0.049582679 -0.20276326 1.1618727 3171236
0.060177337 -0.20117298 1.1635474 3105443
0.069966137 -0.19908512 1.1628779 3171492
0.07648401 -0.19710267 1.1618665 3040420
-0.068325043 -0.18712571 1.1612551 2841497
-0.059502672 -0.18970822 1.1618572 2907291
-0.05102231 -0.19218533 1.1632724 2907549
-0.044333823 -0.19321686 1.1654277 2907551
0.072931215 -0.19185522 1.1657722 3040420
0.079919875 -0.18991861 1.1638682 3106213
0.087699875 -0.18721128 1.1617438 3106214
-0.069950685 -0.18063587 1.1631467 2907290
-0.063317791 -0.18337238 1.1647112 2973340
0.083903372 -0.1827514 1.1656612 3302823
0.089912921 -0.18029696 1.1632406 3237030
0.095990494 -0.17677817 1.1633812 3237031
-0.087541148 -0.16749839 1.160882 2841497
-0.07908462 -0.170818 1.1614947 2842012
-0.072933272 -0.17290443 1.1640142 2907547
0.10104032 -0.16901642 1.1624184 3368361
0.1060686 -0.16568911 1.1614579 3237285
-0.08912614 -0.16160917 1.1607831 2973085
-0.082350865 -0.16166866 1.1635424 3039135
0.10322578 -0.16185665 1.1613878 3368615
0.10968751 -0.15839857 1.1620803 3237799
0.11420009 -0.1550024 1.1613128 3303337
-0.096753329 -0.14880115 1.160555 2973857
-0.091266841 -0.15220799 1.1621822 3039137
-0.085326388 -0.15294321 1.1646572 3104930
0.11153816 -0.15084468 1.1632384 3172264
0.1177126 -0.14786457 1.1618767 3238059
-0.098094434 -0.14060655 1.1614202 3039650
-0.094059005 -0.14408159 1.1644887 3105700
0.12077196 -0.13804185 1.1632169 3369132
0.12499572 -0.13816531 1.161078 3434410
-0.10100573 -0.13208388 1.1619896 3171236
0.12251481 -0.12987128 1.1641383 3500719
0.12584911 -0.12752645 1.1629112 3435183
-0.10836285 -0.12016087 1.160062 3302823
-0.10368523 -0.12201395 1.1627731 3171495
0.12643087 -0.11742103 1.16257 3566514
-0.11026843 -0.11153609 1.1613731 3368873
-0.10657404 -0.11261846 1.1631476 3368875
0.12898487 -0.10819798 1.1614126 3697588
-0.11133838 -0.10246925 1.1624374 3303850
0.13037233 -0.098530903 1.1638916 3763892
0.1335956 -0.097844929 1.1604618 3698099
-0.11286114 -0.09230756 1.1612039 3435181
-0.10700522 -0.092653498 1.1636279 3435438
0.13120881 -0.088379614 1.1643038 3829942
0.13405424 -0.087825425 1.1614463 3764149
-0.11199953 -0.082611918 1.1614519 3501229
0.13096978 -0.075023457 1.16409 3896505
0.13542347 -0.077861167 1.1619672 3830455
-0.11157633 -0.072750218 1.1608343 3632563
-0.10742351 -0.069280237 1.1632538 3567542
0.12849081 -0.067950219 1.1613977 4027837
0.13378878 -0.071433932 1.1600411 3896505
-0.11099675 -0.062684044 1.1604705 3829940
-0.10754302 -0.062602155 1.163147 3699127
0.12681358 -0.058346435 1.1624775 4291009
-0.11075799 -0.052546721 1.1597761 3895737
-0.10710326 -0.051619623 1.1629732 4027576
0.12693219 -0.0483156 1.1616511 4422849
-0.10969281 -0.045844186 1.1588725 4158911
-0.10527818 -0.042033624 1.1608257 4093372
0.12670322 -0.038582865 1.1609951 4817355
-0.10169698 -0.032577224 1.1602244 4093630
-0.097009078 -0.029012062 1.162644 4094397
0.119057 -0.027960181 1.1615242 5080014
0.12363485 -0.031117156 1.1593664 4883149
-0.099709511 -0.024953283 1.1585704 4028348
-0.095254809 -0.022291802 1.160042 4028864
0.11439431 -0.018406816 1.1609128 4949202
-0.091865197 -0.01263269 1.1602168 4029123
-0.087693751 -0.010288768 1.1623745 3963586
0.10813077 -0.008639656 1.1616263 5146069
0.11165924 -0.013024271 1.1590403 5080276
-0.091192082 -0.0048283711 1.1582761 5342665
-0.084121674 -0.0024881884 1.1622612 4882633
-0.020739544 0.0024173036 1.1623811 6070261
-0.014060644 0.0025371313 1.1624 6528744
-0.0073817465 0.0026569664 1.162419 8827627
0.008202346 0.0029365644 1.1624631 10340848
0.016959904 0.0024574697 1.1624981 8895736
0.024478234 0.0018925294 1.1625307 6266608
0.098847628 0.0039901659 1.1617293 5475287
0.10339709 0.00052706152 1.1601319 5475028
-0.08074984 0.0035315603 1.1601756 5999306
-0.074109837 0.0047602579 1.1601768 5540557
-0.065600261 0.0082372949 1.159481 5803727
-0.052924003 0.010251999 1.1621555 4950220
-0.043942485 0.0092885494 1.1621989 5016280
-0.034206018 0.0088456869 1.1618364 5411294
-0.024153415 0.0089830533 1.1600254 5806569
-0.014171347 0.0092011914 1.1616932 7120874
-0.0045991465 0.010129355 1.1623085 12379901
0.0060114297 0.0097549856 1.1598209 13891069
0.01583223 0.0096817389 1.159179 12969723
0.025779072 0.010111406 1.1600875 9946095
0.035852574 0.010067001 1.1605225 10013177
0.045554984 0.01211787 1.1602793 7449069
0.052171379 0.014116876 1.1624222 5411552
0.095872253 0.0078019574 1.1601591 6526426
-0.051033605 0.015234224 1.162082 6264275
-0.043446429 0.016133942 1.159591 5803990
-0.0338769 0.016911723 1.1581084 5345755
-0.023893658 0.018352687 1.1581165 5412839
-0.014316626 0.019125633 1.1586342 5676266
-0.0052709673 0.018404268 1.1610314 7253489
0.0045693843 0.018369593 1.1592053 8436213
0.014590784 0.016301885 1.1582694 12051453
0.02893281 0.02099745 1.1582394 10082302
0.036785387 0.020398632 1.1582735 10607102
0.045284327 0.019705735 1.158311 7515119
0.052328896 0.019239731 1.1596739 6068200
-0.012192199 0.024697848 1.1580518 6001365
-0.0077548362 0.024777457 1.1580645 6396124
0.10462911 0.032563508 1.1582913 6447199
-0.006999068 -0.20730191 1.1697695 3039391
0.0005283393 -0.20657071 1.1712815 3039135
0.011989229 -0.20696124 1.1698234 3104930
-0.036239855 -0.19665477 1.1695083 2776478
-0.029854223 -0.19740394 1.1715405 2842271
-0.019929983 -0.19883052 1.1737764 2907807
-0.010672275 -0.20051564 1.1743461 2908063
-0.00064295437 -0.20116784 1.1754923 2973600
0.009660745 -0.20000793 1.1750392 3105187
0.019584531 -0.19949341 1.1741424 3236773
0.029266736 -0.19799113 1.173468 3237029
0.040214349 -0.19787927 1.1735672 3171237
0.049889125 -0.19869226 1.1713101 3171236
0.059382517 -0.19697151 1.1707352 3105444
0.068205766 -0.19533946 1.1698136 3171493
-0.048601206 -0.18795455 1.1725314 2841758
-0.040463552 -0.19010328 1.1733911 2907551
-0.031543229 -0.19100474 1.1762574 2842271
-0.020840894 -0.19198269 1.177483 2908064
-0.01407331 -0.19298607 1.1775202 2973857
0.007293642 -0.19260272 1.1775807 3105444
0.020145908 -0.19137231 1.1776012 3237030
0.030204957 -0.19162044 1.1768365 3302823
0.039852001 -0.19066788 1.1767284 3171495
0.049189206 -0.18909839 1.1762642 3105703
0.058903389 -0.1891861 1.1760873 3105703
0.068706378 -0.18854234 1.1742073 3105702
0.077003434 -0.18593353 1.1714056 3105958
-0.060012061 -0.18048561 1.1708235 2973598
-0.05200037 -0.18199328 1.1752261 2907551
-0.04208266 -0.1836466 1.1772836 2908065
0.070325121 -0.18005082 1.1775774 3237288
0.079139397 -0.17921802 1.1751468 3302823
0.087775201 -0.17706791 1.172155 3237287
-0.069620997 -0.16936961 1.1718264 3105183
-0.062108565 -0.17255709 1.1751616 2974112
-0.053775575 -0.1745768 1.1771024 2842786
0.080502868 -0.17239264 1.177487 3171750
0.089071289 -0.16864991 1.1761206 3172008
0.097118899 -0.16681926 1.1717826 3303081
-0.077911526 -0.15987018 1.1694583 3104930
-0.071662784 -0.16198342 1.1755122 3170978
0.091406241 -0.16024199 1.1773273 3303337
0.099163324 -0.15861891 1.1750753 3368873
0.10609099 -0.15723927 1.17187 3237543
-0.087979227 -0.14723013 1.1712254 3040164
-0.081193253 -0.15084752 1.1724273 3105701
-0.074748322 -0.15508164 1.1767261 3302822
0.10056771 -0.14953665 1.1771852 3303597
0.10794036 -0.1470466 1.1728042 3238059
0.11496343 -0.14388831 1.1711392 3303852
-0.090537429 -0.14092323 1.1722281 3106213
-0.08274965 -0.14275867 1.1765045 3172007
0.10866508 -0.13789687 1.1768248 3369387
0.1166102 -0.13757569 1.173044 3435181
-0.097865537 -0.13085559 1.1695999 3237030
-0.091294616 -0.13134219 1.1739621 3237800
-0.084863558 -0.1346418 1.1763685 3303594
0.11037499 -0.13181384 1.1769332 3500972
0.11871697 -0.12743749 1.1736389 3500976
0.123363 -0.12452612 1.1688564 3500977
-0.09917599 -0.12159278 1.171226 3237545
-0.094495758 -0.12311025 1.1752654 3303852
0.12032431 -0.1178378 1.1767414 3566772
0.12366469 -0.11817268 1.1727564 3566515
-0.10186213 -0.11192858 1.1712024 3369389
0.12101057 -0.10829148 1.1765912 3763639
0.1243723 -0.10737364 1.1716975 3763639
-0.10888755 -0.098247185 1.1690453 3435181
-0.10345997 -0.10178573 1.1723573 3435438
0.12145482 -0.097196199 1.1764156 3895737
0.12645289 -0.097069308 1.171252 3764149
-0.10850652 -0.091746368 1.1700096 3435438
-0.10313709 -0.092216529 1.174096 3501231
0.12135421 -0.091574006 1.1763257 3961530
0.12667741 -0.087580599 1.1711013 3961528
0.13381308 -0.084120169 1.1682446 3895735
-0.10839252 -0.082482696 1.1704624 3501489
-0.10413818 -0.082138136 1.1733528 3501490
0.12103224 -0.073582999 1.1760377 4159679
0.12684096 -0.078231044 1.171402 3962041
0.13377312 -0.081886537 1.1682088 3895735
-0.10898972 -0.075167745 1.1693437 3501747
-0.1042472 -0.071849726 1.1719726 3567541
0.12016849 -0.067224637 1.1759336 4225473
0.12388299 -0.067724243 1.1719525 4159424
-0.10265164 -0.06168589 1.1707486 3764919
0.11975984 -0.058358554 1.1757909 4422597
0.12370251 -0.057638586 1.1717911 4357059
-0.10233338 -0.051910006 1.1704223 3896505
-0.097598419 -0.051635161 1.1750047 3962298
0.11944483 -0.047741108 1.1756206 4685767
0.12352201 -0.047552921 1.1716297 4422851
-0.10102995 -0.042789523 1.168452 4027836
-0.096064776 -0.040850982 1.1737465 4028094
0.11738722 -0.037217785 1.1733283 4948684
0.12333447 -0.03908544 1.1684936 4751818
-0.099473655 -0.034681033 1.1667274 4093632
-0.093982846 -0.031039022 1.1725334 4094399
0.11044745 -0.026906289 1.1752602 5080784
0.1147937 -0.027972333 1.17049 5211343
-0.090881258 -0.022564173 1.1709251 4094402
-0.084416911 -0.01934202 1.1735307 4226244
-0.077959731 -0.017538846 1.1745223 4620744
-0.024000186 -0.01544594 1.1746575 5412064
-0.001508656 -0.015042402 1.1747212 6463211
0.0066304877 -0.018733948 1.1748055 6397929
0.016305003 -0.0179196 1.1748228 6397929
0.025504176 -0.01584325 1.1748184 6003432
0.10728565 -0.017723627 1.1726034 5081042
0.1125686 -0.020822085 1.1671686 5081041
-0.083180889 -0.011589721 1.1682769 4160963
-0.075138569 -0.010424711 1.1735604 4752075
-0.06014761 -0.007096082 1.1744113 4949201
-0.053390097 -0.0075372458 1.1744394 5016022
-0.043788128 -0.0084953606 1.173818 5213659
-0.033941079 -0.0092318952 1.1732963 5411552
-0.024083935 -0.009830147 1.1737674 5740773
-0.013979616 -0.0096421614 1.1745962 6003172
-0.0038583707 -0.0094639361 1.1742249 6331366
0.0062459116 -0.009298712 1.1716534 6989552
0.016345166 -0.009115316 1.1720821 6792432
0.026431872 -0.0089372098 1.1714606 5937640
0.034895182 -0.0078344345 1.1737198 5806054
0.045582693 -0.0063239411 1.1747292 5674725
0.052310027 -0.0050784349 1.1747304 5674983
0.098181799 -0.0067862347 1.1749009 5146841
0.10425374 -0.0088308752 1.1692374 5080789
-0.079928041 -0.0030493215 1.166284 4554184
-0.07650584 -0.002113454 1.1692801 4751049
-0.061269436 -0.0015242249 1.1723187 4818129
-0.053825337 -0.0014011785 1.1715398 5015507
-0.044275973 -0.0012705475 1.1681671 5147609
-0.034165658 -0.0011054948 1.1668959 5346018
-0.024527717 -0.0012730733 1.1695402 5937898
-0.014067471 -0.0018283278 1.1698039 6462952
-0.0036232881 -0.00090740621 1.1689328 8303605
0.0057543307 -0.000858441 1.1679454 8501495
0.015630316 -0.0016722903 1.1671759 7252467
0.026925262 -0.00091345608 1.1680384 6069484
0.036050111 0.00035170466 1.168908 6135528
0.046158008 0.000198856 1.1720384 5741031
0.055537678 0.0005884245 1.1736499 5543655
0.06498906 0.0020708889 1.1746559 5477092
0.075028859 0.0035777017 1.1746633 5739747
0.08640404 0.0035318211 1.1746995 5280481
0.095681578 0.0010138229 1.1710758 5015513
0.10121222 -0.00089602917 1.1688156 4949463
-0.073346198 0.003771849 1.1661956 4818122
-0.063931867 0.0049337894 1.1662066 5147606
-0.055257734 0.0058341995 1.1662192 4818639
-0.046539195 0.0042528063 1.1662718 5344472
-0.0018708408 0.0056128129 1.1663896 12971007
0.002606987 0.0051345453 1.1664112 12905215
0.027180074 0.0055754185 1.1664809 5807584
0.040583581 0.0058159009 1.1665189 6004710
0.046629939 0.0068819672 1.1665208 5807083
0.055369548 0.0095489547 1.1686392 5477863
0.063872151 0.0093066022 1.1712033 5542628
0.0757249 0.0065896511 1.1746174 5673698
0.086261854 0.0087135583 1.1731162 5804766
0.091963679 0.0067377314 1.1666647 5147865
0.058255054 0.017304748 1.1663909 5412324
-0.0073089562 -0.19572078 1.1815853 3039650
-0.00084950309 -0.1962498 1.1816139 3039650
-0.027761228 -0.18818748 1.1814014 2842271
-0.020990916 -0.18806601 1.1814206 2973857
-0.010651719 -0.18895179 1.1827302 2973857
-0.00087373704 -0.19050907 1.1840489 3039395
0.0097521981 -0.18839572 1.1832998 3171237
0.019033987 -0.18682231 1.1825925 3237030
0.029366763 -0.18607889 1.1830847 3302569
0.037707701 -0.18607372 1.1829056 3237546
-0.047614865 -0.17806375 1.1811779 2908065
-0.040021252 -0.17889488 1.1812148 2973857
-0.031312127 -0.18048653 1.1822675 2973857
-0.021536689 -0.18219447 1.1834431 2973858
-0.013236387 -0.18284458 1.185362 3105444
0.01846505 -0.18227582 1.1854519 3237030
0.030137377 -0.18055651 1.1854609 3302825
0.039060488 -0.17994618 1.1851714 3171754
0.048930857 -0.18031451 1.1835155 3171752
0.059267163 -0.17971499 1.1829499 3171753
0.067649111 -0.17645332 1.1825123 3237546
0.075828105 -0.17391425 1.1814972 3303592
-0.058960471 -0.16880848 1.1809947 2908579
-0.050735433 -0.17079897 1.1830524 2908579
-0.040878829 -0.17207763 1.1840129 3105444
-0.032200988 -0.17367253 1.1851565 3105443
0.062458541 -0.17242718 1.1854322 3303339
0.070454203 -0.1700315 1.1840855 3303082
0.078818485 -0.16780636 1.1819806 3237545
0.08469367 -0.16472632 1.1813784 3303850
-0.068189472 -0.15768796 1.1807886 3302822
-0.061508033 -0.16183782 1.1831259 3040165
-0.054319512 -0.16546297 1.1849564 3040167
0.073618412 -0.1631676 1.1853194 3303598
0.079611614 -0.15907983 1.1843317 3238061
0.088144153 -0.15689535 1.1823754 3303596
0.095795795 -0.15436964 1.1812478 3369131
-0.078157246 -0.14733313 1.1805923 3171751
-0.071672052 -0.15082747 1.1820803 3368615
-0.064711854 -0.15432525 1.1847463 3171751
0.097487941 -0.14773983 1.1826476 3369134
-0.080258116 -0.14031699 1.1804738 3369130
-0.074114457 -0.14211892 1.1835221 3434922
0.098435909 -0.13803218 1.1840435 3435183
-0.082141161 -0.13173056 1.1816645 3434923
0.10106032 -0.1308874 1.1840901 3501232
0.10776566 -0.1276443 1.1834475 3435694
0.11447357 -0.12581933 1.1808509 3501232
-0.090560824 -0.12074274 1.1811296 3369646
-0.084781229 -0.12436662 1.1828723 3435182
0.11132291 -0.11832683 1.1847219 3567282
0.11542495 -0.11775351 1.1825435 3567027
-0.099174872 -0.10820891 1.1799027 3501231
-0.094528884 -0.11201239 1.1827282 3435439
0.11118111 -0.11040244 1.1845951 3829686
0.11624004 -0.10752723 1.1827871 3829431
-0.099235445 -0.10482417 1.1798484 3501231
-0.094912678 -0.10147952 1.1814755 3567024
0.11837795 -0.098101243 1.1830879 3830201
-0.099487826 -0.090721093 1.1796228 3632818
-0.096252188 -0.091351531 1.1816431 3698612
0.12030751 -0.087466151 1.1822575 3896507
-0.099659458 -0.081130996 1.1794692 3633333
-0.095820382 -0.081213117 1.1822828 3764919
0.11996198 -0.077271447 1.1815938 4093886
-0.1002683 -0.072338775 1.1793271 3633334
-0.096257761 -0.071282044 1.1825231 3830201
0.11678426 -0.067691714 1.1821533 4291523
-0.096013978 -0.060999684 1.1808264 3896506
0.11610904 -0.057228785 1.1813622 4619975
-0.092905328 -0.051391747 1.1807305 4028348
0.11002631 -0.045875326 1.1835623 5146320
0.11449702 -0.048032146 1.1826105 4883148
-0.091351777 -0.041971188 1.1791563 3962814
-0.086404249 -0.040482182 1.1817198 3963072
0.1088811 -0.037092205 1.1819185 5146577
0.11267908 -0.038678516 1.1799554 5080527
-0.09013845 -0.03288145 1.1787294 4028607
-0.083998591 -0.030990295 1.1808521 4291526
-0.034127001 -0.028078102 1.1828282 5147865
-0.026658572 -0.027717628 1.1828458 5344731
-0.010371184 -0.02651947 1.1828775 5345501
-0.0035780203 -0.026397593 1.1828969 5739743
0.0066443919 -0.028467342 1.1816282 5936862
0.015697243 -0.028307848 1.1819874 5871068
0.025879286 -0.0270015 1.1829984 5739228
0.043974131 -0.025544442 1.1830318 5213656
0.10684638 -0.028248064 1.181671 4949970
-0.0823479 -0.023543514 1.1786048 4422856
-0.074007675 -0.018602133 1.1803705 4686797
-0.063660011 -0.017285317 1.1805636 4884690
-0.053244244 -0.018512823 1.1821159 4950486
-0.042774219 -0.019097403 1.1813245 5213659
-0.034179125 -0.020144664 1.1795012 5279707
-0.024000749 -0.021093018 1.1799481 5345244
-0.013866082 -0.019280247 1.1798619 5411808
-0.003987642 -0.020220093 1.1797057 5806052
0.0054059396 -0.02319175 1.1788733 6068964
0.017448779 -0.023351885 1.1789135 6068963
0.027438719 -0.020777062 1.1798267 6003173
0.035860673 -0.018893376 1.1807001 5608417
0.046057776 -0.018710122 1.181329 5411038
0.05291013 -0.018589608 1.1829487 5279709
0.09756653 -0.016046345 1.1821245 5212630
0.10328138 -0.019562595 1.1804546 5015248
-0.070404515 -0.012889609 1.1784722 4949712
-0.063634202 -0.012768142 1.1784914 4949713
-0.053478736 -0.012585938 1.1785202 5016279
-0.044068798 -0.01279331 1.1785529 5213659
-0.035404377 -0.013390258 1.1785895 5345501
0.037366372 -0.011520356 1.178787 5871590
0.045819171 -0.0108044 1.1788019 5871847
0.056028556 -0.0083564892 1.180795 5543139
0.063291848 -0.0070924535 1.1810833 5280225
0.087805554 -0.0066393539 1.1828672 5411294
0.09369956 -0.0079879016 1.1803613 5279196
0.065414481 -0.0019882694 1.1787225 5411556
0.074975476 -0.00012381375 1.1787226 5412066
0.08625932 7.8633428e-005 1.1787547 5477344
0.093070015 -0.00205639 1.17881 5213404
2.1199696e-005 -0.1858187 1.1894513 3105189
-0.020501051 -0.17770499 1.190258 3039906
-0.010764748 -0.17965806 1.1907482 3039908
-0.0012168624 -0.18061736 1.1926982 3105447
0.0093848705 -0.17969169 1.190133 3105702
0.018447177 -0.17829199 1.1893889 3171750
0.02742454 -0.17771776 1.1894078 3237289
0.038854577 -0.17565341 1.1894106 3237548
0.049078606 -0.17546998 1.1894395 3171752
0.058166631 -0.17530692 1.1894653 3171752
-0.048350267 -0.16676468 1.1889964 3039909
-0.040491607 -0.16734076 1.1899191 3105701
-0.03229424 -0.16981709 1.191641 3105443
-0.022604469 -0.17501391 1.1932088 3040163
0.0081541352 -0.17355002 1.1932815 3105960
0.019532312 -0.17223117 1.1932961 3105958
0.028604172 -0.17056973 1.1924978 3237545
0.03898523 -0.16933997 1.1914158 3237547
0.049022745 -0.16885504 1.1909341 3237544
0.059081037 -0.168446 1.1910431 3237545
0.06769985 -0.16631937 1.1900185 3303339
-0.059765417 -0.1575388 1.1888136 3172009
-0.051294934 -0.1605128 1.1912878 3105961
-0.041925773 -0.16253515 1.1929495 3171752
