# .PCD v0.7 - Point Cloud Data file format
VERSION 0.7
FIELDS x y z rgba
SIZE 4 4 4 4
TYPE F F F U
COUNT 1 1 1 1
WIDTH 1131
HEIGHT 1
VIEWPOINT 0 0 0 1 0 0 0
POINTS 1131
DATA ascii
0.088204429 0.025438331 1.0244851 6119529
-0.067972444 0.024364732 1.0275799 6780808
0.050341643 0.033214189 1.0250803 5465215
0.074366912 0.029496007 1.0296811 6056820
0.080470935 0.029100321 1.0278679 5988198
-0.056053013 0.033293091 1.0271729 7108737
-0.04979112 0.036585845 1.0302874 7108222
-0.041537978 0.038029201 1.0267959 6582396
0.041426886 0.039916225 1.0273772 5859705
0.046850514 0.038334139 1.0260506 5728122
-0.037157863 0.041708268 1.0291395 6713719
-0.030775163 0.043002255 1.0303894 6450807
-0.022620324 0.043641753 1.0285659 6122104
-0.010860591 0.045272894 1.028303 6122617
0.0014268905 0.046468817 1.0284549 6057083
0.0077716829 0.04667785 1.0292597 6057334
-0.090317458 0.0097596645 1.0373052 7832202
0.0739206 0.032957859 1.0336246 5792617
0.076892644 0.033120759 1.0335629 5724767
-0.048698664 0.040148593 1.0358993 7764863
-0.02910376 0.045197479 1.0354161 6384242
-0.020187635 0.045686208 1.0352312 6121843
0.16053265 -0.07169383 1.0529476 13950701
0.1635589 -0.071527958 1.0528849 13160147
0.16238314 -0.068556927 1.0528507 13423577
0.16228193 -0.081164271 1.0600988 12898285
0.1663087 -0.081932068 1.0595341 12832198
0.16047195 -0.075330451 1.0581639 10136266
0.16725501 -0.075435773 1.0581396 13159885
0.16050233 -0.069012679 1.0593989 12175571
0.1657097 -0.067725591 1.0557703 13093836
-0.14089119 -0.11791768 1.0785804 1720740
-0.1420451 -0.1110796 1.0782592 3628972
-0.14338771 -0.10495846 1.0795797 4745397
0.16189556 -0.082806684 1.0691415 6256041
0.1665858 -0.085232206 1.0692961 12767188
0.15968694 -0.073795363 1.0710118 7312841
-0.13726358 -0.14175221 1.0901734 2903988
-0.13415179 -0.14158165 1.0901089 1324707
-0.13940018 -0.12983502 1.0892351 2904505
-0.13859786 -0.12104385 1.0876991 2644141
0.16332187 -0.10238662 1.0834968 5801403
0.16776666 -0.10248979 1.0834113 11779799
-0.13893537 -0.10998686 1.0855914 3039906
0.16195923 -0.093369924 1.0823492 3630254
0.16820341 -0.093859673 1.0816472 11516624
0.17531109 -0.093405969 1.0830874 13685195
-0.14187913 -0.10112637 1.0878428 2708908
0.16125749 -0.084944293 1.0813249 3762605
0.16619082 -0.088489443 1.0801709 10465738
0.1609593 -0.078214794 1.0770743 6721740
-0.14046955 -0.083663583 1.0891149 1588628
-0.13735776 -0.083493009 1.0890504 3826867
-0.12975591 -0.15661664 1.0963149 3694011
-0.13512178 -0.150408 1.0942998 7178192
-0.12988345 -0.14984787 1.0953403 2114980
-0.13596205 -0.13896732 1.0940955 1063065
-0.13131607 -0.14152002 1.0949537 2447769
-0.13591012 -0.13139367 1.0939482 2578847
-0.13337779 -0.1307546 1.0968872 2907546
0.16381861 -0.11327719 1.0891993 6851775
0.1693413 -0.11253609 1.0875758 13029078
-0.13576335 -0.12126634 1.0945001 3104917
-0.13406919 -0.11822717 1.0966589 3170462
0.161834 -0.10257965 1.0890318 3040417
0.17169198 -0.10539584 1.0873916 13422807
0.1744346 -0.10211276 1.0872742 13619661
-0.13853689 -0.10887878 1.0943155 3104162
0.16013354 -0.094460413 1.0882654 2973607
-0.13832611 -0.10052632 1.0944002 3169952
0.1600336 -0.084305592 1.0902151 2843043
-0.14067131 -0.090979591 1.0934196 3301299
-0.12378716 -0.16802886 1.1064216 4750553
-0.11998729 -0.17001298 1.1083858 1196192
-0.1262621 -0.16094792 1.1031322 3036848
-0.12214226 -0.16290417 1.108291 1789334
0.16124631 -0.14337187 1.0998348 12898004
-0.1257859 -0.1499871 1.104334 2776475
0.1612207 -0.13428199 1.0985594 9087435
0.16669813 -0.12939668 1.0949559 13488846
-0.12862554 -0.13939416 1.1039631 3038106
0.16046794 -0.1236769 1.0973691 4354994
0.16814457 -0.12133037 1.0947717 13752800
-0.1310029 -0.12977587 1.1052692 2973083
0.1599196 -0.1139055 1.0980992 2121388
-0.13666609 -0.11659912 1.1006801 3301280
-0.13294552 -0.12128739 1.1043352 3039132
0.1601605 -0.10585891 1.0957973 2646946
0.1761108 -0.099697702 1.0971984 13817039
-0.13701305 -0.11031258 1.1005656 3366820
-0.13434762 -0.11054266 1.1055194 3105183
0.15792966 -0.093652233 1.0991402 3631271
0.17704542 -0.097538903 1.0971383 13817037
-0.13762987 -0.099136531 1.1003618 3499424
-0.13481158 -0.099933468 1.1041232 3302563
0.15701593 -0.083450727 1.0982021 3369127
-0.13530453 -0.090451263 1.1036497 3434147
0.15841894 -0.073758736 1.0989556 2908578
0.16398147 -0.070856541 1.0968803 8233160
-0.14059699 -0.079620942 1.1009009 3365295
-0.1351594 -0.080481708 1.1038007 3499689
0.15867656 -0.064158455 1.0985031 4024485
0.16351759 -0.062451679 1.0967271 11192030
-0.13951281 -0.070631437 1.1028497 2181536
-0.13427827 -0.07018055 1.1039385 3433908
0.15765239 -0.058729276 1.1007723 2708114
-0.13827269 -0.062258642 1.1066653 8233201
-0.13442439 -0.063199341 1.1048926 3564980
-0.0017551044 0.11726751 1.0965102 9935247
0.0038983375 0.1184806 1.0963755 9934992
-0.11371547 -0.17843582 1.1171206 929696
-0.10947358 -0.17851514 1.1193472 1984411
0.15224186 -0.15989733 1.1138363 13424882
-0.11529826 -0.16898854 1.1146761 2512540
-0.11051457 -0.170568 1.1178803 2906513
0.15318893 -0.15395889 1.1112576 8955594
0.1586905 -0.15237683 1.1075618 14080986
-0.12320396 -0.15530857 1.1151679 2381461
-0.119772 -0.16027349 1.1171343 2776212
0.1528548 -0.1443857 1.1098434 3697834
-0.12396005 -0.14940566 1.1159024 2841752
-0.12153248 -0.15354192 1.1191024 2906774
0.15416887 -0.13437477 1.1101043 2646183
-0.12640765 -0.13894534 1.1167728 2907034
-0.1221202 -0.14289322 1.1189083 2775704
0.15428536 -0.12560195 1.1110331 3696546
0.1560753 -0.12097171 1.1103415 3761571
-0.12797333 -0.12959245 1.1152098 2973083
0.15740193 -0.11480268 1.1095295 3368880
-0.12963888 -0.11947161 1.1145025 3039134
0.15705045 -0.1032052 1.1089183 3500454
-0.13039739 -0.1090548 1.1140162 3171232
0.1555357 -0.094819762 1.1097996 3631529
-0.1314507 -0.10034443 1.1131685 3302564
0.15337519 -0.084608935 1.1053576 3697839
0.15386447 -0.08477921 1.1083524 3763633
-0.13210933 -0.089797005 1.1137781 3368355
0.15380374 -0.073517203 1.1078503 3436468
0.16789912 -0.069110066 1.1077737 10992842
-0.13034807 -0.079269029 1.1135402 3697068
0.15103546 -0.060630981 1.1119434 3765679
0.15427399 -0.063044518 1.1071062 3830452
0.16731121 -0.064885177 1.1077037 11387079
-0.12972338 -0.071488686 1.1111768 3631022
-0.1277376 -0.068175144 1.1105735 3500456
0.14996244 -0.053816587 1.108943 3830449
0.15664601 -0.053989436 1.1063342 5207985
0.16329139 -0.054564197 1.1102512 10334913
-0.13058238 -0.059458155 1.1130337 3434161
0.14860669 -0.044952322 1.1085443 3893939
0.15570016 -0.045062631 1.107605 8428221
-0.1313201 -0.049390055 1.1164266 6194370
-0.1268772 -0.047025785 1.1171509 4421311
0.14585911 -0.033223867 1.1104248 5734064
0.15237521 -0.036525495 1.1114515 10203587
-0.12591346 -0.040297393 1.117002 6852289
0.14400874 -0.027434155 1.1082395 8955077
0.0068088463 0.094881438 1.1117796 9737616
-0.080966882 -0.21324044 1.1277931 7635861
-0.077508293 -0.21349561 1.1303976 8100012
-0.091702431 -0.20384738 1.1304907 10535920
-0.084585615 -0.20618042 1.1280419 5996227
-0.077706121 -0.2099112 1.1303324 6394567
-0.10246024 -0.19353282 1.1225003 8431615
-0.095283531 -0.19553623 1.125168 1526185
-0.088898532 -0.19750801 1.1291698 1262491
0.13433239 -0.18246952 1.1256288 11717846
-0.1114732 -0.18545926 1.1225218 7571711
-0.10434541 -0.18731233 1.1239734 1917611
-0.097165883 -0.18937442 1.1276511 2379673
-0.090204671 -0.19190088 1.1302305 2644619
0.13554102 -0.1755209 1.1254709 5010097
0.14260809 -0.17222193 1.1221241 10599906
0.14961563 -0.17064136 1.1210982 14081762
-0.10484496 -0.17844886 1.1264681 2709143
0.13599813 -0.16488123 1.1252564 2909858
0.14253615 -0.1641167 1.1212934 4026283
0.15005922 -0.163964 1.1174591 12307424
-0.11259285 -0.16517255 1.1221521 2775446
-0.10792793 -0.16908321 1.125046 2775442
0.14330822 -0.15509981 1.1219226 3105445
0.14810069 -0.15409596 1.116807 2578854
-0.11497635 -0.15805483 1.1242163 2775449
-0.11054541 -0.16013879 1.1286838 2906778
0.14512207 -0.14516111 1.1230955 3564451
0.14833726 -0.14407855 1.1190099 3433893
-0.1192787 -0.14958008 1.125278 2840984
0.14619684 -0.1368783 1.1245151 3565217
0.14975087 -0.13466102 1.1190668 3499430
-0.12480193 -0.137997 1.1218677 2841497
-0.12160759 -0.13949305 1.127836 2907290
0.15148395 -0.12388664 1.121159 3237547
-0.125471 -0.12853533 1.1232989 2973083
-0.12262937 -0.12878232 1.1276493 3038877
0.15406094 -0.11402472 1.1221001 3827369
0.15653834 -0.11293729 1.1158462 3564710
-0.12705173 -0.11861661 1.1243961 3039391
-0.12423547 -0.12030967 1.1281843 3170977
0.15376988 -0.10394195 1.1217293 3565735
0.15606691 -0.10439552 1.1156905 3500198
-0.12758695 -0.11040381 1.1263916 3170977
0.15352701 -0.094936632 1.1208932 3631790
0.15475394 -0.09650176 1.123567 3434923
-0.12834285 -0.099895805 1.1252033 3302823
0.15256363 -0.083518408 1.1208584 3566513
-0.12888922 -0.089934886 1.1236879 3368614
0.15115097 -0.074326217 1.1207473 3632560
-0.12878469 -0.082188278 1.1248701 3565995
0.14936927 -0.064264894 1.1193157 3895728
-0.12665185 -0.066973075 1.126135 3697842
0.14645711 -0.054480232 1.117717 4158132
-0.1254745 -0.058615737 1.1247135 3502262
0.14476378 -0.043868363 1.1187458 4027837
-0.12336904 -0.048983596 1.1239001 3698611
0.13936475 -0.032630414 1.1226367 4619197
0.14522269 -0.035514165 1.1170365 4946612
-0.13004659 -0.042969748 1.1201361 7180220
-0.12249511 -0.039422348 1.1271218 4815032
0.13890955 -0.026176952 1.1218541 5209534
0.14338551 -0.024310239 1.1143938 8425655
0.0082059167 0.090980656 1.1148285 9474444
-0.053332649 -0.22192115 1.1370871 8300241
-0.072040781 -0.21480684 1.1336802 7642055
-0.064482123 -0.21501188 1.1356726 4815810
-0.057514712 -0.21805739 1.1370947 5210825
-0.081828102 -0.20342025 1.1332892 932767
-0.074647121 -0.20644456 1.1348912 2382238
-0.065830275 -0.20896295 1.1370828 2251168
0.11720128 -0.19567463 1.1332237 6518691
0.1229443 -0.19435838 1.1316561 11319227
-0.083887607 -0.19674855 1.1350683 2447513
-0.078269191 -0.19987743 1.1371523 2513045
0.12433977 -0.18604156 1.131844 4617903
0.13131502 -0.18572921 1.1287524 10929103
-0.093944453 -0.1862655 1.1346517 2971544
-0.087824039 -0.18969034 1.1351429 2774929
0.12588617 -0.17668773 1.1310188 2909086
0.13068587 -0.17551729 1.1285676 3105187
-0.10222186 -0.17353676 1.1331136 2709911
-0.097283065 -0.17828965 1.135462 2644371
0.1316732 -0.16562325 1.1289726 3368356
-0.10487766 -0.1670253 1.1348591 2775444
-0.099672459 -0.17085366 1.1356794 2709910
0.13556133 -0.15551268 1.1296859 3368613
0.13956612 -0.15235303 1.1279454 3499683
-0.10856429 -0.15865156 1.1344516 2841497
0.13699386 -0.14792371 1.1319121 3237027
0.14151354 -0.14501143 1.1290992 3302821
-0.11514217 -0.14742275 1.1334354 2645144
-0.11151785 -0.14890641 1.1359334 2775964
0.14409736 -0.13490677 1.1297021 3237542
0.14796485 -0.13112578 1.1287041 3106215
-0.11741519 -0.13912101 1.1342033 2907291
0.14495173 -0.12528597 1.1299845 3499683
0.14790934 -0.1231683 1.128361 3303338
-0.11892733 -0.12924752 1.1349882 3039134
0.14905883 -0.11459769 1.1284419 3499947
-0.1249014 -0.11530058 1.1324357 3236770
-0.12244378 -0.11940101 1.135801 3236770
0.15021655 -0.10400528 1.1286212 3500458
-0.12525843 -0.1088315 1.1323178 3237027
-0.123437 -0.10902114 1.1362871 3302821
0.15200722 -0.093335643 1.1288476 3632048
-0.12579398 -0.099127866 1.132141 3302824
-0.12394458 -0.099824287 1.1361195 3302569
0.14979057 -0.084558114 1.1286179 3632047
-0.12672511 -0.09009479 1.1319848 3434408
-0.12400454 -0.087502159 1.1358827 3434665
0.14578767 -0.073722474 1.1281236 4026292
-0.12686509 -0.079720616 1.1317873 3631531
-0.12510905 -0.078725614 1.135735 3631531
0.14542779 -0.065778248 1.1266031 4157366
-0.12722212 -0.073251538 1.1316694 4025255
-0.12431432 -0.067920938 1.1337959 3632304
0.14423367 -0.054046422 1.1259555 4289211
-0.12136626 -0.058765639 1.1329894 3568048
0.14050269 -0.043456145 1.1264913 4094399
0.14309809 -0.047682751 1.1278557 4224702
-0.12042645 -0.052692123 1.1311387 3764911
-0.11718042 -0.048148114 1.1334881 3895729
0.13750182 -0.035173673 1.1271787 4487616
-0.12257725 -0.034625452 1.1338333 6458567
-0.1174538 -0.03813336 1.1331999 3895996
0.13680276 -0.024179041 1.1259252 5735616
0.14346713 -0.020563729 1.1253241 9477559
-0.12226707 -0.031903796 1.134775 6852289
-0.11902122 -0.031725876 1.1347077 5933254
0.041739698 0.078760155 1.1254086 9474701
-0.015819315 -0.23011136 1.1485114 7248329
0.017044377 -0.22991833 1.1470605 5801654
0.024981022 -0.22836211 1.1463407 5210039
0.037815776 -0.22826815 1.1474202 6328255
0.045469306 -0.22784865 1.1472614 7379645
0.057003651 -0.22709456 1.1470199 8430007
0.064765133 -0.22496611 1.1428244 8625323
-0.05426617 -0.22422796 1.1411515 9678537
-0.043330524 -0.22351143 1.1474513 4422071
-0.033942133 -0.22364715 1.1487434 2778029
-0.024095587 -0.2249248 1.1485742 2513574
-0.016344685 -0.22721559 1.1484659 2315684
0.01358077 -0.22630644 1.1478593 2120102
0.025607754 -0.22564721 1.1476098 2185635
0.038667753 -0.22383463 1.1473178 2186146
0.044194907 -0.22462839 1.1472243 2316696
0.059381288 -0.22160256 1.146867 4486314
0.066867858 -0.22083318 1.144704 5997746
0.07785213 -0.21725193 1.1452761 6063288
0.086449832 -0.21529338 1.1462123 6589614
0.09455277 -0.21506858 1.1460485 8757678
-0.060354136 -0.21258187 1.1410465 1855898
-0.053441986 -0.21465611 1.1441898 2249885
-0.045564834 -0.21646401 1.1481059 2381985
-0.037317339 -0.21812932 1.1487032 3039902
0.080128573 -0.21004671 1.1462355 2841504
0.086111888 -0.2091704 1.1461008 3302564
0.095511645 -0.2064209 1.1445289 4420011
0.10516614 -0.20513725 1.1399313 6984117
0.11439267 -0.2019144 1.137401 6254993
-0.072045967 -0.20267412 1.1418856 2710418
-0.064082377 -0.20544076 1.1453646 2775447
-0.057191849 -0.20724396 1.1480839 2906776
0.097539112 -0.1983892 1.1452675 3171492
0.10590501 -0.19660608 1.1422673 3237285
0.11407792 -0.19501925 1.1378456 3629215
-0.075232811 -0.19581768 1.1458175 2775191
-0.066867635 -0.19880947 1.148245 2906012
0.10738233 -0.18727955 1.1435921 3040421
0.11415534 -0.18528475 1.140033 3105703
0.12000832 -0.1852705 1.1369691 2777257
-0.091407396 -0.18270093 1.1410809 2710677
-0.084368646 -0.18614081 1.1445395 2709909
-0.07791394 -0.18935533 1.146946 2709910
0.11491399 -0.17678741 1.1434343 3368100
0.12229644 -0.17462532 1.1388526 3302561
-0.092933014 -0.17617479 1.1440971 2710421
-0.087918296 -0.17868136 1.1481373 2644886
0.11656991 -0.16889703 1.1447237 3040936
0.1243877 -0.16540343 1.1424146 3237031
0.13056476 -0.162213 1.1393172 3368615
-0.10334361 -0.16375192 1.1409498 2776209
-0.097580403 -0.16783687 1.1456671 2841240
0.12599051 -0.15677999 1.1443043 3237287
0.13221245 -0.15430318 1.1389891 3302822
-0.10461988 -0.15707794 1.1453812 2710683
-0.099695541 -0.16005383 1.1481428 2841499
0.13405798 -0.14572692 1.1413429 3237541
0.13879727 -0.14281797 1.1373801 3237798
-0.10720454 -0.14864135 1.1458789 2907293
0.13530801 -0.1368333 1.1437358 3237797
0.13979541 -0.13413171 1.1385933 3303334
-0.11422524 -0.13738604 1.1417983 2907805
-0.11182068 -0.13878229 1.1478374 2907805
0.14116733 -0.12463421 1.1409395 3434407
-0.11520632 -0.12809229 1.1431625 3039392
-0.11242187 -0.12902649 1.1484611 3039391
0.14257784 -0.11497367 1.1405982 3500202
0.14645441 -0.1119422 1.1350327 3631274
-0.11881913 -0.11907639 1.1449269 3170979
0.14400274 -0.10457565 1.1424972 3631791
0.14724447 -0.10393359 1.1366409 3566510
-0.11976962 -0.10874312 1.1459275 3105957
0.14254537 -0.093548775 1.1410903 3632305
0.14771786 -0.094472885 1.1350039 3501227
-0.12074783 -0.098799147 1.1434683 3237546
0.14157154 -0.084534802 1.1400563 3698099
0.14610258 -0.084758691 1.1349149 3698094
-0.12065816 -0.089028567 1.1435159 3434923
0.14230558 -0.075198255 1.1404072 3895479
0.14453679 -0.07719703 1.1343995 3895477
-0.12084381 -0.078556091 1.1439368 3566256
0.14196752 -0.063874699 1.1415291 4027579
0.1443599 -0.063227668 1.1381348 4157882
-0.1203565 -0.06962128 1.142998 3567024
0.13939565 -0.054474343 1.1408881 4159422
0.14363886 -0.054469332 1.1363792 4289724
-0.11863092 -0.059716526 1.1405759 3567791
-0.11553434 -0.057513054 1.1458077 3764403
0.1371064 -0.044575959 1.1392514 4356797
-0.11440811 -0.04861486 1.1395162 3830196
0.13390188 -0.035172962 1.1381991 4619718
-0.11349224 -0.037605926 1.1416242 3896507
0.12917228 -0.023514554 1.1385562 4817095
0.13366063 -0.02390527 1.135252 4948420
-0.12157165 -0.028842919 1.1427053 6916535
-0.11407202 -0.028968439 1.1422523 5210049
0.12801656 -0.017139584 1.1405678 5013440
0.13240096 -0.016524076 1.1381353 5998788
0.023700003 0.051241852 1.1371564 5859448
0.031842977 0.051731877 1.1351287 6122362
0.037445392 0.052222364 1.1380101 6319482
0.048547659 0.054172166 1.1417555 5330522
0.024005938 0.055684067 1.1355401 5792108
0.031761244 0.056945749 1.1348296 5527648
0.03720485 0.056580715 1.1379306 5067354
-0.010027426 -0.22971171 1.1513908 4354997
-0.0025844714 -0.23029613 1.1532564 4684224
0.0072512077 -0.229489 1.15158 4289976
0.018074509 -0.22660056 1.1507776 2054307
0.028518796 -0.22657785 1.1505716 2777510
0.03406037 -0.22737363 1.1504779 4026798
0.050503582 -0.22647235 1.1501368 5604271
0.054249577 -0.22461769 1.1500273 4881326
-0.029546726 -0.22041431 1.1515955 3039902
-0.021550171 -0.22088596 1.1519474 2710943
-0.01293531 -0.22227427 1.15461 2645152
-0.0028502168 -0.2245222 1.1578186 2514339
0.0070580738 -0.22388506 1.1570777 2514851
0.016791143 -0.22087049 1.1552939 2842787
0.026593404 -0.21994902 1.1528825 2908579
0.036236413 -0.21901608 1.1531637 3039651
0.046474114 -0.21913867 1.1540761 2908578
0.055755604 -0.21776143 1.1536167 2778020
0.065633506 -0.21559855 1.1510582 2646433
0.075313151 -0.21778205 1.1494807 5012145
0.086893991 -0.21843007 1.1492652 8955830
-0.043014377 -0.21271676 1.1519978 2841242
-0.033033442 -0.21420795 1.1538786 2775960
-0.023931656 -0.21495079 1.1556478 2841500
-0.014346565 -0.21653244 1.1592244 2907551
0.017255666 -0.21406209 1.1585547 3105184
0.026433861 -0.21318996 1.1583571 3170722
0.03636824 -0.21264541 1.1581511 3302053
0.046456136 -0.21153888 1.1579312 3170723
0.056891657 -0.21004421 1.157697 3105188
0.066130593 -0.20877446 1.1557757 3170467
0.07563328 -0.20811449 1.1516886 3236258
0.085533641 -0.2041606 1.1494612 3171236
-0.060233563 -0.20230424 1.1518499 2906776
-0.053568177 -0.20415738 1.1528977 2907033
-0.045005519 -0.20460719 1.1564298 2841497
-0.035479207 -0.20809513 1.1594775 2775704
0.066848747 -0.20322435 1.1573693 3105443
0.07567931 -0.20274031 1.157186 3105443
0.086226247 -0.1984624 1.1556323 3105956
0.094350986 -0.19520673 1.1518713 3105956
-0.071800739 -0.19194263 1.1518774 2644884
-0.064487688 -0.19506031 1.1547948 2775705
-0.055919856 -0.19741848 1.1573395 2841497
0.089419745 -0.19091526 1.1566873 3172006
0.096913792 -0.18813729 1.1554857 3040421
0.10258842 -0.18551876 1.1528226 2974628
-0.081054471 -0.18365338 1.1518996 2645144
-0.074265219 -0.18499617 1.1548518 2710425
-0.068791218 -0.1873937 1.1563035 2776216
0.10557909 -0.17669885 1.1528435 3171493
0.11036489 -0.1742603 1.149551 3237026
-0.084478982 -0.17576566 1.1544039 2710424
-0.077920668 -0.17754644 1.1582679 2710937
0.1081919 -0.16995686 1.1559131 3302823
0.11422536 -0.16559292 1.1525511 3172005
0.11982191 -0.16215658 1.1515321 3172006
-0.09381631 -0.16492732 1.1517892 2841498
-0.089193031 -0.16710812 1.1566652 2907290
0.11641324 -0.15843432 1.1555288 3303592
0.12243841 -0.15474162 1.1540051 3237544
0.12820859 -0.1501918 1.1471344 3303337
-0.096010774 -0.15654749 1.1533855 2973342
-0.091131821 -0.15929219 1.1596305 3038879
0.12564938 -0.14677928 1.1544551 3237544
0.12974682 -0.14360385 1.149778 3303336
-0.1046737 -0.14546672 1.1526275 2973342
-0.098355584 -0.14820728 1.1570578 2973600
0.13267127 -0.13428387 1.150741 3368872
-0.10665599 -0.13767719 1.1538696 3039392
-0.10108025 -0.13808912 1.159417 3236259
0.1334843 -0.12475456 1.1522917 3500460
0.13765815 -0.12218481 1.1464077 3434923
-0.10827504 -0.12810029 1.1542526 3170978
0.13405043 -0.11576574 1.153024 3500719
0.1385338 -0.11307693 1.1495492 3500718
-0.11549966 -0.11736863 1.1512977 3237029
-0.11149982 -0.11841236 1.1572415 3237286
0.1384376 -0.10416284 1.1521519 3697329
-0.11598368 -0.10859866 1.1511378 3237543
-0.11330542 -0.10787938 1.1585741 3172263
0.13914186 -0.095009819 1.1514559 3697843
-0.11675797 -0.098936431 1.1539677 3303340
-0.11464702 -0.097655796 1.1589034 3303852
0.13834882 -0.08458624 1.1516705 3764149
-0.11741799 -0.089251697 1.1507926 3500716
-0.11462294 -0.087584309 1.1587085 3501229
0.14068209 -0.074033633 1.1499916 3764661
-0.11749625 -0.081192531 1.1506385 3566512
-0.11443312 -0.077518471 1.1548725 3632306
0.13714105 -0.064007387 1.1497669 3896764
-0.11436251 -0.067880973 1.1546851 3698357
0.13065636 -0.054268885 1.1519034 4291265
0.13443933 -0.055332545 1.1463236 4225217
-0.11325766 -0.058807157 1.1541244 3764408
0.13089532 -0.04465194 1.1510462 4554434
0.13336246 -0.044351395 1.1449894 4488640
-0.11088146 -0.047935694 1.154668 3895997
-0.10688072 -0.044454005 1.1577232 4027323
0.12988971 -0.033913005 1.1498581 4817354
-0.10993448 -0.038400237 1.1509973 3962044
-0.1059158 -0.036866192 1.1567575 4093118
0.11995794 -0.022055559 1.1528258 5014224
0.12541442 -0.02456525 1.1487653 4751563
-0.10943826 -0.027971894 1.1494523 4290235
-0.10448272 -0.027489297 1.1538805 4158908
-0.098370276 -0.024796218 1.1571761 4028609
0.11787409 -0.015154339 1.1509552 4817874
0.12442835 -0.014604956 1.1455914 5145287
-0.10251094 -0.020763211 1.1515777 4487616
-0.097202502 -0.01772777 1.1556829 4356800
0.10834116 -0.0031493083 1.1506886 5276623
0.11476477 -0.0058808699 1.1468993 5604813
0.12419236 -0.0066085458 1.1453304 6720449
-0.095462561 -0.010612421 1.1568451 5671109
0.10620649 0.002332598 1.152054 5802961
0.11252493 0.0018343404 1.1478424 6787017
0.029398177 0.013946645 1.1539133 12972031
-0.026346061 0.020781241 1.1528777 5869264
0.006240665 0.018951394 1.1542724 7515376
0.013742421 0.018993504 1.1541239 8764660
0.023357764 0.019077696 1.153933 10146554
0.030037541 0.018410452 1.1538144 10870005
-0.084551461 0.025804646 1.1479241 8028800
-0.079455964 0.026450478 1.1478113 7305855
-0.021986775 0.022201978 1.1547652 5671370
-0.018675316 0.022383496 1.1546966 5869265
0.004504906 0.023654081 1.1542158 6988787
0.0089201871 0.023896091 1.1541241 7185904
0.094530791 0.037446193 1.1521775 6314850
-0.078513578 0.031511225 1.1476951 8028802
0.091245145 0.040809117 1.1521772 6117979
0.066589691 0.049849547 1.1444849 5593178
0.068782121 0.049969725 1.1444395 5658970
-0.0086385971 -0.21911636 1.1631635 2973083
-0.0030393461 -0.21992046 1.1630689 2973595
0.0063629569 -0.21896204 1.1635321 2973598
-0.029187143 -0.20913264 1.1633753 2842012
-0.022741891 -0.21016812 1.1632683 2776219
-0.013249916 -0.21210387 1.1646433 2907806
-0.0035631014 -0.21292427 1.1661031 2907807
0.0070104655 -0.21288282 1.1660697 2973599
0.015694527 -0.21011294 1.1631776 3039136
0.026378494 -0.20852369 1.1636035 3170723
0.036320437 -0.20787136 1.1627283 3236770
0.046064295 -0.20688805 1.1618507 3170979
0.05508393 -0.20618001 1.1616595 3170980
0.061637968 -0.20415425 1.1614914 3171236
-0.040752433 -0.20087853 1.1634434 2842012
-0.0339013 -0.20274514 1.1647998 2842011
-0.024159152 -0.20445473 1.1656483 2842012
-0.015775062 -0.20541859 1.1670409 2907805
0.030703656 -0.20426446 1.1661038 3302309
0.036619384 -0.20280275 1.1648159 3302308
0.04522489 -0.20223451 1.1632779 3171236
0.055977587 -0.20224249 1.1615659 3171236
0.066542685 -0.20025769 1.1629869 3105443
0.076229542 -0.19781348 1.1620821 3171492
0.082644463 -0.1955961 1.1609126 3040420
-0.062408604 -0.19095552 1.1636782 2841497
-0.053485356 -0.19320959 1.1640795 2907291
-0.044888675 -0.19536811 1.1653016 2907549
-0.038118139 -0.19614539 1.1673017 2907551
0.078992985 -0.19046935 1.164887 3040420
0.085859075 -0.18828358 1.1628143 3106213
0.093482167 -0.18529928 1.1605005 3106214
-0.064227663 -0.18452331 1.1655905 2907290
-0.057463631 -0.18700847 1.1670059 2973340
0.089616507 -0.18096849 1.1644944 3302823
0.095473245 -0.17830306 1.1619269 3237030
0.10141862 -0.1745626 1.1619154 3237031
-0.082338594 -0.17204985 1.1637053 2841497
-0.073753424 -0.17505395 1.1641279 2842012
-0.067472108 -0.17690387 1.1665076 2907547
0.10615499 -0.16662371 1.1608139 3368361
0.11103337 -0.16311704 1.1597267 3237285
-0.084141463 -0.16622332 1.1636283 2973085
-0.07730592 -0.16602388 1.1662278 3039135
0.10805035 -0.15939203 1.1597135 3368615
0.11439466 -0.15569618 1.1602448 3237799
0.11875979 -0.15213898 1.1593627 3303337
-0.092238836 -0.15370542 1.1635461 2973857
-0.086593933 -0.15690242 1.1650528 3039137
-0.080574162 -0.15741 1.1673895 3104930
0.11599219 -0.14807531 1.1613394 3172264
0.12201905 -0.14487483 1.1598252 3238059
-0.093860477 -0.14556275 1.1644212 3039650
-0.089629039 -0.14887628 1.167403 3105700
0.12474474 -0.13494161 1.1610675 3369132
0.12891902 -0.13491704 1.1588302 3434410
-0.097069837 -0.137151 1.1650364 3171236
0.12620631 -0.12670928 1.1619263 3500719
0.12942231 -0.12424766 1.160615 3435183
-0.10490452 -0.12551352 1.163251 3302823
-0.10009965 -0.12718382 1.1658564 3171495
0.12962306 -0.11412893 1.1602339 3566514
-0.10709553 -0.11696017 1.1645842 3368873
-0.10332327 -0.11789972 1.1662741 3368875
0.13180757 -0.10482225 1.1589925 3697588
-0.10847377 -0.10793518 1.1656495 3303850
0.13289537 -0.095102102 1.161413 3763892
0.13601005 -0.094309948 1.1579065 3698099
-0.1103985 -0.097840749 1.1644255 3435181
-0.10447872 -0.097962581 1.1667122 3435438
0.1333665 -0.08492554 1.1617789 3829942
0.13612194 -0.084276997 1.1588539 3764149
-0.10988929 -0.088119164 1.1646279 3501229
0.13263038 -0.071588047 1.1615359 3896505
0.13713476 -0.074267358 1.1593163 3830455
-0.10984447 -0.078250781 1.1639748 3632563
-0.10576691 -0.074621975 1.1662868 3567542
0.12983008 -0.064620197 1.158884 4027837
0.13521966 -0.067911342 1.1574124 3896505
-0.10964499 -0.068171434 1.163571 3829940
-0.10613497 -0.067953221 1.1661654 3699127
0.12782569 -0.055080924 1.1599779 4291009
-0.10979637 -0.058034658 1.1628448 3895737
-0.10610452 -0.056962617 1.1659526 4027576
0.12755512 -0.045055449 1.1591227 4422849
-0.10900041 -0.051300664 1.1618987 4158911
-0.10468476 -0.047323488 1.1637378 4093372
0.12695228 -0.035340071 1.1584468 4817355
-0.10146961 -0.037743893 1.1630278 4093630
-0.09686099 -0.034000285 1.1653272 4094397
0.11893416 -0.025004089 1.1591276 5080014
0.12357354 -0.027998008 1.156871 4883149
-0.099803738 -0.030057803 1.1613076 4028348
-0.095416956 -0.02722913 1.1626672 4028864
0.11390945 -0.015630931 1.1586008 4949202
-0.092382535 -0.017451309 1.1627369 4029123
-0.088251002 -0.014948018 1.1647899 3963586
0.10730856 -0.0060983896 1.159436 5146069
0.11093481 -0.010359183 1.1567792 5080276
-0.092043132 -0.0096343085 1.1607605 5342665
-0.084972501 -0.0070217401 1.1645724 4882633
-0.021828827 0.00021259487 1.1631898 6070261
-0.015160269 0.00057812035 1.1630515 6528744
-0.0084917126 0.00094364583 1.1629131 8827627
0.0070682541 0.0017965361 1.1625904 10340848
0.015835941 0.0016400814 1.1624209 8895736
0.023368688 0.0013522357 1.1622782 6266608
0.09757112 0.0061816499 1.159724 5475287
0.10220655 0.0028827265 1.1580291 5475028
-0.081874564 -0.00088930875 1.1623923 5999306
-0.07528615 0.00058282912 1.1622341 5540557
-0.066929117 0.0043681338 1.1613296 5803727
-0.054276675 0.0068571195 1.1637001 4950220
-0.045267183 0.0062249005 1.163535 5016280
-0.03553215 0.0061392933 1.1629449 5411294
-0.025536548 0.0066400766 1.1608979 5806569
-0.015533037 0.0072311088 1.1623302 7120874
-0.0059897853 0.0085129216 1.1627177 12379901
0.0045663007 0.0085205138 1.1599826 13891069
0.014365426 0.0088063776 1.1591102 12969723
0.024308195 0.0096048564 1.1597836 9946095
0.034383908 0.0099325851 1.1599818 10013177
0.043995783 0.012338169 1.1595054 7449069
0.050582301 0.014586657 1.161487 5411552
0.094421372 0.0098759085 1.1582141 6526426
-0.052573442 0.011905231 1.1635692 6264275
-0.04508492 0.013074793 1.1608982 5803990
-0.035587858 0.014198937 1.1591891 5345755
-0.025667056 0.016006224 1.1589589 5412839
-0.016115539 0.017132774 1.1592493 5676266
-0.006995854 0.01675304 1.1614351 7253489
0.0027936911 0.017074049 1.1593784 8436213
0.012859869 0.015373163 1.1582128 12051453
0.027014436 0.020593055 1.1578333 10082302
0.0348824 0.020283654 1.1576844 10607102
0.043399658 0.019904032 1.1575242 7515119
0.050486565 0.019702256 1.1587224 6068200
-0.014212151 0.022777304 1.1586027 6001365
-0.0097816577 0.023020156 1.1585108 6396124
0.10221345 0.034936212 1.1560763 6447199
-0.00019824412 -0.20883219 1.1708019 3039391
0.0073303948 -0.20781928 1.1721346 3039135
0.018760653 -0.207793 1.1704086 3104930
-0.029809732 -0.19926895 1.1712 2776478
-0.023355037 -0.19977561 1.1730835 2842271
-0.013335389 -0.20082834 1.1750894 2907807
-0.0040110676 -0.20216975 1.1754457 2908063
0.0060595386 -0.20244853 1.1763576 2973600
0.016300065 -0.20091192 1.1756595 3105187
0.026174452 -0.20003578 1.1745284 3236773
0.03577628 -0.19818068 1.1736228 3237029
0.046711653 -0.1976658 1.1734643 3171237
0.056354392 -0.19813016 1.1709826 3171236
0.065761857 -0.19606331 1.1701804 3105444
0.07449498 -0.194111 1.1690475 3171493
-0.04240929 -0.19101894 1.17449 2841758
-0.034180082 -0.19286382 1.175164 2907551
-0.025168005 -0.19342652 1.177822 2842271
-0.014411162 -0.19400579 1.1787984 2908064
-0.0076121772 -0.1947594 1.1786791 2973857
0.013721696 -0.19359002 1.1782366 3105444
0.026516836 -0.19188754 1.1779519 3237030
0.036557559 -0.19176811 1.1769516 3302823
0.046157759 -0.19046167 1.1766143 3171495
0.055417363 -0.18855137 1.1759268 3105703
0.065121375 -0.18828225 1.1755219 3105703
0.074847326 -0.18728483 1.1734104 3105702
0.082974784 -0.18438229 1.1704075 3105958
-0.054124519 -0.18398082 1.1730311 2973598
-0.045961928 -0.18517739 1.1772482 2907551
-0.035944611 -0.18645757 1.1790766 2908065
0.076230332 -0.17872781 1.1767193 3237288
0.084948666 -0.17757979 1.1740801 3302823
0.093427025 -0.17512383 1.1708806 3237287
-0.064110592 -0.17322242 1.1742306 3105183
-0.056409828 -0.17611974 1.1773967 2974112
-0.047964938 -0.17782477 1.1791464 2842786
0.086113989 -0.17070073 1.1763698 3171750
0.094504327 -0.16665012 1.1747925 3172008
0.10237534 -0.16453974 1.1702619 3303081
-0.072798751 -0.16404273 1.172033 3104930
-0.066336483 -0.16590357 1.1779441 3170978
0.096555345 -0.15815784 1.175922 3303337
0.10419254 -0.15625831 1.1734842 3368873
0.11098779 -0.15463591 1.1701133 3237543
-0.08328145 -0.15177554 1.1740032 3040164
-0.076340497 -0.15513664 1.1750548 3105701
-0.069645099 -0.15911579 1.179212 3302822
0.10531016 -0.14712325 1.1755366 3303597
0.11248153 -0.1443789 1.1709772 3238059
0.11934256 -0.1409702 1.1691394 3303852
-0.086046241 -0.14556357 1.1750493 3106213
-0.07809823 -0.14709638 1.1791463 3172007
0.11296233 -0.13519476 1.1749556 3369387
0.12079962 -0.13459468 1.1709883 3435181
-0.093799926 -0.13578156 1.1725676 3237030
-0.087115325 -0.1360109 1.1767755 3237800
-0.080512494 -0.1390633 1.1790386 3303594
0.1144489 -0.12905261 1.1750079 3500972
0.12254458 -0.12438382 1.1715071 3500976
0.12696701 -0.12132016 1.1666092 3500977
-0.095412537 -0.12656763 1.1741999 3237545
-0.090586372 -0.12789783 1.1781322 3303852
0.12386909 -0.11472076 1.1745458 3566772
0.12712544 -0.11494638 1.1704844 3566515
-0.098452896 -0.11700893 1.1742141 3369389
0.12419929 -0.10515623 1.1743546 3763639
0.12740955 -0.10413238 1.1693808 3763639
-0.10602638 -0.10360285 1.172187 3435181
-0.10039607 -0.10692777 1.1753796 3435438
0.12423004 -0.094052799 1.1741396 3895737
0.12909791 -0.093760088 1.1688596 3764149
-0.10586278 -0.097089097 1.173125 3435438
-0.10038557 -0.097347178 1.1770853 3501231
0.12392018 -0.088438466 1.1740372 3961530
0.12896894 -0.08427012 1.168679 3961528
0.13590345 -0.080559485 1.1656462 3895735
-0.10607978 -0.087825984 1.1735506 3501489
-0.10177458 -0.087315083 1.1763395 3501490
0.12292863 -0.070472598 1.1737099 4159679
0.12879473 -0.074919894 1.1689512 3962041
0.13578033 -0.078328967 1.1656055 3895735
-0.1069722 -0.080541894 1.1724272 3501747
-0.10229501 -0.077042513 1.1749352 3567541
0.1218289 -0.064150713 1.1736095 4225473
0.12546517 -0.064527184 1.1695436 4159424
-0.10110425 -0.066831179 1.1736476 3764919
0.12109049 -0.055306215 1.1734532 4422597
0.1249093 -0.054455604 1.16936 4357059
-0.10115428 -0.057051398 1.1732882 3896505
-0.096326791 -0.056586601 1.1777575 3962298
0.12038043 -0.0447082 1.1732626 4685767
0.12435345 -0.044384032 1.1691766 4422851
-0.10023434 -0.04789605 1.1712641 4027836
-0.095221542 -0.045757744 1.1764352 4028094
0.11788327 -0.034275744 1.1709919 4948684
0.12378063 -0.035940144 1.1660237 4751818
-0.099018767 -0.03974184 1.1694821 4093632
-0.093531653 -0.035880115 1.175148 4094399
0.11061521 -0.024219863 1.1730592 5080784
0.11488505 -0.025141887 1.1681911 5211343
-0.090783015 -0.027302548 1.1734451 4094402
-0.084382668 -0.023835711 1.1758896 4226244
-0.07797493 -0.021792755 1.1767244 4620744
-0.024140805 -0.01771567 1.1755861 5412064
-0.0016840966 -0.016484745 1.1751202 6463211
0.0065853326 -0.019874044 1.175023 6397929
0.016221013 -0.018704273 1.1748108 6397929
0.025334775 -0.016290925 1.1745847 6003432
0.10705581 -0.015169054 1.1704535 5081042
0.11232082 -0.01808995 1.1649042 5081041
-0.083556458 -0.016061515 1.1705879 4160963
-0.075441189 -0.014583036 1.1756779 4752075
-0.060567304 -0.010702215 1.1761676 4949201
-0.053799316 -0.010894373 1.1760381 5016022
-0.04418572 -0.011500761 1.1751937 5213659
-0.03433311 -0.011876337 1.1744426 5411552
-0.024452288 -0.012109898 1.1746837 5740773
-0.014345151 -0.011547424 1.1752741 6003172
-0.0042488063 -0.010998264 1.1746647 6331366
0.0057796165 -0.010470383 1.171856 6989552
0.015872508 -0.0099140704 1.1720468 6792432
0.025928501 -0.0093671679 1.1711881 5937640
0.034395926 -0.007945925 1.1732448 5806054
0.045041181 -0.0060397536 1.173999 5674725
0.05171622 -0.0045476034 1.1738387 5674983
0.097611204 -0.0045660511 1.1729357 5146841
0.10362027 -0.0064056292 1.1671364 5080789
-0.080668114 -0.0074142069 1.1684967 4554184
-0.077213615 -0.0063426569 1.1714091 4751049
-0.061942376 -0.0051827207 1.1740874 4818129
-0.054528132 -0.0047886074 1.1731335 5015507
-0.045071565 -0.0043184832 1.1695369 5147609
-0.035006698 -0.0037860125 1.1680281 5346018
-0.025309928 -0.0035897046 1.1704456 5937898
-0.014833019 -0.0037588403 1.1704649 6462952
-0.0044531124 -0.002457343 1.1693462 8303605
0.0048906701 -0.0020668507 1.1681385 8501495
0.014769244 -0.0025195032 1.1671393 7252467
0.02604562 -0.0013426468 1.1677341 6069484
0.035135478 0.00026037544 1.1683859 6135528
0.045312583 0.00049038231 1.1712782 5741031
0.054706641 0.0012303665 1.1726679 5543655
0.064117894 0.003063038 1.1734476 5477092
0.074092746 0.0049382001 1.1732152 5739747
0.08545962 0.0053109601 1.1729841 5280481
0.094736375 0.0031233802 1.1691501 5015513
0.1002793 0.0014104471 1.1667655 4949463
-0.074346058 -0.00035586953 1.168236 4818122
-0.064983271 0.0011516586 1.1680226 5147606
-0.056350298 0.0023706183 1.1678292 4818639
-0.047580555 0.0011112317 1.1676809 5344472
-0.0030021509 0.0041140318 1.1667454 12971007
0.0014895424 0.0038009137 1.1666631 12905215
0.026024584 0.0051457584 1.1661541 5807584
0.039407335 0.0058793053 1.1658766 6004710
0.045408681 0.007167086 1.1657336 5807083
0.054091193 0.010161169 1.167639 5477863
0.062654585 0.010240696 1.1700032 5542628
0.074676044 0.0079735368 1.1731451 5673698
0.085089549 0.010478429 1.1713911 5804766
0.090707876 0.0086912513 1.1648126 5147865
0.056635477 0.018009983 1.1653032 5412324
-0.00065839384 -0.19722924 1.1825914 3039650
0.0058150711 -0.19752015 1.1824696 3039650
-0.021373156 -0.19045414 1.1828684 2842271
-0.014613328 -0.19008362 1.1827282 2973857
-0.0042207064 -0.19058385 1.1837969 2973857
0.0056361994 -0.19177577 1.1848894 3039395
0.016156586 -0.18927555 1.1838853 3171237
0.025354985 -0.18736419 1.182956 3237030
0.035662025 -0.18623944 1.1832033 3302569
0.043990627 -0.18592805 1.1828282 3237546
-0.041586261 -0.18106849 1.183085 2908065
-0.033968385 -0.18161958 1.1829457 2973857
-0.025184274 -0.18288608 1.1837976 2973857
-0.015327708 -0.18422914 1.1847476 2973858
-0.0069664763 -0.18456677 1.1864725 3105444
0.024685876 -0.18283179 1.185816 3237030
0.03628391 -0.18068421 1.1855463 3302825
0.045169249 -0.17974705 1.1850455 3171754
0.055005066 -0.17975776 1.1831591 3171752
0.065296188 -0.17878033 1.1823493 3171753
0.073539682 -0.17521405 1.1817063 3237546
0.081593558 -0.17237934 1.1804926 3303592
-0.053266495 -0.17223758 1.1831443 2908579
-0.044927794 -0.17391698 1.1850134 2908579
-0.035010997 -0.17482878 1.1857452 3105444
-0.026255894 -0.17609937 1.1866888 3105443
0.068273939 -0.17137146 1.1847368 3303339
0.076142184 -0.16868795 1.1831963 3303082
0.084367245 -0.16616392 1.1808896 3237545
0.090109207 -0.16287196 1.1801414 3303850
-0.062901422 -0.16146493 1.183126 3302822
-0.056018732 -0.16535801 1.1853166 3040165
-0.048660621 -0.16870984 1.186987 3040167
0.079079226 -0.16170803 1.1843375 3303598
0.084892936 -0.157406 1.1831986 3238061
0.093291074 -0.15491593 1.1810367 3303596
0.10081595 -0.15211436 1.179723 3369131
-0.07324598 -0.15148453 1.1831369 3171751
-0.06660337 -0.15473272 1.1844811 3368615
-0.059458517 -0.15796278 1.186992 3171751
0.10229483 -0.14542195 1.1810652 3369134
-0.075606234 -0.1445509 1.1830496 3369130
-0.069330722 -0.14611496 1.1859573 3434922
0.10291671 -0.13568121 1.1824131 3435183
-0.077776134 -0.13603546 1.1842617 3434923
0.10527635 -0.12844458 1.1823794 3501232
0.11184073 -0.12495925 1.1815709 3435694
0.11841425 -0.12289777 1.1788125 3501232
-0.08660531 -0.12536676 1.1838959 3369646
-0.080656894 -0.12876947 1.1855118 3435182
0.11508094 -0.11551284 1.182737 3567282
0.11910699 -0.11479658 1.1804613 3567027
-0.095701851 -0.11316267 1.182839 3501231
-0.090854011 -0.11678278 1.1855645 3435439
0.1146442 -0.10759953 1.1825927 3829686
0.11955004 -0.10454646 1.1806588 3829431
-0.095888399 -0.10978265 1.1827774 3501231
-0.091654971 -0.10627559 1.1842936 3567024
0.1213455 -0.095047206 1.1808847 3830201
-0.096665673 -0.095699281 1.1825207 3632818
-0.093362622 -0.096203223 1.1844662 3698612
0.12286179 -0.084351286 1.1799814 3896507
-0.097194225 -0.086122587 1.1823463 3633333
-0.093289979 -0.086053625 1.1850691 3764919
0.12212528 -0.074178562 1.1792994 4093886
-0.098129898 -0.077359259 1.1821955 3633334
-0.094087377 -0.076144591 1.1852937 3830201
0.11861057 -0.064720333 1.1799084 4291523
-0.094262525 -0.065866187 1.1835648 3896506
0.11753181 -0.054292142 1.1791058 4619975
-0.091513246 -0.056150775 1.1833707 4028348
0.11108785 -0.043162562 1.1814187 5146320
0.11561153 -0.04515674 1.1803677 4883148
-0.090345234 -0.046684977 1.1817359 3962814
-0.08539737 -0.045006052 1.1841784 3963072
0.10958152 -0.034433294 1.1797792 5146577
0.11338845 -0.035885621 1.1777315 5080527
-0.089478105 -0.037558291 1.1812568 4028607
-0.083364159 -0.035435166 1.1832296 4291526
-0.033601243 -0.030683346 1.1840256 5147865
-0.026152812 -0.030048296 1.1838667 5344731
-0.0099243717 -0.028251648 1.1835126 5345501
-0.0031417245 -0.027879871 1.1833719 5739743
0.0071175671 -0.029576547 1.1818689 5936862
0.016164308 -0.029082865 1.1820148 5871068
0.026312139 -0.027399302 1.1827829 5739228
0.044336811 -0.025277421 1.1823871 5213656
0.10721696 -0.025670908 1.1795565 4949970
-0.082042083 -0.027940571 1.1809247 4422856
-0.073850669 -0.022689581 1.1824809 4686797
-0.063556887 -0.020992316 1.1824274 4884690
-0.053069502 -0.021830387 1.1837376 4950486
-0.042606421 -0.022032142 1.1827019 5213659
-0.034023561 -0.02276881 1.1806799 5279707
-0.023809481 -0.023340508 1.1808901 5345244
-0.013753305 -0.021156438 1.1805611 5411808
-0.0038532941 -0.021732762 1.1801752 5806052
0.0056214025 -0.024359703 1.17913 6068964
0.017659605 -0.024076544 1.1788876 6068963
0.02756647 -0.021132775 1.1795591 6003173
0.035931382 -0.018937506 1.1802294 5608417
0.04612672 -0.018377028 1.180618 5411038
0.053005982 -0.017998882 1.182076 5279709
0.097506784 -0.013817355 1.1801959 5212630
0.10330675 -0.017126754 1.1784014 5015248
-0.07050591 -0.016855009 1.1804836 4949712
-0.06374608 -0.016484484 1.1803434 4949713
-0.053606331 -0.015928686 1.180133 5016279
-0.044196956 -0.015789621 1.1799451 5213659
-0.035517938 -0.016067281 1.1797796 5345501
0.037119135 -0.011520788 1.1782621 5871590
0.045537833 -0.010494284 1.1780766 5871847
0.055693872 -0.0076655224 1.1798228 5543139
0.062910385 -0.0061341152 1.179937 5280225
0.087425753 -0.0047732964 1.1811432 5411294
0.093305223 -0.0059128031 1.178503 5279196
0.064787634 -0.00096356124 1.1775137 5411556
0.074270792 0.0012513623 1.1772842 5412066
0.085537173 0.0018689111 1.1770506 5477344
0.09242136 -1.3910234e-005 1.1769514 5213404
0.0064837383 -0.18703687 1.1902571 3105189
-0.014299165 -0.17968088 1.1915245 3039906
-0.0044886852 -0.18127272 1.1917908 3039908
0.0051310649 -0.18187332 1.1935186 3105447
0.015628576 -0.18056718 1.1907024 3105702
0.02461325 -0.17883766 1.189742 3171750
0.033561327 -0.17793347 1.1895484 3237289
0.044904441 -0.17545003 1.1892772 3237548
0.055112638 -0.17489047 1.1890655 3171752
0.064186595 -0.1743931 1.1888772 3171752
-0.042554602 -0.16977701 1.1908891 3039909
-0.034660619 -0.17006037 1.1916283 3105701
-0.02633952 -0.17222743 1.1931636 3105443
-0.016430758 -0.17705876 1.1945169 3040163
0.014246264 -0.17446405 1.193863 3105960
0.025565319 -0.17272744 1.1936067 3105958
0.034548622 -0.17073616 1.1925912 3237545
0.044849146 -0.1691291 1.1912622 3237547
0.054847952 -0.16827691 1.1905435 3237544
0.064884126 -0.16749772 1.1904151 3237545
0.073392376 -0.16505903 1.1891826 3303339
-0.054303221 -0.160978 1.1909504 3172009
-0.045673329 -0.16362976 1.1932327 3105961
-0.036199689 -0.16530025 1.194679 3171752
0.047809813 -0.16212231 1.1929641 3303337
0.054638099 -0.16174804 1.1928225 3303593
0.064664103 -0.16022004 1.1925956 3303594
0.073687285 -0.15712997 1.1911079 3303596
0.080360658 -0.15530322 1.1881902 3238062
-0.062145323 -0.15287507 1.1909484 3434409
-0.056260847 -0.15426639 1.193684 3237547
-0.047782101 -0.15615435 1.1947304 3237805
0.074269846 -0.14976409 1.1922046 3238318
0.08336743 -0.14634894 1.1908392 3238572
0.093429588 -0.14561325 1.1889464 3434926
0.099862322 -0.14467753 1.1876012 3369134
-0.064955696 -0.14396246 1.1920629 3435179
-0.058865651 -0.14559942 1.1943002 3369388
0.087648898 -0.13939121 1.191741 3500977
0.093046501 -0.1355698 1.1905606 3435186
0.098437414 -0.13535058 1.1874492 3500720
-0.074053265 -0.13370839 1.191813 3566511
-0.068169095 -0.1362384 1.1934134 3566767
-0.060799733 -0.13839595 1.1946437 3500977
0.094097309 -0.1278598 1.1908913 3501234
0.10178433 -0.12504351 1.1879345 3501490
-0.08437717 -0.12110014 1.1907724 3566770
-0.077324569 -0.12525573 1.1933148 3632306
-0.070406616 -0.12979035 1.1946667 3632563
0.10314183 -0.11625976 1.1895771 3699127
0.11046039 -0.11460831 1.1872828 3633076
-0.08587192 -0.11556781 1.1916955 3566770
-0.079768479 -0.1160784 1.1945863 3763892
0.1035613 -0.10712713 1.1908048 3633335
0.11005818 -0.10461819 1.1881832 3764407
-0.086523503 -0.10547688 1.1933141 3698868
-0.082129441 -0.10582679 1.1944348 3699126
0.10347081 -0.095146112 1.1905752 3962811
0.10998135 -0.094899036 1.1892753 3830969
0.11764986 -0.094748616 1.186287 3830714
-0.088280588 -0.095637999 1.1912811 3699126
-0.082933687 -0.09585084 1.194258 3830712
0.11014264 -0.084926188 1.1896465 4028606
0.11822964 -0.084639989 1.1860805 3962300
-0.088210642 -0.086123548 1.1917732 3830970
-0.083288208 -0.085487857 1.1940649 3962813
0.10992659 -0.075856417 1.1900758 4291522
0.11770076 -0.075083293 1.1862701 4094399
-0.089064173 -0.076085739 1.1917105 3962044
-0.084133796 -0.076075882 1.1938998 4093630
0.11091065 -0.065048337 1.1895809 4554438
0.11571603 -0.065599263 1.1857623 4357059
-0.089002319 -0.066032112 1.191134 4093886
-0.084418818 -0.065002427 1.1936916 4291009
0.10848795 -0.054633725 1.1888051 4686026
0.1144508 -0.054454073 1.185572 4685769
-0.087820277 -0.058714941 1.1896356 4159935
-0.082906745 -0.055921674 1.1923432 4225985
0.10070709 -0.045070618 1.1896628 5015248
0.10680182 -0.046061236 1.1868943 5014991
-0.080451295 -0.045969132 1.191363 4292037
-0.074929066 -0.047848657 1.1931735 4619977
-0.052544989 -0.039772581 1.192577 5279449
-0.044578657 -0.039335921 1.1924118 5016538
-0.031997323 -0.039787825 1.1921729 4950743
-0.0223989 -0.040940415 1.1920062 4950488
-0.013325472 -0.040286392 1.191815 5147351
-0.0029457146 -0.038766176 1.1915814 5278422
0.0077152676 -0.040515654 1.190516 5212886
0.016997699 -0.039359014 1.1894495 5278423
0.026917409 -0.037967674 1.1897277 5147094
0.037847415 -0.037753232 1.1907588 4885460
0.047221176 -0.035746612 1.189808 4950741
0.056302581 -0.03471953 1.1903369 5016279
0.098649286 -0.03534225 1.188115 5212370
0.1060453 -0.036142625 1.1853839 5212369
-0.078759104 -0.038901825 1.1910754 4423370
-0.076873235 -0.035606429 1.1905745 4554187
-0.052361108 -0.034738053 1.1922095 5147610
-0.042593706 -0.033503983 1.1902593 5081818
-0.033377778 -0.035276622 1.1901122 5016538
-0.022322368 -0.033229657 1.1899885 5278938
-0.013265097 -0.03212592 1.1897889 5344730
-0.0027853912 -0.032450564 1.1885219 5673948
0.0075262473 -0.034147665 1.1872846 5805277
0.016600201 -0.03365029 1.1870964 5541848
0.026745796 -0.031956457 1.1868639 5475544
0.036828786 -0.029128373 1.1866109 5213397
0.04751372 -0.029153705 1.1871072 5082070
0.05717852 -0.027810335 1.1885858 5016536
0.066013582 -0.025120266 1.1899605 5213915
0.076689914 -0.023556627 1.1897202 5279453
0.087640278 -0.02341301 1.1895019 5213659
0.097190857 -0.025842376 1.1877602 5212628
0.10374921 -0.025460266 1.1852229 5146833
-0.076908648 -0.029674143 1.1888602 4554443
-0.051828586 -0.026479095 1.1883048 5016281
-0.044519339 -0.026988611 1.1881708 5147611
-0.013390965 -0.026192546 1.1875427 5411294
0.057059854 -0.017780088 1.1859936 5148123
0.065771684 -0.017303497 1.186013 5213915
0.075833559 -0.016954027 1.1873479 5213917
0.086579412 -0.016288571 1.1877004 5213659
0.094627842 -0.017618582 1.1855844 5212887
0.086930752 -0.0093165189 1.1852422 5279708
0.091467731 -0.0090678334 1.1851481 5411037
-0.010667772 -0.17739561 1.1994119 3106213
-0.0049537653 -0.17708242 1.1992934 3105959
0.0063470276 -0.177118 1.1990716 3105706
0.016759453 -0.17589223 1.198843 3105960
-0.021902826 -0.1711337 1.1995121 3105700
-0.014402368 -0.17196107 1.2001308 3105957
-0.0052552084 -0.17145967 1.199941 3106216
0.0050611859 -0.17099983 1.2005794 3106217
0.015653037 -0.16990632 1.2001784 3171752
0.023503598 -0.16898736 1.1996683 3303337
0.034539677 -0.16574731 1.1982971 3369130
0.04139648 -0.16537148 1.1981549 3369132
-0.035095032 -0.16062275 1.1999023 3171753
-0.025256734 -0.16245896 1.2021317 3171752
-0.014924954 -0.16213849 1.204003 3172010
-0.0056661265 -0.16289547 1.2047857 3172012
0.004347641 -0.16191652 1.2053654 3237802
0.014948228 -0.16064207 1.2045865 3303338
0.024142142 -0.16016269 1.2045964 3369133
0.034392864 -0.15939659 1.2026591 3369388
0.044478774 -0.15851957 1.2017529 3303853
0.053643785 -0.15687598 1.1995006 3369643
0.063660212 -0.15554693 1.1977624 3303851
-0.053448528 -0.14993702 1.1997238 3303598
-0.045163419 -0.1522848 1.201321 3303341
-0.036449838 -0.15349235 1.2046027 3303340
-0.026985012 -0.15436776 1.2072915 3369132
-0.018723678 -0.15580317 1.2071567 3303600
0.014638121 -0.1539745 1.2064646 3303598
0.027292598 -0.15328087 1.2062021 3435186
0.034770243 -0.152871 1.2060471 3369391
0.044548701 -0.152335 1.2058443 3369392
0.054172289 -0.14889848 1.2049729 3369390
0.063595071 -0.14737138 1.201172 3435184
0.072801284 -0.14530945 1.1971494 3369392
-0.054769449 -0.14298168 1.2004158 3369646
-0.047427516 -0.14482288 1.2051086 3303853
-0.039938956 -0.14773469 1.2074184 3173034
0.055673312 -0.14064761 1.2053996 3566773
0.063759997 -0.13890427 1.2045399 3566516
0.073393166 -0.13653994 1.2013701 3500977
0.083275773 -0.13669753 1.1984619 3500975
-0.065595262 -0.13160715 1.1996089 3632562
-0.056503117 -0.13413775 1.2024801 3501236
-0.048901886 -0.13382332 1.2068816 3501494
0.075186744 -0.12728876 1.2047576 3698612
0.082712635 -0.12725514 1.2022443 3567283
0.091371782 -0.12438024 1.1993142 3567283
0.098551467 -0.12097219 1.1961727 3501747
-0.073310204 -0.12236843 1.1995825 3895478
-0.067548111 -0.12455281 1.2020122 3698613
-0.058539338 -0.12494688 1.2060107 3633080
0.076259658 -0.12059493 1.2046072 3699128
0.082632303 -0.11705015 1.2044133 3830713
