# .PCD v0.7 - Point Cloud Data file format
VERSION 0.7
FIELDS x y z rgba
SIZE 4 4 4 4
TYPE F F F U
COUNT 1 1 1 1
WIDTH 1131
HEIGHT 1
VIEWPOINT 0 0 0 1 0 0 0
POINTS 1131
DATA ascii
0.16339403 -0.08366926 1.0884203 2843043
-0.13731471 -0.08842361 1.0938888 3301299
-0.12081368 -0.16544667 1.1075225 4750553
-0.11701182 -0.16743533 1.1094784 1196192
-0.12326878 -0.1583828 1.1041821 3036848
-0.11912324 -0.1603144 1.1093296 1789334
0.16431105 -0.14264518 1.0986102 12898004
-0.12271574 -0.14741397 1.1052728 2776475
0.16433243 -0.13356823 1.0972458 9087435
0.16981335 -0.12875283 1.0935546 13488846
-0.12549223 -0.13680756 1.1048186 3038106
0.16363676 -0.12297074 1.095957 4354994
0.17130843 -0.12069794 1.0932807 13752800
-0.12780015 -0.12716222 1.1060476 2973083
0.16315448 -0.11318943 1.0965952 2121388
-0.13341516 -0.11399563 1.1013709 3301280
-0.12969691 -0.11867124 1.1050445 3039132
0.16342832 -0.10516739 1.0942127 2646946
0.17942646 -0.099093042 1.0954366 13817039
-0.13372393 -0.10770846 1.1011972 3366820
-0.13102351 -0.10790686 1.1061335 3105183
0.16129801 -0.092914872 1.0974519 3631271
0.18037398 -0.096940845 1.0953485 13817037
-0.13427286 -0.096531279 1.1008884 3499424
-0.13143189 -0.097309113 1.1046367 3302563
0.1604407 -0.082717478 1.0964204 3369127
-0.13186945 -0.087829076 1.1040738 3434147
0.16190936 -0.073027588 1.0970685 2908578
0.16747434 -0.070180789 1.0949241 8233160
-0.13711473 -0.076993123 1.1012576 3365295
-0.13166134 -0.07785964 1.1041257 3499689
0.1622232 -0.06343399 1.0965198 4024485
0.16706152 -0.06177507 1.0946919 11192030
-0.13596044 -0.067991987 1.1031101 2181536
-0.13071531 -0.067563355 1.104156 3433908
0.16124953 -0.057976581 1.0987431 2708114
-0.13464028 -0.059590261 1.1068341 8233201
-0.13081107 -0.060572378 1.1050427 3564980
0.0029102862 0.11896747 1.0939195 9935247
0.0085699987 0.12014368 1.0937316 9934992
-0.11072814 -0.17581163 1.1182493 929696
-0.10647053 -0.17589583 1.1204455 1984411
0.15530768 -0.15897623 1.1128386 13424882
-0.11227025 -0.16637895 1.1157238 2512540
-0.10747297 -0.16795704 1.1189084 2906513
0.15627255 -0.15306932 1.1101949 8955594
0.16175643 -0.15155801 1.1064436 14080986
-0.12008706 -0.15264545 1.1161391 2381461
-0.11667156 -0.15761238 1.1181291 2776212
0.15598743 -0.14350849 1.1086892 3697834
-0.12080105 -0.14673102 1.1168212 2841752
-0.11837569 -0.150851 1.1200438 2906774
0.1573655 -0.13350394 1.1088424 2646183
-0.12317722 -0.13624755 1.1176068 2907034
-0.11889872 -0.14020123 1.1197494 2775704
0.15754326 -0.12472336 1.109684 3696546
0.15935676 -0.12011144 1.108934 3761571
-0.1246963 -0.12690072 1.1159635 2973083
0.16071562 -0.11395909 1.1080518 3368880
-0.12630416 -0.11677702 1.1151692 3039134
0.16043162 -0.10236615 1.1073295 3500454
-0.12700158 -0.1063609 1.1145861 3171232
0.1589755 -0.093963161 1.1081394 3631529
-0.12800704 -0.097652793 1.1136607 3302564
0.1568457 -0.083782844 1.1036134 3697839
0.15735601 -0.083926931 1.106606 3763633
-0.12859565 -0.087095983 1.1141716 3368355
0.15736146 -0.072670206 1.1059939 3436468
0.171483 -0.068352602 1.1057709 10992842
-0.12677091 -0.076582097 1.1138175 3697068
0.15470347 -0.059727486 1.1099803 3765679
0.15789118 -0.062208448 1.1051437 3830452
0.1709208 -0.064124994 1.1056638 11387079
-0.12611538 -0.068829283 1.1113733 3631022
-0.12411357 -0.065534323 1.1107231 3500456
0.15365066 -0.052936133 1.1069211 3830449
0.16031362 -0.053176414 1.1042655 5207985
0.16698399 -0.05375459 1.1081392 10334913
-0.12688601 -0.056776039 1.1131183 3434161
0.15234706 -0.044067845 1.1064456 3893939
0.15943258 -0.044231851 1.1054554 8428221
-0.12753619 -0.046670843 1.1164174 6194370
-0.12307346 -0.044327546 1.1170861 4421311
0.14968625 -0.032304551 1.1082307 5734064
0.15618911 -0.035636842 1.1092422 10203587
-0.12206912 -0.037607107 1.1168641 6852289
0.14785579 -0.026524968 1.1060023 8955077
0.011447486 0.096678302 1.1093448 9737616
-0.078118399 -0.21071526 1.1290232 7635861
-0.074642345 -0.21096669 1.1316047 8100012
-0.088775277 -0.20122907 1.1317068 10535920
-0.08169131 -0.20363058 1.1292291 5996227
-0.074818403 -0.2073819 1.1315056 6394567
-0.099527478 -0.19092575 1.1236944 8431615
-0.092343852 -0.19294801 1.1263292 1526185
-0.085941896 -0.19492063 1.1303034 1262491
0.1373459 -0.18131924 1.1249827 11717846
-0.10848974 -0.18279591 1.1237025 7571711
-0.10136309 -0.18467943 1.1251202 1917611
-0.094169572 -0.18675053 1.1287653 2379673
-0.08720535 -0.18929532 1.1313186 2644619
0.13859643 -0.17438021 1.1247478 5010097
0.14565897 -0.17115855 1.1213171 10599906
0.15266845 -0.16963211 1.1202246 14081762
-0.10178921 -0.17578906 1.1275313 2709143
0.13911797 -0.16374624 1.1244255 2909858
0.14563121 -0.16306153 1.1204076 4026283
0.15312661 -0.16299354 1.1165171 12307424
-0.10948615 -0.16250715 1.123142 2775446
-0.10482438 -0.16641858 1.12604 2775442
0.14646386 -0.15404394 1.1209425 3105445
0.15122464 -0.15312023 1.1157824 2578854
-0.11181016 -0.1553548 1.1251537 2775449
-0.10735942 -0.15742278 1.1296089 2906778
0.14834796 -0.14410585 1.1220045 3564451
0.15153959 -0.14308345 1.117885 3433893
-0.11605187 -0.14684322 1.1261636 2840984
0.14948454 -0.13581648 1.1233348 3565217
0.15301201 -0.13367489 1.1178393 3499430
-0.1215281 -0.13525957 1.1226802 2841497
-0.1182992 -0.13671727 1.1286395 2907290
0.15482728 -0.12289166 1.1198128 3237547
-0.12212789 -0.12578036 1.1240232 2973083
-0.11925584 -0.12600267 1.1283551 3038877
0.15747231 -0.1130374 1.1206383 3827369
0.15991025 -0.11202669 1.114356 3564710
-0.12363888 -0.11584166 1.1250346 3039391
-0.12080532 -0.11751528 1.1288185 3170977
0.15724112 -0.1029571 1.1201706 3565735
0.1594907 -0.10348406 1.11412 3500198
-0.12410839 -0.10760657 1.1269534 3170977
0.15704796 -0.093959033 1.119248 3631790
0.15828484 -0.09550564 1.121928 3434923
-0.1248078 -0.097106129 1.1256675 3302823
0.15615524 -0.08253587 1.1191083 3566513
-0.12530351 -0.087157264 1.1240584 3368614
0.15479887 -0.073336519 1.1189172 3632560
-0.12514216 -0.079400286 1.1251637 3565995
0.15306915 -0.063278668 1.1174001 3895728
-0.1229057 -0.064187139 1.1262636 3697842
0.15020606 -0.05349201 1.1157267 4158132
-0.121687 -0.055851642 1.1247517 3502262
0.14858627 -0.042860169 1.1166637 4027837
-0.11952786 -0.046241321 1.1238283 3698611
0.1432859 -0.031551074 1.1204834 4619197
0.1490844 -0.034526121 1.1148691 4946612
-0.12619552 -0.040222727 1.1200545 7180220
-0.11857089 -0.036654733 1.1269495 4815032
0.142865 -0.025102831 1.1196408 5209534
0.14729738 -0.02333723 1.11213 8425655
0.012842761 0.092798799 1.1124216 9474444
-0.050470795 -0.21947807 1.1381996 8300241
-0.069159031 -0.21228008 1.1348599 7642055
-0.0615873 -0.21251309 1.1367989 4815810
-0.054628629 -0.21558826 1.1381999 5210825
-0.078878105 -0.20083664 1.1344287 932767
-0.071704417 -0.20389019 1.1360078 2382238
-0.062887445 -0.20644233 1.1381595 2251168
0.12018964 -0.19434172 1.1328318 6518691
0.12592898 -0.19307694 1.1312095 11319227
-0.080882996 -0.19413507 1.1361573 2447513
-0.075268894 -0.19727865 1.1382307 2513045
0.12737741 -0.18476759 1.1313057 4617903
0.13433148 -0.18452924 1.1281601 10929103
-0.090877369 -0.18359366 1.1357113 2971544
-0.084774882 -0.18705189 1.1361914 2774929
0.1289757 -0.17543218 1.1303773 2909086
0.13376437 -0.1743159 1.1278796 3105187
-0.099086747 -0.17082885 1.134109 2709911
-0.094160363 -0.17558947 1.1364678 2644371
0.13481605 -0.16442475 1.1281804 3368356
-0.10168914 -0.1642841 1.1358098 2775444
-0.096501887 -0.16813686 1.1366296 2709910
0.13877201 -0.15433231 1.1287659 3368613
0.14278339 -0.15121502 1.1269654 3499683
-0.10532664 -0.15589175 1.1353472 2841497
0.14026798 -0.14673109 1.1309069 3237027
0.14478476 -0.14387485 1.1280327 3302821
-0.11184204 -0.14463232 1.1342689 2645144
-0.10820864 -0.14611425 1.1367548 2775964
0.14743564 -0.13378122 1.1285174 3237542
0.15131904 -0.13003452 1.1274542 3106215
-0.11405776 -0.13630939 1.1349719 2907291
0.14835176 -0.12416367 1.1286992 3499683
0.15131043 -0.12208057 1.1270335 3303338
-0.11550274 -0.1264194 1.1356709 3039134
0.15251362 -0.11351697 1.1270218 3499947
-0.12140878 -0.11246082 1.1330253 3236770
-0.11895192 -0.11654353 1.1364127 3236770
0.15373835 -0.10293078 1.1270887 3500458
-0.12172653 -0.10599108 1.1328466 3237027
-0.1198771 -0.10615338 1.1368041 3302821
0.15559685 -0.092270903 1.1271973 3632048
-0.12220313 -0.096286483 1.1325785 3302824
-0.12032881 -0.096955597 1.1365499 3302569
0.15343307 -0.083482295 1.1268976 3632047
-0.12307931 -0.087249689 1.1323406 3434408
-0.12031405 -0.084636234 1.1361928 3434665
0.14949396 -0.072627082 1.1263263 4026292
-0.12315635 -0.076877266 1.1320422 3631531
-0.12136512 -0.075854793 1.135967 3631531
0.1491722 -0.064695992 1.1247305 4157366
-0.12347409 -0.07040754 1.1318635 4025255
-0.12051767 -0.065074779 1.1339161 3632304
0.14804617 -0.052963793 1.1239766 4289211
-0.11751887 -0.05594648 1.1329983 3568048
0.14438502 -0.042345565 1.1244357 4094399
0.14696413 -0.046574853 1.1258224 4224702
-0.11655505 -0.049897358 1.1310813 3764911
-0.11326365 -0.045351084 1.1333621 3895729
0.14144079 -0.0340381 1.1250637 4487616
-0.11857374 -0.031792082 1.1336141 6458567
-0.11347698 -0.035338104 1.1329777 3895996
0.14080073 -0.023052059 1.1237074 5735616
0.1474828 -0.019484714 1.1230222 9477559
-0.11823975 -0.029063344 1.1345267 6852289
-0.11499344 -0.028906479 1.134434 5933254
0.046377152 0.080471978 1.1228757 9474701
-0.0129258 -0.22779167 1.1494292 7248329
0.019926865 -0.22781914 1.1477362 5801654
0.027867496 -0.22631989 1.1469431 5210039
0.040710192 -0.22629598 1.1479276 6328255
0.048364803 -0.2259261 1.1477089 7379645
0.059901509 -0.22524685 1.1473756 8430007
0.067644909 -0.22320822 1.1431028 8625323
-0.051388618 -0.22173917 1.1422932 9678537
-0.040402591 -0.2210298 1.1485054 4422071
-0.031005949 -0.22121184 1.1497301 2778029
-0.02116904 -0.2225529 1.1495016 2513574
-0.013433516 -0.22489324 1.149359 2315684
0.016491726 -0.22417794 1.1485248 2120102
0.028520402 -0.22359669 1.1481808 2185635
0.041588895 -0.2218691 1.1477755 2186146
0.047110174 -0.22269841 1.1476495 2316696
0.062311992 -0.21977162 1.1471515 4486314
0.06978704 -0.21907043 1.1449263 5997746
0.080797248 -0.21555276 1.1453829 6063288
0.089413613 -0.2136392 1.146237 6589614
0.097516358 -0.21346688 1.1460117 8757678
-0.057404798 -0.21005669 1.1421183 1855898
-0.050482672 -0.21214347 1.1452312 2249885
-0.042588223 -0.21396245 1.1491072 2381985
-0.034347046 -0.21567358 1.1496606 3039902
0.083125368 -0.20835295 1.1462549 2841504
0.089112863 -0.2075156 1.1460679 3302564
0.098517656 -0.20484065 1.1444002 4420011
0.10814579 -0.20366263 1.13972 6984117
0.11737323 -0.20052262 1.1370907 6254993
-0.069028407 -0.20006798 1.1429456 2710418
-0.061056707 -0.20285043 1.1463933 2775447
-0.054157641 -0.20467024 1.1490798 2906776
0.10060032 -0.196815 1.1450453 3171492
0.10895477 -0.19511384 1.1419666 3237285
0.11710456 -0.19362162 1.13747 3629215
-0.072143555 -0.19315359 1.1468333 2775191
-0.063779444 -0.19617398 1.1492287 2906012
0.11049968 -0.18578428 1.143189 3040421
0.11725852 -0.1838669 1.1395611 3105703
0.12308872 -0.18391933 1.1364543 2777257
-0.088270918 -0.17998245 1.1420865 2710677
-0.081228346 -0.18343249 1.1455271 2709909
-0.074776143 -0.18666382 1.1479179 2709910
0.11809495 -0.17534167 1.1428732 3368100
0.12545669 -0.17327082 1.1382166 3302561
-0.08973372 -0.17341772 1.1450496 2710421
-0.08470501 -0.17591614 1.1490774 2644886
0.11980927 -0.16744962 1.1440728 3040936
0.12763135 -0.1640279 1.1416725 3237031
0.1338051 -0.16090673 1.1384988 3368615
-0.10008994 -0.16096106 1.1418568 2776209
-0.09431757 -0.16503583 1.1465716 2841240
0.12930155 -0.15539666 1.1434656 3237287
0.13549937 -0.15301098 1.1380811 3302822
-0.10129207 -0.15423623 1.1462317 2710683
-0.096366063 -0.15721586 1.1489862 2841499
0.13741539 -0.14442389 1.140337 3237541
0.14214331 -0.14158362 1.1363114 3237798
-0.10382056 -0.14577913 1.1466655 2907293
0.13873821 -0.13551535 1.1426333 3237797
0.14320426 -0.13289236 1.1374319 3303334
-0.11080118 -0.13452035 1.1425259 2907805
-0.10836086 -0.1358726 1.1485608 2907805
0.14465235 -0.12338118 1.1396747 3434407
-0.11171447 -0.12520774 1.1438061 3039392
-0.10889688 -0.1261076 1.1490932 3039391
0.14612025 -0.11373349 1.1392282 3500202
0.14997441 -0.11078092 1.133605 3631274
-0.11525814 -0.11615254 1.1455083 3170979
0.14762363 -0.10332656 1.1410146 3631791
0.15082601 -0.1027621 1.1351289 3566510
-0.11613707 -0.10580422 1.1464143 3105957
0.14622436 -0.092305027 1.1395102 3632305
0.15134603 -0.093321003 1.1333957 3501227
-0.11707167 -0.095878802 1.1438648 3237546
0.1452989 -0.083295643 1.138395 3698099
0.14979042 -0.083598197 1.1332231 3698094
-0.11692101 -0.086108983 1.143816 3434923
0.14609344 -0.073960915 1.1386489 3895479
0.14826784 -0.076032244 1.132645 3895477
-0.11703855 -0.075631931 1.1441352 3566256
0.14583395 -0.062625036 1.1396619 4027579
0.14820522 -0.062026221 1.1362442 4157882
-0.11650273 -0.066709958 1.1431054 3567024
0.14331582 -0.053215429 1.1389476 4159422
0.14752562 -0.05328111 1.1344081 4289724
-0.11473361 -0.056840371 1.1405735 3567791
-0.11158493 -0.054605376 1.1457608 3764403
0.14107604 -0.043319333 1.1372305 4356797
-0.11044991 -0.045776319 1.1393741 3830196
0.13792226 -0.03390713 1.1361096 4619718
-0.10945022 -0.034753282 1.1413672 3896507
0.13326788 -0.022216327 1.1363868 4817095
0.13772923 -0.022667482 1.1330538 4948420
-0.11746691 -0.02592957 1.1424212 6916535
-0.10997175 -0.026106596 1.1419147 5210049
0.13216659 -0.015814871 1.138344 5013440
0.13653669 -0.015250698 1.1358738 5998788
0.028254125 0.053183541 1.1350245 5859448
0.036384813 0.053602576 1.1329327 6122362
0.042011257 0.054086015 1.1357681 6319482
0.053152721 0.056002587 1.1394129 5330522
0.0285757 0.057607725 1.1333627 5792108
0.036333237 0.058813721 1.132583 5527648
0.041797191 0.058444813 1.1356477 5067354
-0.0071104672 -0.22740027 1.152262 4354997
0.00034226663 -0.22801317 1.1540787 4684224
0.010170138 -0.22728419 1.1523226 4289976
0.021004949 -0.22447173 1.1514128 2054307
0.031447373 -0.2245166 1.1511302 2777510
0.036983058 -0.22534809 1.1510038 4026798
0.053428587 -0.22455341 1.1505337 5604271
0.057185113 -0.22272344 1.1503786 4881326
-0.026569653 -0.21797895 1.1525182 3039902
-0.018573802 -0.21849734 1.1528162 2710943
-0.0099483263 -0.21991362 1.1554292 2645152
0.0001460053 -0.22219336 1.1585859 2514339
0.010052329 -0.2216257 1.1577663 2514851
0.019790504 -0.21868989 1.155882 2842787
0.02958025 -0.21785358 1.1533899 2908579
0.039230675 -0.21697848 1.1535915 3039651
0.049473867 -0.21715644 1.1544302 2908578
0.05876008 -0.21584204 1.1538894 2778020
0.068632089 -0.21376632 1.1512376 2646433
0.078286111 -0.21602586 1.1496109 5012145
0.089860797 -0.21674865 1.1493171 8955830
-0.03998594 -0.21019344 1.1529434 2841242
-0.030000854 -0.2117288 1.1547656 2775960
-0.020891055 -0.21251145 1.1564754 2841500
-0.011289855 -0.21411824 1.1599972 2907551
0.020321302 -0.21185303 1.1590723 3105184
0.029503029 -0.2110405 1.1587991 3170722
0.039438806 -0.21056037 1.1585151 3302053
0.049531475 -0.2095194 1.1582105 3170723
0.059974063 -0.20809263 1.1578853 3105188
0.069206297 -0.20689973 1.1558841 3170467
0.078682497 -0.20633939 1.1517215 3236258
0.088590503 -0.20246969 1.1493829 3171236
-0.057140794 -0.19967496 1.1528192 2906776
-0.050479483 -0.2015596 1.1538364 2907033
-0.041893981 -0.20202863 1.15731 2841497
-0.032367289 -0.20554636 1.160322 2775704
0.0699706 -0.20133893 1.1574179 3105443
0.078802407 -0.20091216 1.1571654 3105443
0.089363962 -0.19671592 1.1554927 3105956
0.097480774 -0.19354822 1.1516407 3105956
-0.068642914 -0.18924117 1.1528296 2644884
-0.06132805 -0.19237603 1.1557239 2775705
-0.052756485 -0.19476297 1.1582288 2841497
0.092611924 -0.18917903 1.1564502 3172006
0.10011399 -0.18646005 1.1551667 3040421
0.10578497 -0.18390334 1.1524365 2974628
-0.07784462 -0.18089417 1.152838 2645144
-0.071042255 -0.18225065 1.1557536 2710425
-0.065572679 -0.18466818 1.1571888 2776216
0.10883041 -0.17510259 1.152349 3171493
0.11360684 -0.17272642 1.1489978 3237026
-0.081201553 -0.172961 1.1552898 2710424
-0.074626103 -0.1747451 1.1591231 2710937
0.11150756 -0.16834748 1.1553332 3302823
0.11754304 -0.16405454 1.1518843 3172005
0.12315314 -0.16066355 1.1507908 3172006
-0.09049046 -0.1620903 1.1526371 2841498
-0.085844964 -0.16425237 1.1575005 2907290
0.1197972 -0.15688109 1.1547756 3303592
0.12583378 -0.15324134 1.1531718 3237544
0.13158128 -0.14879517 1.1462147 3303337
-0.092621043 -0.15368167 1.1541672 2973342
-0.087713301 -0.15639582 1.160403 3038879
0.12909733 -0.14529529 1.15352 3237544
0.13317981 -0.1421915 1.1487823 3303336
-0.10122038 -0.14255467 1.1533638 2973342
-0.094886914 -0.14529142 1.1577744 2973600
0.13616906 -0.1328811 1.1496322 3368872
-0.10314508 -0.1347411 1.1545439 3039392
-0.097531259 -0.13513379 1.1600541 3236259
0.13705264 -0.1233424 1.1510834 3500460
0.14119886 -0.12085649 1.1451441 3434923
-0.10470179 -0.12515092 1.1548448 3170978
0.13767993 -0.11435058 1.1517233 3500719
0.14215414 -0.11172403 1.1481895 3500718
-0.11188126 -0.1144035 1.1518375 3237029
-0.10784426 -0.1154142 1.1577618 3237286
0.14213248 -0.10278452 1.1507053 3697329
-0.112312 -0.10563265 1.1515951 3237543
-0.10957459 -0.10485758 1.1590042 3172263
0.14288838 -0.093643337 1.1499144 3697843
-0.11300543 -0.095938563 1.1543356 3303340
-0.11085023 -0.094623052 1.1592429 3303852
0.14216165 -0.083213389 1.1500324 3764149
-0.11362872 -0.086281352 1.1510705 3500716
-0.11076508 -0.0845543 1.1589489 3501229
0.14454792 -0.072692543 1.1482331 3764661
-0.1136581 -0.07822375 1.1508379 3566512
-0.11054109 -0.0745278 1.1550132 3632306
0.14106762 -0.06264694 1.1479357 3896764
-0.11041205 -0.064893231 1.1547307 3698357
0.13465941 -0.052847508 1.1500239 4291265
0.13839449 -0.053989358 1.1444273 4225217
-0.10925508 -0.055832438 1.1540729 3764408
0.13495174 -0.043241095 1.1490706 4554434
0.13737597 -0.043015219 1.1429933 4488640
-0.10680752 -0.044971317 1.1544924 3895997
-0.10276282 -0.041485138 1.1574839 4027323
0.13400407 -0.032508172 1.1477847 4817354
-0.10582845 -0.035478305 1.1507213 3962044
-0.10175797 -0.033913333 1.1564367 4093118
0.12416822 -0.020560183 1.1507084 5014224
0.12957895 -0.023143627 1.146633 4751563
-0.10527892 -0.025068887 1.1490705 4290235
-0.10028796 -0.024574161 1.1534574 4158908
-0.094134793 -0.021887451 1.1566818 4028609
0.12211351 -0.013664626 1.1487854 4817874
0.12863134 -0.013208814 1.1433686 5145287
-0.098291516 -0.017883405 1.1510744 4487616
-0.092934221 -0.0148414 1.1551106 4356800
0.11265357 -0.0016031489 1.1484708 5276623
0.11903198 -0.0044118762 1.1446615 5604813
0.12844305 -0.0052140057 1.143031 6720449
-0.091141641 -0.0077261031 1.1561902 5671109
0.11056308 0.003905125 1.1497978 5802961
0.11684708 0.0033260882 1.1455452 6787017
0.033844117 0.016018763 1.1521045 12972031
-0.021862756 0.023192771 1.1514096 5869264
0.01072139 0.021172069 1.1525838 7515376
0.018221965 0.021165639 1.1523801 8764660
0.027835976 0.021187589 1.1521181 10146554
0.03451043 0.020477287 1.1519573 10870005
-0.080070794 0.028532863 1.1468327 8028800
-0.074972361 0.029145546 1.1466763 7305855
-0.017480936 0.02460447 1.1532512 5671370
-0.014169011 0.024764508 1.1531565 5869265
0.0090144807 0.025884785 1.1524938 6988787
0.013430383 0.026098162 1.1523676 7185904
0.099106759 0.039090857 1.149662 6314850
-0.073999465 0.03419891 1.1465034 8028802
0.095842123 0.04247418 1.1496527 6117979
0.071187221 0.051593646 1.1420525 5593178
0.073379964 0.051699609 1.1419898 5658970
-0.0055691451 -0.21669935 1.1639197 2973083
2.4156645e-005 -0.21753946 1.163792 2973595
0.0094353873 -0.21663561 1.1641772 2973598
-0.02605322 -0.20658523 1.1641836 2842012
-0.019615479 -0.20766215 1.1640399 2776219
-0.010125818 -0.20964393 1.1653643 2907806
-0.00043378212 -0.21051082 1.1667612 2907807
0.010139305 -0.21053608 1.1666501 2973599
0.018818829 -0.20784916 1.1636676 3039136
0.029515304 -0.20632294 1.1639997 3170723
0.039454382 -0.20574161 1.1630455 3236770
0.04919742 -0.20482811 1.162087 3170979
0.058219619 -0.20417863 1.1618229 3170980
0.064784683 -0.20219578 1.161587 3171236
-0.037566245 -0.19825839 1.1642555 2842012
-0.030717012 -0.20015463 1.1655799 2842011
-0.020979669 -0.20191699 1.166374 2842012
-0.012591682 -0.20291981 1.1677146 2907805
0.033885136 -0.20206672 1.1664264 3302309
0.039800163 -0.20065483 1.1650809 3302308
0.048397459 -0.20015568 1.1634746 3171236
0.059136983 -0.20024788 1.161684 3171236
0.069724396 -0.19831568 1.1630082 3105443
0.0794193 -0.19594127 1.1620088 3171492
0.085839048 -0.19377574 1.1607707 3040420
-0.059158091 -0.18819779 1.164551 2841497
-0.050246295 -0.19050381 1.1649094 2907291
-0.041654389 -0.1927042 1.1660895 2907549
-0.034874242 -0.19350439 1.1680477 2907551
0.082248867 -0.18858761 1.1647211 3040420
0.089112908 -0.18646532 1.1625768 3106213
0.096737117 -0.1835517 1.1601783 3106214
-0.060923044 -0.18173593 1.1664134 2907290
-0.054164317 -0.18424957 1.1678036 2973340
0.092927963 -0.17915791 1.1641576 3302823
0.098782048 -0.17655453 1.1615212 3237030
0.10475028 -0.17285174 1.1614296 3237031
-0.078969613 -0.16916801 1.1645385 2841497
-0.070400372 -0.17222168 1.1649277 2842012
-0.064113289 -0.17408767 1.1672795 2907547
0.10952757 -0.16495389 1.1602156 3368361
0.11441948 -0.16148868 1.1590586 3237285
-0.080736816 -0.1633313 1.1644175 2973085
-0.073881194 -0.1631494 1.1669648 3039135
0.11145961 -0.15774533 1.1590306 3368615
0.11783049 -0.15408438 1.1594791 3237799
0.12221098 -0.15056343 1.1585302 3303337
-0.088756725 -0.15076423 1.1642715 2973857
-0.083120808 -0.15398172 1.1657683 3039137
-0.077087253 -0.15450422 1.1680657 3104930
0.11948331 -0.14646336 1.1604872 3172264
0.12551859 -0.14331573 1.1588976 3238059
-0.090321302 -0.14260337 1.1650785 3039650
-0.086088642 -0.14591411 1.1680616 3105700
0.12831496 -0.13338815 1.1600224 3369132
0.13247271 -0.13341165 1.1577545 3434410
-0.093473777 -0.13416603 1.1656346 3171236
0.12983391 -0.12515718 1.1607896 3500719
0.13305534 -0.12272871 1.1594307 3435183
-0.10124902 -0.12249759 1.1637925 3302823
-0.096435532 -0.12417249 1.1663789 3171495
0.13331607 -0.11261565 1.1589488 3566514
-0.10337703 -0.11391804 1.1650574 3368873
-0.099598303 -0.11486469 1.166729 3368875
0.13554908 -0.10333544 1.1576004 3697588
-0.10469134 -0.1048746 1.1660444 3303850
0.13671501 -0.093599126 1.1599172 3763892
0.13980861 -0.09286084 1.1563805 3698099
-0.10656235 -0.094780713 1.1647353 3435181
-0.10062675 -0.094917364 1.1669798 3435438
0.13725196 -0.083422638 1.1601797 3829942
0.13998976 -0.082820013 1.1572286 3764149
-0.10599135 -0.085061014 1.1648386 3501229
0.13659686 -0.070083797 1.1598113 3896505
0.14106806 -0.072812885 1.1575853 3830455
-0.10589008 -0.075199954 1.1640884 3632563
-0.10177316 -0.071574405 1.1663349 3567542
0.1338204 -0.063124746 1.1571118 4027837
0.13917847 -0.06646388 1.1556331 3896505
-0.10563104 -0.065126479 1.1635842 3829940
-0.10210072 -0.06490498 1.1661506 3699127
0.13188337 -0.053562842 1.1581265 4291009
-0.10572486 -0.054996535 1.1627597 3895737
-0.10200362 -0.053917382 1.1658297 4027576
0.13166873 -0.043544702 1.1571749 4422849
-0.10489412 -0.048277237 1.1617419 4158911
-0.10054041 -0.04430946 1.1635101 4093372
0.13112122 -0.0338328 1.1564082 4817355
-0.097271189 -0.034757629 1.1626827 4093630
-0.092622608 -0.031020746 1.1649115 4094397
0.12317264 -0.023440525 1.1570461 5080014
0.12777659 -0.026485413 1.1547852 4883149
-0.095570385 -0.027099311 1.160875 4028348
-0.091156229 -0.0242851 1.1621746 4028864
0.11820248 -0.014041588 1.1564641 4949202
-0.088060752 -0.0145263 1.1621262 4029123
-0.083898738 -0.012029067 1.1641243 3963586
0.1116672 -0.0044600964 1.1572539 5146069
0.11524725 -0.0087693334 1.1546127 5080276
-0.087687418 -0.0067312717 1.1600707 5342665
-0.080572814 -0.0041260347 1.1638049 4882633
-0.017397352 0.002697885 1.1618898 6070261
-0.010727853 0.0030201674 1.1616991 6528744
-0.0040583555 0.0033424497 1.1615084 8827627
0.011503803 0.0040944442 1.1610636 10340848
0.020268861 0.003881298 1.1608315 8895736
0.027798422 0.0035447851 1.1606365 6266608
0.10200855 0.007883057 1.1574925 5475287
0.10661079 0.0045387 1.1557963 5475028
-0.077453017 0.0019652322 1.1615421 5999306
-0.070856944 0.0033943579 1.1613214 5540557
-0.062483478 0.0071181133 1.1603187 5803727
-0.049798694 0.0095506608 1.1625721 4950220
-0.04079476 0.008860305 1.1623473 5016280
-0.031065062 0.0087078139 1.1616869 5411294
-0.02108191 0.0091258138 1.159562 5806569
-0.011064628 0.0096679926 1.1609153 7120874
-0.0015110094 0.010893598 1.1612204 12379901
0.0090244692 0.0108082 1.1584083 13891069
0.018818481 0.011024006 1.1574615 12969723
0.028770709 0.011766583 1.1580544 9946095
0.038849451 0.012032963 1.1581757 10013177
0.048472293 0.014373377 1.1576053 7449069
0.055087075 0.016599737 1.1595165 5411552
0.098870739 0.011582091 1.1559695 6526426
-0.048065182 0.014586456 1.1623791 6264275
-0.040589433 0.015682831 1.1596422 5803990
-0.031098437 0.016730577 1.1578526 5345755
-0.021168575 0.018473208 1.1575322 5412839
-0.01160837 0.01954256 1.1577418 5676266
-0.0024753436 0.019126944 1.1598644 7253489
0.0073005715 0.019366384 1.1577332 8436213
0.017347133 0.017591022 1.1565107 12051453
0.031530645 0.02271799 1.1559765 10082302
0.039395221 0.022357762 1.1557732 10607102
0.047908545 0.021923125 1.1555544 7515119
0.055002704 0.021688573 1.1567026 6068200
-0.0096748061 0.025168441 1.1570258 6001365
-0.0052436888 0.025382556 1.1568992 6396124
0.10680223 0.036570892 1.153529 6447199
0.0029909592 -0.20639423 1.1713948 3039391
0.010535363 -0.20541565 1.1726625 3039135
0.021952529 -0.20547798 1.1708528 3104930
-0.026556868 -0.19664185 1.1719157 2776478
-0.020091731 -0.1971706 1.1737568 2842271
-0.010064289 -0.19826657 1.1756995 2907807
-0.00074609742 -0.19966294 1.1760008 2908063
0.009329034 -0.19999602 1.1768417 2973600
0.019573476 -0.19853063 1.1760538 3105187
0.029444501 -0.19772759 1.1748419 3236773
0.039050721 -0.19594173 1.173848 3237029
0.04998761 -0.1954971 1.1736045 3171237
0.05960872 -0.19604623 1.171057 3171236
0.069022663 -0.19404641 1.1701658 3105444
0.077759147 -0.19216011 1.1689498 3171493
-0.039080385 -0.18828115 1.1752164 2841758
-0.030858036 -0.19017097 1.1758484 2907551
-0.021830272 -0.19076426 1.1784458 2842271
-0.011070319 -0.1914015 1.1793492 2908064
-0.004277207 -0.1921989 1.1791877 2973857
0.017059669 -0.19116786 1.1785777 3105444
0.029862681 -0.18954861 1.1781827 3237030
0.039896302 -0.18950199 1.1771079 3302823
0.04950168 -0.18825918 1.1766876 3171495
0.058767639 -0.18641388 1.1759137 3105703
0.068469882 -0.18620966 1.1754351 3105703
0.078186005 -0.185294 1.1732429 3105702
0.086308971 -0.18247202 1.1701524 3105958
-0.050762143 -0.18118422 1.1737744 2973598
-0.042576268 -0.18239075 1.1779431 2907551
-0.032553878 -0.18371588 1.1797106 2908065
0.079646453 -0.17671391 1.1764575 3237288
0.088352054 -0.17564648 1.1737435 3302823
0.096821666 -0.17327519 1.1704581 3237287
-0.060672123 -0.17035213 1.1749411 3105183
-0.052966367 -0.17326668 1.1780791 2974112
-0.044519547 -0.17500751 1.1797837 2842786
0.0895769 -0.16875285 1.175957 3171750
0.09798035 -0.16477059 1.1742787 3172008
0.10583068 -0.16275403 1.1696701 3303081
-0.069319129 -0.16113997 1.1727171 3104930
-0.062825128 -0.16298351 1.1785988 3170978
0.10009231 -0.15628073 1.1753098 3303337
0.10772297 -0.1544531 1.1727977 3368873
0.11450312 -0.15290639 1.1693615 3237543
-0.079710677 -0.14878856 1.1746434 3040164
-0.072783157 -0.15218273 1.1756771 3105701
-0.06608212 -0.15616304 1.1798241 3302822
0.10891236 -0.1453056 1.1747521 3303597
0.11606681 -0.14265101 1.1701137 3238059
0.12293512 -0.13930357 1.1681923 3303852
-0.082429066 -0.14254943 1.1756487 3106213
-0.07446073 -0.14409201 1.1797023 3172007
0.11663392 -0.13343166 1.1739981 3369387
0.12444532 -0.13291956 1.1699679 3435181
-0.090139985 -0.13274364 1.1731279 3237030
-0.083426088 -0.13297382 1.1772888 3237800
-0.076825827 -0.13604537 1.1795335 3303594
0.11815894 -0.12729873 1.1739793 3500972
0.1262574 -0.12271528 1.1703737 3500976
0.13066255 -0.11972743 1.1654136 3500977
-0.091683298 -0.12350426 1.1746814 3237545
-0.086836621 -0.12482625 1.1785911 3303852
0.12766422 -0.11303151 1.1733075 3566772
0.13088909 -0.11331723 1.169225 3566515
-0.094664097 -0.11392698 1.1746241 3369389
0.12805237 -0.10347156 1.1730201 3763639
0.13123216 -0.10251652 1.1680132 3763639
-0.10216896 -0.10049406 1.1725209 3435181
-0.096536025 -0.10382292 1.1757047 3435438
0.12815043 -0.092371173 1.172696 3895737
0.13298097 -0.09216062 1.1673779 3764149
-0.10195804 -0.093972608 1.1733937 3435438
-0.096453473 -0.094226368 1.1773162 3501231
0.12787469 -0.086756274 1.1725408 3961530
0.13290955 -0.082672253 1.1671051 3961528
0.13984442 -0.079035029 1.1639855 3895735
-0.10211439 -0.0847046 1.17373 3501489
-0.097785667 -0.08419352 1.1764822 3501490
0.12699226 -0.068788588 1.1720444 4159679
0.13279541 -0.073318899 1.1672868 3962041
0.13973486 -0.07680428 1.1639239 3895735
-0.10296986 -0.077426374 1.1725416 3501747
-0.098252669 -0.073932089 1.174981 3567541
0.12593107 -0.062461205 1.17189 4225473
0.12953487 -0.062900193 1.1678015 4159424
-0.097008094 -0.063741505 1.1735845 3764919
0.12524644 -0.053614195 1.1716523 4422597
0.12904018 -0.0528276 1.1675231 4357059
-0.097000062 -0.053965576 1.1731296 3896505
-0.092136964 -0.053487457 1.1775585 3962298
0.12460078 -0.043014299 1.1713629 4685767
0.12854551 -0.042755011 1.1672449 4422851
-0.096038282 -0.044836394 1.1710089 4027836
-0.090974301 -0.042679187 1.1761221 4028094
0.12215175 -0.032589052 1.1690081 4948684
0.12800187 -0.034338903 1.1640136 4751818
-0.094785273 -0.036707778 1.1691382 4093632
-0.089232683 -0.032825414 1.1747255 4094399
0.11496167 -0.02246803 1.1710298 5080784
0.11918971 -0.023464344 1.16614 5211343
-0.086443499 -0.024282321 1.1729186 4094402
-0.080003902 -0.020832017 1.175282 4226244
-0.073577613 -0.018821277 1.1760499 4620744
-0.019729085 -0.015093572 1.1744779 5412064
0.0027307831 -0.014008261 1.173836 6463211
0.010978077 -0.017450191 1.1737114 6397929
0.020619005 -0.01634308 1.1734172 6397929
0.029745657 -0.013989314 1.1731009 6003432
0.11143941 -0.013420932 1.1683615 5081042
0.11664513 -0.016428895 1.1628028 5081041
-0.079168573 -0.013115317 1.1698984 4160963
-0.071006969 -0.011638172 1.1749141 4752075
-0.056106087 -0.0078462139 1.1752571 4949201
-0.04934055 -0.0080821216 1.1750799 5016022
-0.039737392 -0.0087570548 1.1741712 5213659
-0.029893108 -0.0092017949 1.1733519 5411552
-0.02001242 -0.0094950274 1.1735229 5740773
-0.0098979063 -0.0089902878 1.1740339 6003172
0.00019688345 -0.0085104927 1.1733453 6331366
0.010207409 -0.0080730394 1.1704583 6989552
0.020304693 -0.0075782686 1.1705699 6792432
0.030357281 -0.0071029291 1.1696323 5937640
0.038848296 -0.0057148486 1.171613 5806054
0.049510449 -0.0038682818 1.1722705 5674725
0.056193259 -0.0024197027 1.1720469 5674983
0.10207933 -0.0027351081 1.1708086 5146841
0.10803394 -0.0046689287 1.1649837 5080789
-0.076242104 -0.0045071617 1.1677015 4554184
-0.072759643 -0.0034289211 1.1705779 4751049
-0.057462167 -0.0023387745 1.1731328 4818129
-0.050052863 -0.0020005479 1.1721209 5015507
-0.040620331 -0.0016249642 1.168451 5147609
-0.030563757 -0.0011704639 1.1668633 5346018
-0.02084839 -0.0010114312 1.1692077 5937898
-0.010372873 -0.001246132 1.1691521 6462952
6.3814223e-006 -2.0824373e-005 1.1679449 8303605
0.0093432497 0.00029918551 1.1666651 8501495
0.019211188 -0.0002252087 1.1655983 7252467
0.030498732 0.00088657439 1.166099 6069484
0.03960292 0.0024387836 1.1666684 6135528
0.049802303 0.0026331395 1.1694839 5741031
0.05921077 0.0033276677 1.1707976 5543655
0.068638712 0.0051087365 1.1714904 5477092
0.078623019 0.0069188848 1.1711665 5739747
0.089989975 0.0072179958 1.1708488 5280481
0.099224463 0.0049348846 1.1669687 5015513
0.10473892 0.0031639636 1.1645606 4949463
-0.069878459 0.0025084689 1.1673253 4818122
-0.060508322 0.003955029 1.1670285 5147606
-0.051869612 0.0051178113 1.1667601 4818639
-0.043109193 0.0038020089 1.1665599 5344472
0.0014788825 0.0065155923 1.1652693 12971007
0.0059678182 0.0061734915 1.1651571 12905215
0.030506315 0.0073592365 1.1644557 5807584
0.043890953 0.0080060065 1.164073 6004710
0.049898952 0.0092546269 1.1638736 5807083
0.058613699 0.012212604 1.1656859 5477863
0.067194626 0.012261465 1.1679865 5542628
0.079224601 0.0099496692 1.1710625 5673698
0.089640245 0.012371875 1.1692079 5804766
0.095198721 0.010485291 1.1626064 5147865
0.061189353 0.020022102 1.1632547 5412324
0.0026897695 -0.194674 1.183073 3039650
0.009160229 -0.19500673 1.1829067 3039650
-0.017979939 -0.18776661 1.1834348 2842271
-0.011219159 -0.18743992 1.1832416 2973857
-0.00082224794 -0.18799494 1.1842391 2973857
0.009034859 -0.18923797 1.1852713 3039395
0.01956287 -0.18681377 1.1841657 3171237
0.028765855 -0.1849694 1.1831505 3237030
0.03908122 -0.183907 1.1833115 3302569
0.047408603 -0.18365157 1.1828723 3237546
-0.038132261 -0.17825258 1.1837071 2908065
-0.030519191 -0.17885281 1.1835176 2973857
-0.021737061 -0.18016607 1.1843176 2973857
-0.011882285 -0.18156162 1.1852087 2973858
-0.0035108197 -0.18193486 1.1868757 3105444
0.028145995 -0.18040515 1.1859708 3237030
0.03975483 -0.17833316 1.1855952 3302825
0.048641879 -0.17745672 1.1850202 3171754
0.058463264 -0.17754762 1.1830622 3171752
0.068754002 -0.17664281 1.1821675 3171753
0.077014513 -0.17313479 1.1814293 3237546
0.08507666 -0.17036268 1.1801291 3303592
-0.049756702 -0.16934836 1.1837653 2908579
-0.041415039 -0.17106172 1.1855897 2908579
-0.031498961 -0.17202859 1.186258 3105444
-0.022745196 -0.17334485 1.1871498 3105443
0.07179521 -0.16922978 1.1844604 3303339
0.079668373 -0.16661091 1.1828362 3303082
0.087891713 -0.16416122 1.1804447 3237545
0.093648329 -0.16091283 1.1796223 3303850
-0.059324462 -0.15851611 1.1837116 3302822
-0.052450109 -0.16243073 1.1858898 3040165
-0.045100827 -0.16581224 1.1875393 3040167
0.082657009 -0.15963876 1.1838872 3303598
0.088488758 -0.15538464 1.1826637 3238061
0.096886024 -0.15296857 1.1804161 3303596
0.10441825 -0.15022728 1.17902 3369131
-0.069606513 -0.14847136 1.1837002 3171751
-0.062974468 -0.15174788 1.1850277 3368615
-0.055831481 -0.15499806 1.1875179 3171751
0.10594849 -0.14353149 1.1802856 3369134
-0.071924269 -0.14152423 1.183562 3369130
-0.06563732 -0.14309916 1.186439 3434922
0.10664074 -0.13378215 1.1815332 3435183
-0.074032292 -0.13298388 1.1847063 3434923
0.10904492 -0.12656115 1.1814113 3501232
0.11562468 -0.12312515 1.1805205 3435694
0.12219034 -0.12113205 1.1776941 3501232
-0.082797542 -0.12226405 1.1843005 3369646
-0.076858595 -0.12568809 1.1859063 3435182
0.11893195 -0.11368834 1.1815702 3567282
0.12294549 -0.11301963 1.1792582 3567027
-0.091825709 -0.11001399 1.1831905 3501231
-0.086980462 -0.11363768 1.1859158 3435439
0.11854328 -0.10577422 1.1813515 3829686
0.12345359 -0.10277106 1.1793519 3829431
-0.091991723 -0.10663363 1.183097 3501231
-0.08772555 -0.10313857 1.1845478 3567024
0.12530959 -0.093281515 1.1794714 3830201
-0.092683449 -0.09254884 1.1827079 3632818
-0.089369327 -0.093054481 1.184634 3698612
0.12688553 -0.082604654 1.1784521 3896507
-0.093153819 -0.082971178 1.1824433 3633333
-0.089229256 -0.082900137 1.1851367 3764919
0.12620717 -0.072434656 1.1776756 4093886
-0.094036177 -0.074204043 1.1822133 3633334
-0.089963466 -0.072984569 1.1852697 3830201
0.1227558 -0.062949046 1.1782175 4291523
-0.090087563 -0.062722646 1.1834414 3896506
0.1217359 -0.052522629 1.1773205 4619975
-0.087279543 -0.053027049 1.1831319 4028348
0.11537835 -0.041330747 1.179571 5146320
0.1198817 -0.043363463 1.1785067 4883148
-0.08606489 -0.043585189 1.1813956 3962814
-0.081088826 -0.041913584 1.1837854 3963072
0.11391419 -0.032608628 1.177857 5146577
0.11769684 -0.034104764 1.175796 5080527
-0.085144684 -0.034469243 1.1808207 4028607
-0.079003304 -0.032365378 1.1827278 4291526
-0.029207345 -0.027918525 1.1831133 5147865
-0.021756485 -0.027331829 1.1828938 5344731
-0.0055202618 -0.025640652 1.1824034 5345501
0.0012633409 -0.025312856 1.1822095 5739743
0.011500545 -0.027088515 1.1806482 5936862
0.020551005 -0.026650228 1.1807231 5871068
0.030714478 -0.025022984 1.1814004 5739228
0.04874856 -0.023018286 1.1808521 5213656
0.11160247 -0.023834169 1.1775657 4949970
-0.077651769 -0.024902098 1.1803399 4422856
-0.069416672 -0.019687697 1.1817846 4686797
-0.059113231 -0.018055685 1.1816392 4884690
-0.048621874 -0.018946745 1.1828809 4950486
-0.038168173 -0.019224294 1.1817708 5213659
-0.029605191 -0.020034559 1.1796933 5279707
-0.019393582 -0.020668283 1.1798344 5345244
-0.0093267448 -0.018550709 1.1794105 5411808
0.00056638755 -0.019192919 1.1789578 5806052
0.010016633 -0.021889381 1.1778692 6068964
0.022054246 -0.021684185 1.177536 6068963
0.031983875 -0.01879625 1.1781062 6003173
0.040366966 -0.016647086 1.1786937 5608417
0.050568175 -0.016146876 1.1790023 5411038
0.057460215 -0.01579769 1.1804061 5279709
0.10197105 -0.011914201 1.1781597 5212630
0.10773696 -0.015277326 1.1763555 5015248
-0.066050589 -0.013894022 1.1797056 4949712
-0.059289809 -0.013567328 1.1795124 4949713
-0.04914863 -0.013077289 1.1792225 5016279
-0.039740216 -0.01299914 1.1789645 5213659
-0.031064544 -0.013332881 1.1787382 5345501
0.04158619 -0.0092575476 1.1766452 5871590
0.050009497 -0.0082857907 1.176388 5871847
0.060195494 -0.0055039153 1.178032 5543139
0.067422017 -0.0040168166 1.1780784 5280225
0.091953576 -0.0027982146 1.1790918 5411294
0.097806245 -0.0040003359 1.1764201 5279196
0.069313407 0.0011179373 1.1755908 5411556
0.078808174 0.003270939 1.1752703 5412066
0.090076149 0.0038154349 1.1749482 5477344
0.096947595 0.0018885508 1.1748172 5213404
0.0099513447 -0.1844523 1.1905859 3105189
-0.010775592 -0.17695394 1.1919329 3039906
-0.00097348541 -0.17860465 1.1921432 3039908
0.00865483 -0.17924875 1.1938063 3105447
0.019139197 -0.17803609 1.1909008 3105702
0.028127104 -0.17637247 1.1898577 3171750
0.037078954 -0.17552643 1.1895899 3237289
0.04843495 -0.17311701 1.1892112 3237548
0.058644589 -0.17262366 1.1889194 3171752
0.067719817 -0.17218512 1.18866 3171752
-0.038972944 -0.16687953 1.191407 3039909
-0.03107563 -0.16720521 1.1920912 3105701
-0.022757046 -0.16940936 1.1935868 3105443
-0.012868755 -0.17428938 1.1949149 3040163
0.017818129 -0.17189382 1.1940113 3105960
0.029145546 -0.17023091 1.1936553 3105958
0.038133301 -0.16830608 1.1925545 3237545
0.048433527 -0.16677678 1.1911346 3237547
0.058431853 -0.16599444 1.1903344 3237544
0.068471462 -0.16527955 1.1901251 3237545
0.076985359 -0.1629065 1.1888065 3303339
-0.050665956 -0.15800679 1.1914679 3172009
-0.042036094 -0.16069023 1.1937128 3105961
-0.032562595 -0.16240595 1.1951061 3171752
0.051450085 -0.15977243 1.1927459 3303337
0.058279332 -0.15944242 1.1925507 3303593
0.06831269 -0.1579797 1.1922356 3303594
0.077343658 -0.154961 1.1906517 3303596
0.084006548 -0.15320478 1.1876675 3238062
-0.058457416 -0.14985515 1.1914436 3434409
-0.052561667 -0.15125662 1.1941496 3237547
-0.044087332 -0.15318745 1.1951525 3237805
0.077979997 -0.14758855 1.1916717 3238318
0.087088287 -0.1442441 1.1902064 3238572
0.09714058 -0.14359014 1.1882329 3434926
0.10356891 -0.142708 1.1868316 3369134
-0.061204117 -0.14091462 1.1924909 3435179
-0.055108037 -0.14256787 1.1946998 3369388
0.091419384 -0.13730492 1.1910086 3500977
0.096831739 -0.13352917 1.1897513 3435186
0.10220084 -0.13337421 1.1865984 3500720
-0.070239484 -0.13060656 1.1922071 3566511
-0.064359486 -0.13315772 1.1937891 3566767
-0.056994777 -0.13534938 1.1949867 3500977
0.097932801 -0.12582307 1.1899985 3501234
0.10561515 -0.12308411 1.1869582 3501490
-0.080492333 -0.11794452 1.1911184 3566770
-0.073447093 -0.12211928 1.1936498 3632306
-0.066547632 -0.12668383 1.1949954 3632563
0.1070392 -0.11429343 1.1885045 3699127
0.11435075 -0.11271045 1.1861407 3633076
-0.081945866 -0.11239417 1.1919979 3566770
-0.075824559 -0.1129148 1.1948489 3763892
0.10752438 -0.10515206 1.1896394 3633335
0.1140172 -0.10270969 1.1869458 3764407
-0.082522839 -0.10228401 1.1935221 3698868
-0.078122899 -0.10265054 1.1946141 3699126
0.10750657 -0.093173519 1.1892929 3962811
0.11400875 -0.092980042 1.187943 3830969
0.12165581 -0.092906959 1.1848974 3830714
-0.084233791 -0.092454627 1.1914055 3699126
-0.078866512 -0.092671946 1.1943452 3830712
0.11423467 -0.08300525 1.188215 4028606
0.12229678 -0.08280468 1.1845875 3962300
-0.084101155 -0.082936451 1.1918037 3830970
-0.079158112 -0.082309321 1.1940531 3962813
0.11407809 -0.073930532 1.1885569 4291522
0.12182863 -0.073243454 1.1846871 4094399
-0.084892824 -0.072894573 1.1916487 3962044
-0.079946473 -0.072894283 1.1938018 4093630
0.11512552 -0.063134193 1.1879489 4554438
0.11989911 -0.063752562 1.1841007 4357059
-0.084772825 -0.062847652 1.1909733 4093886
-0.080164298 -0.061821815 1.1934869 4291009
0.11276186 -0.052712664 1.1870886 4686026
0.11870171 -0.052602034 1.1838104 4685769
-0.083556473 -0.055553023 1.1893945 4159935
-0.078605875 -0.052764345 1.1920385 4225985
0.10504703 -0.04309297 1.1879092 5015248
0.1111149 -0.044148829 1.1851062 5014991
-0.076095983 -0.042837467 1.1909426 4292037
-0.070572332 -0.044733845 1.1927313 4619977
-0.048143569 -0.036804672 1.1918919 5279449
-0.040176116 -0.036419671 1.1916641 5016538
-0.027599934 -0.036952861 1.1913376 4950743
-0.018010341 -0.038167272 1.1911122 4950488
-0.0089346804 -0.037572119 1.1908481 5147351
0.0014523063 -0.036119457 1.1905236 5278422
0.012094082 -0.037946157 1.1893977 5212886
0.021375399 -0.036858287 1.1882521 5278423
0.031305335 -0.035526607 1.1884439 5147094
0.042243764 -0.035370726 1.189393 4885460
0.051622536 -0.033432372 1.188354 4950741
0.06071379 -0.032457206 1.1888065 5016279
0.1030383 -0.033367455 1.1862811 5212370
0.11040884 -0.034240894 1.183504 5212369
-0.074362144 -0.035784069 1.1905736 4423370
-0.072459593 -0.032505628 1.1900265 4554187
-0.047931153 -0.031775232 1.1914735 5147610
-0.038170934 -0.030621611 1.1894401 5081818
-0.028967522 -0.032453433 1.189243 5016538
-0.017900828 -0.030477226 1.1890182 5278938
-0.0088385995 -0.029432379 1.1887417 5344730
0.0016292613 -0.029835165 1.1874013 5673948
0.011920767 -0.031608973 1.1861054 5805277
0.020995999 -0.031170443 1.1858459 5541848
0.031149922 -0.029542692 1.1855227 5475544
0.041248135 -0.026780576 1.1851681 5213397
0.051936071 -0.026868135 1.1855866 5082070
0.061619662 -0.025571093 1.1869812 5016536
0.070481144 -0.022923246 1.1882648 5213915
0.081164911 -0.021429092 1.1879311 5279453
0.092114046 -0.021356359 1.1876312 5213659
0.10163628 -0.023862533 1.1858438 5212628
0.10817797 -0.023546413 1.183255 5146833
-0.072470829 -0.026590273 1.1882542 4554443
-0.047376197 -0.023558326 1.1874843 5016281
-0.040071439 -0.024115004 1.1873018 5147611
-0.0089441985 -0.023520552 1.1864383 5411294
0.061544135 -0.015566103 1.1842916 5148123
0.07025867 -0.01514405 1.1842426 5213915
0.080332085 -0.014844723 1.1855004 5213917
0.091084152 -0.014243342 1.1857678 5213659
0.099108368 -0.015644461 1.1836061 5212887
0.091460645 -0.0072979853 1.1832387 5279708
0.095998257 -0.0070787147 1.183109 5411037
-0.0070720315 -0.17461458 1.1997707 3106213
-0.0013572201 -0.17433842 1.1996074 3105959
0.0099411933 -0.17444712 1.1993034 3105706
0.020359058 -0.17328905 1.1989866 3105960
-0.018266965 -0.16828156 1.1998917 3105700
-0.010767428 -0.16914991 1.2004635 3105957
-0.0016189795 -0.16870785 1.200202 3106216
0.0087044984 -0.16830656 1.2007604 3106217
0.019299688 -0.16728354 1.2002711 3171752
0.027151827 -0.1664189 1.1996948 3303337
0.038197391 -0.16326177 1.1982112 3369130
0.045055158 -0.1629304 1.1980152 3369132
-0.031390447 -0.15768468 1.2002751 3171753
-0.021547563 -0.15956074 1.2024504 3171752
-0.011200475 -0.15928689 1.2042428 3172010
-0.0019410048 -0.16009431 1.2049652 3172012
0.0080826497 -0.15917262 1.2054621 3237802
0.018684911 -0.15797243 1.2045933 3303338
0.027881445 -0.15755071 1.2045312 3369133
0.038122162 -0.15686794 1.2025117 3369388
0.048206363 -0.15606314 1.2015231 3303853
0.057364549 -0.1544992 1.1991878 3369643
0.067375943 -0.15325011 1.1973635 3303851
-0.049678091 -0.14688618 1.2001259 3303598
-0.04139616 -0.14927024 1.2016854 3303341
-0.032666277 -0.15050034 1.204915 3303340
-0.023187503 -0.15140885 1.207543 3369132
-0.014936455 -0.15289734 1.2073618 3303600
0.018430047 -0.15128501 1.206408 3303598
0.031086307 -0.15067343 1.2060462 3435186
0.038565002 -0.15031205 1.2058325 3369391
0.048344839 -0.14983948 1.2055529 3369392
0.057982888 -0.14647213 1.2045774 3369390
0.067386687 -0.14504141 1.200693 3435184
0.076575607 -0.1430767 1.1965832 3369392
-0.05095068 -0.13991626 1.2007593 3369646
-0.043585915 -0.14175759 1.2054162 3303853
-0.036098741 -0.14469364 1.2076995 3173034
0.059538189 -0.13822705 1.2049122 3566773
0.06762898 -0.13654301 1.2039763 3566516
0.077253014 -0.13427027 1.2007132 3500977
0.08711274 -0.13451831 1.1977344 3500975
-0.061711345 -0.12848242 1.1999201 3632562
-0.052614164 -0.13104188 1.2027493 3501236
-0.044978876 -0.13073221 1.2070918 3501494
0.079128891 -0.12499788 1.2039964 3698612
0.086636126 -0.12503606 1.2014281 3567283
0.095291093 -0.12224434 1.1984067 3567283
0.10246843 -0.11891229 1.1951793 3501747
-0.069368795 -0.11919614 1.1998593 3895478
-0.063602611 -0.12139282 1.2022681 3698613
-0.054567222 -0.12180436 1.2062043 3633080
0.080242194 -0.1183127 1.2037725 3699128
0.086635113 -0.11481007 1.2034973 3830713
0.096049577 -0.11399863 1.2020169 3699126
0.10261127 -0.11248969 1.1949894 3633333
-0.071067959 -0.11125862 1.1996756 3961271
-0.064172834 -0.11125166 1.2044919 3896247
-0.057240579 -0.11342326 1.2073686 3764921
0.086188138 -0.10787646 1.2033087 3962300
0.096898481 -0.10485723 1.2024591 3896506
0.10418522 -0.10275523 1.1966664 3764920
-0.072844625 -0.10197762 1.2009562 3830712
-0.065876752 -0.10107815 1.2059115 4093627
0.099339485 -0.093862846 1.2025452 4028352
0.10454999 -0.09314765 1.1970453 3962812
-0.07373634 -0.091682322 1.2011826 3962556
-0.067103148 -0.092348516 1.2065816 4028606
0.098303348 -0.083500385 1.2022732 4357317
0.10460581 -0.08349324 1.1980985 4225985
0.10970363 -0.079610191 1.1938443 4225985
-0.073687151 -0.082664162 1.2009201 4028606
-0.06875667 -0.082456574 1.2067847 4094655
0.098435402 -0.075453952 1.2020366 4554695
0.10403113 -0.073148191 1.1972141 4554182
0.11005397 -0.071191743 1.193591 4619462
-0.074932516 -0.072104685 1.1991175 4159424
-0.066847354 -0.070556156 1.2051564 4160448
-0.060594875 -0.068607181 1.2061617 4554440
0.098240152 -0.062085271 1.2016547 4620747
0.10379204 -0.062896624 1.1992755 4686026
0.11006075 -0.063553676 1.1933695 4619977
-0.074800029 -0.062439919 1.1983629 4291265
-0.066605866 -0.061910458 1.203379 4357573
-0.060933907 -0.061703846 1.205971 4751563
0.012954198 -0.055442438 1.2037809 4818903
0.020586986 -0.054304749 1.2035404 4819160
0.095981106 -0.053660113 1.201472 4752590
0.10333847 -0.05370941 1.1990217 4817869
0.10852486 -0.055608265 1.1931812 4752076
-0.073285595 -0.052773397 1.1980418 4291778
-0.067239046 -0.05168106 1.2014276 4554440
-0.061329443 -0.053649958 1.2057486 4883149
-0.043223731 -0.045805726 1.201026 5674209
-0.037489906 -0.045528654 1.2008621 5082331
-0.0259539 -0.047761235 1.2024813 4950745
-0.016630948 -0.04911612 1.1997983 4884953
-0.0074634701 -0.048669502 1.1993361 4753366
0.0028282497 -0.04704142 1.2002101 4884692
0.013455577 -0.048175216 1.1991088 4884692
0.02218442 -0.047012415 1.1994934 4884692
0.032374375 -0.045260768 1.2016237 4950484
0.043294735 -0.045733206 1.1995612 4950488
0.052075066 -0.045021325 1.2002962 4950489
0.062623203 -0.043033965 1.2010037 5411037
0.071608782 -0.04232467 1.2018063 5542623
0.085604355 -0.03963013 1.2013478 5213404
0.093511954 -0.042131238 1.2012053 5081558
0.10185237 -0.044036847 1.1986319 5015248
-0.068573833 -0.042071097 1.1976037 4685772
-0.04637469 -0.040503975 1.1980467 5542365
-0.037408188 -0.040249784 1.1978475 4951002
-0.028637618 -0.040885244 1.1964837 4884951
-0.019298159 -0.04230867 1.1962711 4753366
-0.0056387447 -0.040502962 1.1958474 4950484
0.0032332409 -0.040360659 1.1956021 5015763
0.033278093 -0.039768089 1.1947681 5015764
0.04013586 -0.039436709 1.194572 4885461
0.052007213 -0.037881069 1.1942042 4884950
0.062777787 -0.036245156 1.1957116 5082072
0.072163925 -0.034570187 1.1983641 5542624
0.081851155 -0.03519452 1.2005208 5279197
0.091849878 -0.033538986 1.1973988 5213144
0.099151477 -0.035821188 1.1928629 5212627
