# .PCD v0.7 - Point Cloud Data file format
VERSION 0.7
FIELDS x y z rgba
SIZE 4 4 4 4
TYPE F F F U
COUNT 1 1 1 1
WIDTH 174
HEIGHT 1
VIEWPOINT 0 0 0 1 0 0 0
POINTS 174
DATA ascii
-0.35682777 0.09204068 1.0875134 5134174
-0.35001874 0.090978958 1.0882572 5134176
-0.35767174 0.09666504 1.0873258 4871515
-0.36431795 0.073962025 1.0941453 4936281
-0.35377121 0.072259776 1.0952984 5199967
-0.34893271 0.072647117 1.0958027 5397348
-0.37295148 0.080002666 1.0928007 4673880
-0.36504227 0.080052167 1.0917088 4870232
-0.3556453 0.080901444 1.0934075 5068382
-0.34600225 0.082065001 1.0949526 5068384
-0.33845481 0.0842475 1.0966656 4476504
-0.37392941 0.089368135 1.0911235 4607822
-0.3667756 0.089921579 1.0905282 4673623
-0.35581902 0.090047009 1.0916859 5134174
-0.34554201 0.091767117 1.0927377 4739419
-0.33793083 0.092172936 1.0948284 4081746
-0.37493116 0.097737536 1.0925157 4410445
-0.36641499 0.099407986 1.0903647 4213839
-0.356226 0.10073746 1.0914155 4345429
-0.34620172 0.10112573 1.0924689 4016211
-0.33822089 0.10145149 1.0944678 3621193
-0.3662231 0.10488054 1.0902686 3884109
-0.35698619 0.1066046 1.0912102 3752784
-0.34664151 0.10736483 1.0922897 3621192
-0.33932695 0.10685714 1.093075 3686459
-0.3728112 0.06137545 1.1040027 4673626
-0.36438477 0.061051134 1.1020451 4870741
-0.35523075 0.060618956 1.1032093 5265754
-0.34532389 0.062134769 1.1044952 5397604
-0.33737516 0.06560383 1.1082405 4608350
-0.37406883 0.07020022 1.0997304 4673629
-0.36542165 0.069283754 1.0984863 4870744
-0.35688666 0.068384312 1.0990741 5134174
-0.3448655 0.071368225 1.1009398 5397606
-0.33714432 0.072896749 1.1059153 4476760
-0.33147171 0.077470556 1.1086134 4015442
-0.38205791 0.077987373 1.103245 3883351
-0.37805784 0.078167059 1.0984344 4475995
-0.34437397 0.077929594 1.1001964 5068641
-0.33574098 0.081878021 1.1030912 4082513
-0.33038437 0.083584793 1.1080955 3752531
-0.37988767 0.088008143 1.0968244 4079443
-0.33440098 0.091102757 1.1024811 3621705
-0.33006293 0.089164078 1.1060998 3751503
-0.33640587 0.0985016 1.1006027 3490378
-0.36122918 0.044305336 1.1172309 5002588
-0.35805491 0.044538613 1.1175622 5528419
-0.37248477 0.053100061 1.1158519 4739163
-0.36477774 0.050701749 1.1137575 5002333
-0.35532787 0.051087987 1.1146942 5397092
-0.34647501 0.05381139 1.1169389 5332066
-0.34074226 0.055432819 1.119164 4740695
-0.37362695 0.0568536 1.1103706 4082256
-0.36646423 0.056173485 1.1093835 5068120
-0.34398279 0.058415283 1.1137283 5200736
-0.33629528 0.062411916 1.1166064 4345175
-0.32963288 0.064903364 1.1195644 4278096
-0.33395356 0.071998388 1.1133522 4147028
-0.32957137 0.071967132 1.1179247 3819087
-0.32989579 0.079378746 1.1139698 3687502
-0.3544184 0.033170126 1.129253 5528423
-0.35018235 0.034021232 1.1296835 5397348
-0.36464199 0.040149994 1.1226575 4804702
-0.35515776 0.040624842 1.1230688 5462626
-0.34614322 0.042003959 1.1265888 5003105
-0.33846456 0.046156023 1.1282525 4804440
-0.37458232 0.049547486 1.122746 3817824
-0.36797813 0.046165917 1.1194941 4673622
-0.35206431 0.04733542 1.1211545 5660265
-0.34484372 0.049425285 1.1218748 5069150
-0.33628845 0.052932039 1.124718 4475986
-0.33119002 0.05760603 1.1251585 4014924
-0.33371958 0.059403215 1.1228408 4606547
-0.32825369 0.062257987 1.1238619 3620428
-0.36117139 0.026032316 1.1357303 4079956
-0.35431051 0.025482694 1.1341696 5266270
-0.34876978 0.026400568 1.1370358 5002845
-0.36424896 0.031932458 1.1332673 4079963
-0.35630348 0.029855648 1.1321414 5330781
-0.34619102 0.032873455 1.1348047 5002331
-0.34316763 0.039047729 1.133337 5001816
-0.3393524 0.042220693 1.1348805 4540755
-0.33528036 0.049369536 1.1339529 4213074
-0.35571727 0.016100127 1.148589 5265766
-0.35701543 0.020409986 1.1454861 5068639
-0.34844533 0.022686243 1.1458663 4214103
-0.36502698 0.025963753 1.1393467 1580089
-0.34420714 0.029347705 1.1421503 4145996
-0.34182703 0.035299417 1.1416053 4212054
-0.3623322 0.014645846 1.1509367 3618132
-0.35680872 0.013951167 1.1515365 5199718
-0.35035032 0.015526394 1.1521869 4214875
-0.34936428 -0.043967135 1.1696494 528927
-0.34423721 -0.04425988 1.1701987 1517876
-0.34568006 -0.053942535 1.1823215 4419983
-0.36095318 -0.048282381 1.1785721 1651559
-0.35527247 -0.047185481 1.1759892 1782104
-0.34286359 -0.048852611 1.1752194 4154236
-0.33838955 -0.044999331 1.179455 3028033
-0.35340208 -0.039854772 1.1812042 2369321
-0.34525901 -0.039462049 1.1784374 2040105
-0.35424373 -0.020798838 1.1766866 4146252
-0.36136228 -0.052960627 1.1886863 5077683
-0.35427848 -0.055065695 1.1881402 4617364
-0.34490144 -0.054754898 1.1891267 4549258
-0.33974445 -0.049049508 1.1868694 6582660
-0.36276889 -0.04169241 1.1842746 7695014
-0.35546699 -0.037388969 1.1856269 2040625
-0.34744504 -0.035589222 1.1857677 2172202
-0.34037906 -0.040046982 1.1866107 2760198
-0.35589647 -0.064105198 1.1975486 4683677
-0.35024235 -0.063689671 1.1981386 3831442
-0.36382759 -0.057814192 1.1954255 3299734
-0.35653213 -0.05953145 1.1948239 4683420
-0.34809291 -0.059386671 1.1966655 3960460
-0.35898671 -0.1369554 1.211846 3829135
-0.35095644 -0.13588226 1.2126737 4223637
-0.34474915 -0.13587607 1.2133309 3960467
-0.36045489 -0.12766331 1.2114929 3498881
-0.35208672 -0.12660107 1.2119542 3895695
-0.34443322 -0.12469278 1.2131265 3631246
-0.36081356 -0.11656366 1.2082015 3499128
-0.35356882 -0.11683517 1.2089746 4025235
-0.34509864 -0.11520217 1.2117049 3499655
-0.36065957 -0.10720871 1.2060072 3826560
-0.3540242 -0.10675199 1.2072033 4156303
-0.34634611 -0.10666651 1.2105291 3630985
-0.36140525 -0.097639933 1.2087423 3893387
-0.35471907 -0.096878476 1.2078696 4157333
-0.34767815 -0.095796257 1.2106597 3762828
-0.36052731 -0.08902023 1.2106637 3762325
-0.35466915 -0.086122118 1.2075344 4420507
-0.34873658 -0.085786752 1.2105025 3828877
-0.36264241 -0.07531555 1.2101482 4222878
-0.35499838 -0.076703385 1.2072322 4552347
-0.34913555 -0.076604895 1.2108015 3631755
-0.36434466 -0.067670792 1.2041728 3627913
-0.35543051 -0.068793453 1.2030621 4683676
-0.34872672 -0.066925421 1.2066889 3892613
-0.34799403 -0.05905785 1.2033074 3563127
-0.3604618 -0.14677058 1.2173587 3033484
-0.35238001 -0.14710148 1.2206305 2897991
-0.34239233 -0.14557698 1.2211628 3891064
-0.33513373 -0.14423962 1.2235794 2638186
-0.36494634 -0.13802868 1.215261 666715
-0.35397494 -0.13947384 1.2164537 4813457
-0.34070626 -0.13554372 1.2177753 3499654
-0.33398631 -0.13482678 1.2221774 3561592
-0.36640278 -0.12671299 1.2148662 6722
-0.34150705 -0.12604225 1.2174885 3694979
-0.335219 -0.12526982 1.2201496 3233144
-0.34067452 -0.11555161 1.2173536 3104639
-0.33636549 -0.11513248 1.2210014 2640231
-0.34204528 -0.1059182 1.2170036 2907007
-0.33819169 -0.105629 1.2219775 3099492
-0.36515635 -0.095333047 1.2143309 4089741
-0.34315208 -0.096382357 1.2170428 3496061
-0.3394419 -0.094853885 1.2220732 4278874
-0.36343142 -0.087094486 1.2143384 2972810
-0.34464127 -0.086089201 1.2176787 3757171
-0.34116474 -0.086835295 1.2217202 3748927
-0.36269087 -0.081245936 1.2142925 3630740
-0.34442195 -0.078744523 1.2161741 3953004
-0.35311943 -0.15326394 1.2258898 984897
-0.34299383 -0.14862844 1.2268636 4350584
-0.33453542 -0.12392837 1.2279047 4674411
-0.3354415 -0.11538894 1.2299742 6974583
-0.33795989 -0.10445682 1.229475 3815753
-0.36992222 -0.09612786 1.2228954 5799072
-0.33748946 -0.094911799 1.2263044 5064001
-0.33530203 -0.1296206 1.2403497 7039097
-0.33608598 -0.12385139 1.2411498 7565430
-0.33734795 -0.11526541 1.2404983 8223350
-0.33771732 -0.10714179 1.2355927 9076613
