# .PCD v0.7 - Point Cloud Data file format
VERSION 0.7
FIELDS x y z rgba
SIZE 4 4 4 4
TYPE F F F U
COUNT 1 1 1 1
WIDTH 1131
HEIGHT 1
VIEWPOINT 0 0 0 1 0 0 0
POINTS 1131
DATA ascii
0.020124257 0.036177553 0.99964207 4875393
0.029644523 0.035707064 1.0029529 4875390
0.040085066 0.034995534 1.0034655 4874877
0.050272368 0.034325637 1.0027459 5006460
0.057369854 0.03308282 1.0042578 5202811
-0.091940142 -0.0041680932 1.0062555 6980776
-0.085747071 -0.0042890385 1.0052555 6129600
-0.090580478 0.0023175776 1.0092801 7570324
-0.08298824 0.0049768984 1.005915 6651024
-0.076399714 0.010384373 1.0055102 6781327
0.10642327 -0.0045218617 1.0114678 6854356
0.11791922 -0.0051072389 1.0136757 7111067
-0.071841121 0.015924044 1.0067652 6583439
0.10998087 0.0064954832 1.0123477 6845830
0.11798314 0.0034039393 1.0148175 7436672
-0.058960225 0.026129246 1.0096678 6321290
-0.052700046 0.026662804 1.00885 5795463
0.089592367 0.017859019 1.0148536 5860223
0.099052861 0.012591064 1.0129752 6649473
0.10632299 0.011538163 1.0174159 6977411
-0.059111055 0.030715771 1.0097553 7372164
-0.049630705 0.030437656 1.008812 6123396
-0.040099848 0.034236513 1.0112755 5729669
-0.031545669 0.034299977 1.0115727 5336195
-0.024553295 0.036278732 1.0071024 5270149
0.080200955 0.025601484 1.0105228 5532277
0.087371096 0.022287846 1.0155679 5860472
-0.040330641 0.039368428 1.0125855 6714755
-0.031285211 0.03882239 1.0128797 5794947
-0.020326383 0.039840631 1.0111295 5466498
-0.0097001484 0.041777723 1.0103161 5466240
0.00075158849 0.041675605 1.0118049 5334655
0.011250729 0.041178398 1.0106452 5138044
0.020299749 0.041294314 1.0115376 5072252
0.02997094 0.040523104 1.0111599 5072247
0.039584503 0.039395191 1.011095 5137530
0.049633723 0.038092367 1.0150689 5137788
0.058524389 0.034272961 1.0127958 5268347
0.12402979 -0.013398804 1.0210704 7374502
-0.091363691 0.0057314113 1.0181913 9214113
-0.082264036 0.0090978593 1.0166165 6978442
0.12025927 -0.011219084 1.0209414 7112109
0.12496451 -0.0072916746 1.0217127 8686741
-0.080069683 0.01475247 1.0172837 7636109
-0.074452393 0.018519878 1.0165526 7437970
0.12553942 0.00082559139 1.0210731 9277068
0.092225105 0.019126557 1.0209377 5992060
0.098565966 0.016679846 1.0237353 6451580
0.10540943 0.015102372 1.0227109 6516347
-0.048862569 0.032854877 1.0163329 6254982
-0.045220315 0.037052609 1.0224403 6648965
-0.029140864 0.034889884 1.0159632 5270660
0.074105717 0.030704804 1.0223156 5662844
0.079875037 0.028989606 1.0226077 5794679
0.088326201 0.025686428 1.021791 5926261
0.09616518 0.021590151 1.0250592 6253428
-0.038641352 0.041378729 1.0173861 7043204
-0.029541474 0.041503094 1.0180967 6188928
-0.019027904 0.043968983 1.0193624 5991293
-0.0091560995 0.045528524 1.0197766 5794427
0.00063193683 0.044904552 1.0192945 5597052
0.0088262428 0.043969832 1.0183618 5399930
0.01822027 0.043743543 1.0174655 5203324
0.028912306 0.043098114 1.0178132 5269365
0.041550763 0.042376556 1.0192245 5334394
0.050581973 0.040829532 1.0215225 5466234
0.056982953 0.03862568 1.0225704 5597049
0.074282482 0.0336309 1.0223119 5991033
0.07881549 0.033296667 1.0247464 6055795
-0.0070749717 0.047352426 1.0196378 6056827
0.001870743 0.047946565 1.0234269 5859449
0.010271522 0.047586881 1.022599 5728377
0.019334778 0.046492822 1.0244964 5532027
0.029926367 0.045291848 1.0248426 5532021
-0.088652335 0.0072422177 1.0241343 7306630
-0.086630002 0.008105725 1.0241969 7438985
-0.068280965 0.024843857 1.0307391 7044228
-0.064274043 0.024549484 1.0278679 6255491
0.10069991 0.018973306 1.0302168 6187632
0.10612787 0.01913844 1.0303917 6119529
-0.049087975 0.035998814 1.0253202 6780808
0.069423877 0.031210102 1.0291663 5465215
0.092583582 0.024689779 1.0349387 6056820
0.098691538 0.023619264 1.0334387 5988198
-0.036222715 0.043501206 1.0257118 7108737
-0.029803403 0.046008714 1.029213 7108222
-0.021262866 0.046540551 1.0261855 6582396
0.06122151 0.038861297 1.0311277 5859705
0.066492788 0.036683999 1.0300545 5728122
-0.016624492 0.049658813 1.0288267 6713719
-0.010212733 0.050192602 1.0304329 6450807
-0.0019516451 0.049914487 1.02905 6122104
0.0099143274 0.050185211 1.0294327 6122617
0.022231717 0.049957238 1.0302484 6057083
0.028506059 0.049423866 1.0313867 6057334
-0.073447019 0.023929983 1.0335766 7832202
0.092322923 0.028125718 1.0389214 5792617
0.09529309 0.02794642 1.0390179 5724767
-0.028616272 0.049344979 1.0349436 7764863
-0.0085757906 0.052111976 1.0355823 6384242
0.00033471175 0.051574074 1.0358721 6121843
0.16524945 -0.086050719 1.0606577 13950701
0.16827378 -0.086233288 1.0607561 13160147
0.16744846 -0.083146527 1.0607194 13423577
0.16551703 -0.095756479 1.0677013 12898285
0.1694544 -0.096974678 1.0673323 12832198
0.16449212 -0.089727223 1.0657907 10136266
0.17121015 -0.090611935 1.0661178 13159885
0.16517678 -0.083472401 1.0671504 12175571
0.1706855 -0.082743481 1.0638242 13093836
-0.14042269 -0.097633317 1.0696247 1720740
-0.14076935 -0.090704136 1.0693792 3628972
-0.14147377 -0.084487811 1.0707488 4745397
0.16445747 -0.097467087 1.0766773 6256041
0.16882491 -0.10041803 1.0770282 12767188
0.16319421 -0.088287935 1.0786079 7312841
-0.14017178 -0.12188331 1.080917 2903988
-0.13706194 -0.12207104 1.0810182 1324707
-0.14088005 -0.10978772 1.0801046 2904505
-0.13899751 -0.10112705 1.0787868 2644141
0.16286118 -0.11727566 1.0906972 5801403
0.16726319 -0.11788836 1.0908415 11779799
-0.13795607 -0.090076856 1.0768837 3039906
0.16260085 -0.1081472 1.0896587 3630254
0.16877705 -0.10934249 1.0892737 11516624
0.17580175 -0.10972932 1.0910912 13685195
-0.13998638 -0.080968149 1.0791535 2708908
0.16292199 -0.099683568 1.0887663 3762605
0.16747344 -0.10375666 1.087801 10465738
0.16362421 -0.092906937 1.0846399 6721740
-0.13666324 -0.063802563 1.0808427 1588628
-0.1335534 -0.063990295 1.0809438 3826867
-0.13475315 -0.13759544 1.0871462 3694011
-0.13925834 -0.13078368 1.0849774 7178192
-0.13405424 -0.13084425 1.0863003 2114980
-0.13877474 -0.11932057 1.0849559 1063065
-0.13450377 -0.12240238 1.0860045 2447769
-0.13785063 -0.11180189 1.0849615 2578847
-0.13542445 -0.1114987 1.0880406 2907546
0.1618024 -0.12822804 1.0962013 6851775
0.1674532 -0.12810513 1.0948827 13029078
-0.13657866 -0.1017672 1.0857207 3104917
-0.13466778 -0.098972976 1.0880246 3170462
0.16106401 -0.11737193 1.0961423 3040417
0.17061017 -0.12128092 1.0949627 13422807
0.17371199 -0.11833391 1.0950534 13619661
-0.13790581 -0.089141443 1.0856369 3104162
0.16034551 -0.10910124 1.0954491 2973607
-0.13674775 -0.080870651 1.0858977 3169952
0.1613003 -0.099029988 1.0975914 2843043
-0.13793127 -0.071104974 1.0849854 3301299
-0.13068135 -0.14975582 1.0973223 4750553
-0.12724459 -0.15219064 1.0994424 1196192
-0.13215028 -0.1423928 1.0940493 3036848
-0.12856558 -0.14488047 1.0993761 1789334
0.15524015 -0.15796958 1.1060905 12898004
-0.13049152 -0.13157703 1.0954909 2776475
0.15632141 -0.14892052 1.1049957 9087435
0.16250743 -0.14464903 1.1017799 13488846
-0.13207904 -0.12072366 1.0951822 3038106
0.15684973 -0.13828397 1.1039778 4354994
0.16487312 -0.13680094 1.1018311 13752800
-0.13340989 -0.11091448 1.0965527 2973083
0.15738186 -0.12852527 1.1048716 2121388
-0.1372754 -0.097112112 1.0919363 3301280
-0.13431738 -0.10224689 1.0956868 3039132
0.15866388 -0.12052912 1.1027451 2646946
0.1751141 -0.11626375 1.1050973 13817039
-0.13689569 -0.090826429 1.0919282 3366820
-0.13454559 -0.091429412 1.0970088 3105183
0.15766379 -0.10819372 1.1062081 3631271
0.17629093 -0.1142262 1.1051288 13817037
-0.13622065 -0.079651892 1.0919139 3499424
-0.13371919 -0.08081919 1.0958006 3302563
0.15797271 -0.097942948 1.1054257 3369127
-0.13310008 -0.071337655 1.0954899 3434147
0.16043022 -0.088487975 1.106443 2908578
0.16639172 -0.086216941 1.1047182 8233160
-0.13696514 -0.059933748 1.0926838 3365295
-0.13182612 -0.061454009 1.0958455 3499689
0.16180626 -0.078975797 1.1061946 4024485
0.16689937 -0.077813216 1.1047075 11192030
-0.1349687 -0.051156182 1.0948639 2181536
-0.12978347 -0.051325493 1.0962328 3433908
0.16128747 -0.073496401 1.1085143 2708114
-0.13298889 -0.043034665 1.0989039 8233201
-0.12918299 -0.044387549 1.097316 3564980
0.023479566 0.11971409 1.0994332 9935247
0.029233497 0.12027041 1.0996174 9934992
-0.12245668 -0.16139784 1.1083237 929696
-0.11837816 -0.16199516 1.1107664 1984411
0.14366443 -0.17353928 1.1192738 13424882
-0.12281615 -0.15179867 1.1059875 2512540
-0.11842427 -0.15396172 1.1094049 2906513
0.14542125 -0.16771451 1.1168661 8955594
0.15125914 -0.16672555 1.1134942 14080986
-0.12912335 -0.13730796 1.1063372 2381461
-0.12639196 -0.14266121 1.1083813 2776212
0.14625916 -0.15814802 1.115626 3697834
-0.12923916 -0.13136786 1.1071481 2841752
-0.12747622 -0.13579935 1.1103876 2906774
0.14869149 -0.14835927 1.1161532 2646183
-0.13052003 -0.12070829 1.1080965 2907034
-0.12683304 -0.12515211 1.110374 2775704
0.14975837 -0.13967164 1.1172602 3696546
0.15209997 -0.13526909 1.1167548 3761571
-0.13092093 -0.11121687 1.1066394 2973083
0.15416414 -0.12928313 1.1161351 3368880
-0.13137947 -0.10096289 1.1060467 3039134
0.15517251 -0.11771496 1.1157361 3500454
-0.13091639 -0.090522312 1.1057278 3171232
0.15457958 -0.10922378 1.116703 3631529
-0.13092104 -0.081737831 1.1049988 3302564
0.15384218 -0.098772369 1.1123575 3697839
0.15414622 -0.099038765 1.1153698 3763633
-0.13040319 -0.071194001 1.1057819 3368355
0.15539883 -0.087838754 1.1150881 3436468
0.16988862 -0.085082009 1.1158335 10992842
-0.12744127 -0.060936317 1.1058445 3697068
0.15390265 -0.074776813 1.1192855 3765679
0.15710114 -0.077480532 1.1145769 3830452
0.16979152 -0.080816977 1.1158166 11387079
-0.1258056 -0.053247921 1.1036713 3631022
-0.12342484 -0.050176915 1.1032381 3500456
0.15377836 -0.067843817 1.1163687 3830449
0.16052964 -0.068748794 1.114109 5207985
0.16684447 -0.070137858 1.1183548 10334913
-0.12538464 -0.04122499 1.1057186 3434161
0.15346698 -0.058877815 1.1160755 3893939
0.1605418 -0.059790667 1.1155052 8428221
-0.12515043 -0.031186238 1.109267 6194370
-0.12051235 -0.02935899 1.1102686 4421311
0.15197873 -0.046937946 1.1180419 5734064
0.15801021 -0.050981104 1.1193414 10203587
-0.11878014 -0.022784762 1.1103034 6852289
0.15092227 -0.040944438 1.1158781 8955077
0.028593954 0.096284561 1.1146821 9737616
-0.094520658 -0.199882 1.1199979 7635861
-0.091259666 -0.20056903 1.1227735 8100012
-0.10424367 -0.18935391 1.1223176 10535920
-0.097317845 -0.19245659 1.1201973 5996227
-0.091043167 -0.1969851 1.1227689 6394567
-0.1133059 -0.17776178 1.1139829 8431615
-0.10655957 -0.18061391 1.1169809 1526185
-0.10066712 -0.18336177 1.1212703 1262491
0.12268412 -0.19406019 1.1296679 11717846
-0.12132612 -0.16870588 1.1136944 7571711
-0.11454543 -0.17138642 1.1154786 1917611
-0.1078576 -0.17431098 1.1194841 2379673
-0.10137998 -0.17765665 1.1223723 2644619
0.12468489 -0.18729526 1.1297107 5010097
0.13225287 -0.18478584 1.1268027 10599906
0.13944018 -0.18400815 1.1261749 14081762
-0.11416391 -0.1625593 1.1181188 2709143
0.12636457 -0.17677692 1.1297309 2909858
0.13315171 -0.17671555 1.12613 4026283
0.1408392 -0.17737702 1.1226968 12307424
-0.12010081 -0.14842191 1.1136684 2775446
-0.11607611 -0.15288258 1.1167235 2775442
0.134913 -0.16785683 1.1269768 3105445
0.1400582 -0.16734117 1.1221389 2578854
-0.1217642 -0.14110616 1.115746 2775449
-0.11784813 -0.143747 1.1203964 2906778
0.13778359 -0.15820982 1.1284392 3564451
0.14131743 -0.15744859 1.1245488 3433893
-0.12512197 -0.13220799 1.1167495 2840984
0.13971861 -0.15012588 1.1300764 3565217
0.14379178 -0.14825791 1.1248659 3499430
-0.12909427 -0.12002079 1.1132859 2841497
-0.12641889 -0.12195595 1.1193819 2907290
0.14662793 -0.13778411 1.1272583 3237547
-0.12875514 -0.11056545 1.1148672 2973083
-0.12619962 -0.11119724 1.1193541 3038877
0.15025932 -0.12829798 1.1285274 3827369
0.15317902 -0.12741737 1.1224339 3564710
-0.12925015 -0.10054667 1.1160766 3039391
-0.12685448 -0.10260418 1.1199722 3170977
0.1511417 -0.11824457 1.1283416 3565735
0.15369494 -0.11887676 1.1224229 3500198
-0.12895134 -0.092354909 1.1182038 3170977
0.15197402 -0.10926052 1.1276724 3631790
0.15286794 -0.11099285 1.1303749 3434923
-0.12843733 -0.081814446 1.1171857 3302823
0.15232381 -0.097807884 1.1278135 3566513
-0.12776023 -0.071837023 1.1158414 3368614
0.15197788 -0.088513553 1.1278107 3632560
-0.12683605 -0.064170793 1.1171805 3565995
0.15143646 -0.07829541 1.1264877 3895728
-0.12305164 -0.049320769 1.1188557 3697842
0.14975111 -0.068219714 1.1249332 4158132
-0.12085278 -0.041135732 1.1176633 3502262
0.14922722 -0.057498567 1.1260823 4027837
-0.11762059 -0.031799577 1.1171514 3698611
0.14494412 -0.04576835 1.129908 4619197
0.15072858 -0.049230058 1.1245648 4946612
-0.12335464 -0.025006458 1.1131643 7180220
-0.11583623 -0.022447363 1.1206028 4815032
0.1452716 -0.039295278 1.1292306 5209534
0.15032806 -0.037854057 1.1220522 8425655
0.029369712 0.092207603 1.117722 9474444
-0.068601094 -0.21181086 1.1305459 8300241
-0.086163059 -0.2025454 1.12631 7642055
-0.078796037 -0.20364597 1.1286892 4815810
-0.07230898 -0.20749208 1.1304121 5210825
-0.094550923 -0.19010407 1.1256349 932767
-0.087859303 -0.19395614 1.1275487 2382238
-0.079519041 -0.19750196 1.1301467 2251168
0.10377219 -0.20530924 1.1360966 6518691
0.10970418 -0.20464118 1.1348568 11319227
-0.095928423 -0.18326467 1.1274358 2447513
-0.090824842 -0.18704742 1.1297475 2513045
0.11202779 -0.19654348 1.1352819 4617903
0.11914997 -0.1969935 1.1325647 10929103
-0.10468541 -0.17168942 1.126703 2971544
-0.099031568 -0.17580211 1.1274449 2774929
0.11467431 -0.1874193 1.1347235 2909086
0.11970167 -0.18677545 1.1325495 3105187
-0.11136024 -0.15807301 1.124988 2709911
-0.10713053 -0.16339427 1.127496 2644371
0.12178874 -0.17706716 1.1332012 3368356
-0.11334573 -0.15132374 1.1267211 2775444
-0.1086636 -0.15573642 1.1277356 2709910
0.12676144 -0.16748181 1.1343161 3368613
0.13118893 -0.16478041 1.1328497 3499683
-0.11602482 -0.14257663 1.1262879 2841497
0.12892856 -0.16013923 1.1367637 3237027
0.13389653 -0.15772809 1.1342484 3302821
-0.12121318 -0.13065273 1.1251526 2645144
-0.11792228 -0.13257758 1.1278062 2775964
0.13758068 -0.14799704 1.135185 3237542
0.14190277 -0.14467284 1.134465 3106215
-0.12256174 -0.12215589 1.1259651 2907291
0.13951129 -0.13854319 1.1357019 3499683
0.14277472 -0.13675787 1.1342771 3303338
-0.12297699 -0.11218566 1.1268654 3039134
0.14488907 -0.12837835 1.1345874 3499947
-0.12717299 -0.097610377 1.1242814 3236770
-0.12538508 -0.10201199 1.1276885 3236770
0.14723711 -0.11799292 1.1350363 3500458
-0.12678227 -0.09114217 1.1242732 3237027
-0.12521161 -0.09159442 1.1283274 3302821
0.15021928 -0.10760428 1.1355668 3632048
-0.12619618 -0.081439868 1.1242607 3302824
-0.12465613 -0.082398809 1.1283157 3302569
0.14903489 -0.098627694 1.1353956 3632047
-0.12608016 -0.072358362 1.1242352 3434408
-0.12329607 -0.070149533 1.12832 3434665
0.14632781 -0.087397717 1.134908 4026292
-0.12502398 -0.062035251 1.1242359 3631531
-0.12338178 -0.061302997 1.1282886 3631531
0.14695992 -0.079444781 1.1335282 4157366
-0.12463325 -0.055567052 1.1242276 4025255
-0.1212551 -0.050636005 1.1266078 3632304
0.14714973 -0.067645729 1.1330516 4289211
-0.11724187 -0.041870531 1.1261374 3568048
0.14462867 -0.056704834 1.1336018 4094399
0.14664702 -0.061220258 1.1350156 4224702
-0.11551619 -0.035920728 1.1244588 3764911
-0.11190436 -0.031812951 1.1270635 3895729
0.14256029 -0.048142288 1.1342955 4487616
-0.1157328 -0.017765157 1.1273947 6458567
-0.11101665 -0.021830246 1.1269599 3895996
0.14318973 -0.03712412 1.1332252 5735616
0.15024596 -0.034291711 1.1330439 9477559
-0.11516531 -0.015110388 1.128405 6852289
-0.11192151 -0.015306205 1.1285104 5933254
0.060667928 0.076066412 1.1297916 9474701
-0.032940727 -0.22441837 1.1437457 7248329
-0.00023979787 -0.22798795 1.1440139 5801654
0.0078498507 -0.22734553 1.1437396 5210039
0.020534189 -0.22874367 1.1454881 6328255
0.028182898 -0.2292054 1.1457369 7379645
0.039724004 -0.2297802 1.1461118 8430007
0.04789307 -0.22850168 1.1423695 8625323
-0.070010185 -0.21405035 1.1345098 9678537
-0.059420813 -0.21468306 1.1413839 4422071
-0.050192941 -0.21591572 1.1431606 2778029
-0.040561993 -0.21831538 1.1434796 2513574
-0.033128843 -0.22148106 1.1437302 2315684
-0.0033064848 -0.22401279 1.1447023 2120102
0.008712912 -0.22473836 1.1450931 2185635
0.021891026 -0.22443664 1.1455181 2186146
0.027288344 -0.2258597 1.1456972 2316696
0.042717844 -0.22459665 1.1461918 4486314
0.050349195 -0.22466424 1.1444377 5997746
0.061623417 -0.22237873 1.1456523 6063288
0.070325248 -0.2214354 1.147074 6589614
0.07839781 -0.22214216 1.1473372 8757678
-0.074714147 -0.20178083 1.134318 1855898
-0.068264052 -0.20467937 1.1377757 2249885
-0.060868043 -0.207435 1.1420604 2381985
-0.052909013 -0.21004617 1.1430538 3039902
0.064652346 -0.21549708 1.1468714 2841504
0.070695065 -0.21531326 1.1470661 3302564
0.080418393 -0.21364227 1.146041 4420011
0.090390608 -0.21341518 1.1419793 6984117
0.10004792 -0.21124098 1.1399975 6254993
-0.085226581 -0.19060606 1.1347425 2710418
-0.077830657 -0.19431791 1.1385764 2775447
-0.071348161 -0.19693899 1.141615 2906776
0.083306625 -0.20590803 1.1470432 3171492
0.091971241 -0.20505844 1.144519 3237285
0.10049884 -0.20436214 1.1405616 3629215
-0.087817661 -0.18348293 1.1386379 2775191
-0.079992227 -0.18745023 1.1414384 2906012
0.094429888 -0.19598281 1.1461033 3040421
0.10156874 -0.19473204 1.1429422 3105703
0.10754207 -0.1953494 1.1401885 2777257
-0.10210922 -0.16852875 1.1333251 2710677
-0.095706485 -0.17280261 1.1370771 2709909
-0.089800537 -0.17677106 1.1397527 2709910
0.10310757 -0.18642575 1.146546 3368100
0.11092535 -0.18506493 1.142399 3302561
-0.10304059 -0.16191228 1.1363863 2710421
-0.09857057 -0.16503422 1.1406319 2644886
0.10558134 -0.17879668 1.1480757 3040936
0.11386016 -0.17619449 1.1462469 3237031
0.12051938 -0.1736939 1.1435394 3368615
-0.11177947 -0.14833222 1.1329472 2776209
-0.10678373 -0.1531173 1.1378766 2841240
0.11633249 -0.16783941 1.1483878 3237287
0.12307463 -0.16602242 1.1434543 3302822
-0.11252309 -0.14161697 1.1374371 2710683
-0.10812719 -0.14517719 1.1403923 2841499
0.12575725 -0.15774848 1.1460702 3237541
0.13100487 -0.15535021 1.1424183 3237798
-0.11415079 -0.13294664 1.1379664 2907293
0.12788329 -0.14909132 1.1487006 3237797
0.1329211 -0.14685386 1.1438535 3303334
-0.11960977 -0.12090353 1.1337489 2907805
-0.11771026 -0.12264966 1.1398762 2907805
0.1352395 -0.13761029 1.1464555 3434407
-0.11959569 -0.11157816 1.1352438 3039392
-0.11722659 -0.11289893 1.1406608 3039391
0.13776004 -0.12817243 1.1463795 3500202
0.14225245 -0.12553126 1.1410847 3631274
-0.12224564 -0.10223146 1.1369956 3170979
0.14025797 -0.11803436 1.1485555 3631791
0.14386356 -0.11768949 1.1428901 3566510
-0.12206292 -0.091872111 1.1381496 3105957
0.14014719 -0.10689484 1.1472931 3632305
0.1455017 -0.10832457 1.1414676 3501227
-0.12176515 -0.081848919 1.1358398 3237546
0.14026612 -0.09781538 1.1463883 3698099
0.14501317 -0.098488748 1.1414866 3698094
-0.12056331 -0.072155118 1.1360856 3434923
0.14204121 -0.088630982 1.1469617 3895479
0.14435104 -0.090790801 1.1410402 3895477
-0.11957464 -0.061737567 1.1367033 3566256
0.14293794 -0.077360138 1.1482884 4027579
0.14556849 -0.076946281 1.1450368 4157882
-0.11802047 -0.05290617 1.1359682 3567024
0.1414945 -0.067718416 1.1477004 4159422
0.14594801 -0.06813997 1.1434199 4289724
-0.11504702 -0.043233525 1.1338358 3567791
-0.11200647 -0.041472748 1.1392646 3764403
0.14044212 -0.057600923 1.1461427 4356797
-0.10953335 -0.032677997 1.1332177 3830196
0.1383936 -0.047878157 1.1451112 4619718
-0.10748193 -0.021877423 1.1355879 3896507
0.13501355 -0.035758995 1.1454519 4817095
0.13959995 -0.036618285 1.142379 4948420
-0.11455466 -0.012258634 1.1364197 6916535
-0.10710493 -0.013239995 1.1363559 5210049
0.13448615 -0.029321507 1.1475263 5013440
0.13903718 -0.029181316 1.1453384 5998788
0.038996179 0.050648294 1.1400362 5859448
0.047239464 0.050225832 1.1384459 6122362
0.052697267 0.050029002 1.1416245 6319482
0.063730776 0.050637074 1.1459813 5330522
0.039894156 0.055047475 1.1385264 5792108
0.047769789 0.055418111 1.1382462 5527648
0.052960511 0.054386772 1.141619 5067354
-0.027305227 -0.22472718 1.1469303 4354997
-0.02008944 -0.22618958 1.1491694 4684224
-0.01014978 -0.22649658 1.1480242 4289976
0.00095995795 -0.22486189 1.1478444 2054307
0.01133432 -0.22603819 1.1481836 2777510
0.016745722 -0.22746494 1.1483631 4026798
0.03317856 -0.22845694 1.1488974 5604271
0.03711221 -0.22704425 1.1490201 4881326
-0.045617826 -0.21324942 1.1463013 3039902
-0.037758186 -0.21464273 1.1470602 2710943
-0.02951473 -0.21704932 1.1501403 2645152
-0.019940458 -0.22048634 1.1538249 2514339
-0.0099987453 -0.22098336 1.1536143 2514851
9.6928328e-005 -0.21908456 1.1524003 2842787
0.010056222 -0.2192641 1.1505216 2908579
0.019713305 -0.21945077 1.1513236 3039651
0.029805701 -0.22076294 1.1527658 2908578
0.039194908 -0.22045657 1.1528181 2778020
0.049378898 -0.21940978 1.1508212 2646433
0.058817007 -0.2226707 1.1497074 5012145
0.070242748 -0.22464386 1.1500832 8955830
-0.058120567 -0.20405966 1.1461533 2841242
-0.048491467 -0.2067149 1.1485219 2775960
-0.039643012 -0.20852415 1.1507481 2841500
-0.03050857 -0.21124691 1.1547874 2907551
0.0011587692 -0.21242008 1.1558149 3105184
0.010373694 -0.21260712 1.1561133 3170722
0.020301811 -0.21320644 1.1564362 3302053
0.030447118 -0.21326503 1.1567643 3170723
0.040982358 -0.21297787 1.1571039 3105188
0.050396103 -0.21275339 1.1556923 3170467
0.060118921 -0.21313527 1.15212 3236258
0.070511766 -0.21031666 1.1504903 3171236
-0.074005112 -0.19173409 1.1453142 2906776
-0.0676613 -0.19435596 1.1466712 2907033
-0.059409488 -0.19583628 1.1506351 2841497
-0.050522398 -0.20043847 1.1541057 2775704
0.051655993 -0.20734508 1.1574306 3105443
0.060480986 -0.20787781 1.1577177 3105443
0.071515821 -0.20482093 1.1568006 3105956
0.080150433 -0.20247054 1.1535335 3105956
-0.084298201 -0.1801118 1.144944 2644884
-0.07755734 -0.18408978 1.1481763 2775705
-0.069464877 -0.18745264 1.1511168 2841497
0.075488321 -0.19770649 1.1581699 3172006
0.083304435 -0.19579305 1.1574159 3040421
0.089376487 -0.19380862 1.1551044 2974628
-0.092532679 -0.17081395 1.1446477 2645144
-0.086110681 -0.17296924 1.1479228 2710425
-0.081032701 -0.1760003 1.14961 2776216
0.093348995 -0.18539248 1.1554557 3171493
0.098552816 -0.18347597 1.1524661 3237026
-0.095164634 -0.16261959 1.1471257 2710424
-0.089070991 -0.16519584 1.1512904 2710937
0.096544661 -0.17903851 1.1587901 3302823
0.10320972 -0.17535216 1.1558341 3172005
0.10920881 -0.17256895 1.1551765 3172006
-0.1030485 -0.15074417 1.1442429 2841498
-0.098974764 -0.15350895 1.1493093 2907290
0.10603638 -0.16853425 1.159063 3303592
0.11251722 -0.16553879 1.1579288 3237544
0.11913197 -0.16158952 1.1514596 3303337
-0.10435499 -0.14219013 1.1458882 2973342
-0.10016601 -0.14556316 1.1523236 3038879
0.11658717 -0.15800568 1.158703 3237544
0.1212671 -0.15525909 1.1543096 3303336
-0.11164254 -0.1301769 1.1448991 2973342
-0.10592736 -0.13368656 1.1495976 2973600
0.12518007 -0.14635153 1.1556079 3368872
-0.1127868 -0.12222877 1.1461902 3039392
-0.10760259 -0.12335533 1.1520114 3236259
0.12699069 -0.13700117 1.1573873 3500460
0.13174251 -0.13484845 1.1517808 3434923
-0.11332026 -0.11253533 1.1466779 3170978
0.12853891 -0.12814805 1.1583258 3500719
0.13348113 -0.12594563 1.1551434 3500718
-0.11910212 -0.10100429 1.1435633 3237029
-0.11557473 -0.10258251 1.1496855 3237286
0.13426271 -0.11711612 1.1579134 3697329
-0.11857243 -0.092235513 1.1435519 3237543
-0.11623542 -0.091930956 1.1511306 3172263
0.13604388 -0.10809626 1.1574363 3697843
-0.11839038 -0.082587987 1.1465284 3303340
-0.1164169 -0.081626378 1.1515917 3303852
0.1364356 -0.097654581 1.1578155 3764149
-0.11776786 -0.072849095 1.1435153 3500716
-0.11523268 -0.071622834 1.1515975 3501229
0.14004564 -0.087418534 1.1564697 3764661
-0.1169171 -0.064833105 1.1435169 3566512
-0.11368792 -0.061594147 1.1479768 3632306
0.13768975 -0.07704933 1.1562592 3896764
-0.11250746 -0.052027125 1.147984 3698357
0.1322533 -0.06665954 1.1582471 4291265
0.13618614 -0.068074957 1.1528521 4225217
-0.11034527 -0.04313387 1.1476613 3764408
0.1336346 -0.05712314 1.1575938 4554434
0.13644363 -0.057025608 1.1516812 4488640
-0.10677636 -0.032616455 1.1485431 3895997
-0.1025753 -0.029660329 1.1518711 4027323
0.13392724 -0.046324577 1.1565679 4817354
-0.10454994 -0.023203962 1.1451162 3962044
-0.10069966 -0.022221431 1.1511072 4093118
0.12526831 -0.033444885 1.159248 5014224
0.13061404 -0.03650992 1.1554285 4751563
-0.10278366 -0.012881823 1.1438059 4290235
-0.098052047 -0.013033219 1.1484951 4158908
-0.091859244 -0.011106633 1.1521574 4028609
0.12409014 -0.026324794 1.1574081 4817874
0.13094454 -0.026459828 1.1524051 5145287
-0.09520372 -0.0065477863 1.1464317 4487616
-0.089813158 -0.0041997284 1.1508672 4356800
0.1160185 -0.013300158 1.1568829 5276623
0.12228364 -0.016700551 1.15338 5604813
0.13163742 -0.018486552 1.1522906 6720449
-0.08733765 0.0026516095 1.1522591 5671109
0.11445298 -0.0076282471 1.1582432 5802961
0.12089156 -0.0087924972 1.1543577 6787017
0.039485261 0.0127194 1.1563259 12972031
-0.014976273 0.025935844 1.1525218 5869264
0.017065173 0.020349935 1.1555766 7515376
0.024519678 0.019530676 1.1558201 8764660
0.034077935 0.01851061 1.1561325 10146554
0.040634446 0.017080933 1.1563489 10870005
-0.071874253 0.037690066 1.1446414 8028800
-0.066739745 0.037746809 1.1448072 7305855
-0.010591724 0.026819624 1.1546617 5671370
-0.007282353 0.026619852 1.1547693 5869265
0.015883254 0.025221437 1.1555226 6988787
0.02029575 0.024955064 1.1556661 7185904
0.10687282 0.02859053 1.1584529 6314850
-0.065220863 0.042666636 1.1448405 8028802
0.10399742 0.032308839 1.1583478 6117979
0.080987304 0.044230379 1.1495613 5593178
0.083178356 0.044098116 1.1496326 5658970
-0.025354218 -0.21452406 1.1589669 2973083
-0.019886494 -0.21596567 1.1591482 2973595
-0.010475122 -0.21610186 1.1601199 2973598
-0.044609845 -0.20224625 1.1583048 2842012
-0.038328655 -0.20401487 1.1585135 2776219
-0.029208004 -0.20704851 1.1603427 2907806
-0.019771338 -0.20899788 1.1622889 2907807
-0.0092759179 -0.21017277 1.1628076 2973599
-0.0001888806 -0.20838115 1.1604275 3039136
0.010567929 -0.20803767 1.1614411 3170723
0.020552017 -0.20852166 1.1610984 3236770
0.03037753 -0.20865405 1.1607493 3170979
0.03941609 -0.20898592 1.1610426 3170980
0.046157986 -0.20772558 1.1612564 3171236
-0.055143874 -0.192718 1.1579335 2842012
-0.048634011 -0.19537887 1.1596078 2842011
-0.039210938 -0.19820946 1.160929 2842012
-0.031079303 -0.20015049 1.1627374 2907805
0.015209566 -0.20433897 1.1642472 3302309
0.021314397 -0.20355015 1.1632985 3302308
0.02999898 -0.20395479 1.1622226 3171236
0.040757176 -0.20517647 1.1610736 3171236
0.051387444 -0.20444006 1.1630824 3105443
0.061324652 -0.20311445 1.1627322 3171492
0.068004549 -0.20163408 1.1619428 3040420
-0.075506419 -0.18037337 1.1572354 2841497
-0.066933677 -0.18364441 1.1580566 2907291
-0.05871832 -0.18679422 1.159682 2907549
-0.052198853 -0.18837261 1.1620166 2907551
0.064752795 -0.19617611 1.1658221 3040420
0.071925461 -0.1947667 1.1641537 3106213
0.079953246 -0.19264792 1.1623 3106214
-0.076679938 -0.17380138 1.1591772 2907290
-0.070330299 -0.1770674 1.1608938 2973340
0.076397099 -0.18795617 1.166172 3302823
0.082650006 -0.18594742 1.1639664 3237030
0.088975407 -0.18291605 1.1643389 3237031
-0.093119904 -0.15930235 1.156598 2841497
-0.084969297 -0.16327977 1.1574079 2842012
-0.079078108 -0.16587248 1.1600746 2907547
0.094639719 -0.1755605 1.1636431 3368361
0.099938124 -0.17262387 1.1628813 3237285
-0.094238997 -0.15330656 1.1565424 2973085
-0.087575935 -0.15393052 1.159498 3039135
0.097404964 -0.16858055 1.1627864 3368615
0.10409168 -0.16564682 1.1637206 3237799
0.10887562 -0.16260374 1.1631378 3303337
-0.10083798 -0.1399402 1.1562859 2973857
-0.0956847 -0.14378577 1.1580212 3039137
-0.089897402 -0.14501449 1.160658 3104930
0.10648727 -0.15827607 1.1650476 3172264
0.11291309 -0.15576984 1.1639132 3238059
-0.10156433 -0.13167778 1.1572362 3039650
-0.097906217 -0.13549663 1.1603683 3105700
0.11668382 -0.14623412 1.1654922 3369132
0.1209484 -0.14665937 1.1634765 3434410
-0.10382093 -0.12296185 1.1578497 3171236
0.11902712 -0.13823716 1.1665888 3500719
0.12256924 -0.13614419 1.1654959 3435183
-0.11016777 -0.11047689 1.155889 3302823
-0.10573288 -0.11272441 1.1587077 3171495
0.12394418 -0.12611151 1.165326 3566514
-0.1114368 -0.1017473 1.1572751 3368873
-0.10789334 -0.10313766 1.1591405 3368875
0.12724076 -0.11710186 1.1643847 3697588
-0.11183126 -0.092639096 1.1584456 3303850
0.12929872 -0.10760545 1.1670505 3763892
0.13266841 -0.10712903 1.1637275 3698099
-0.11252198 -0.082374454 1.1573229 3435181
-0.10678714 -0.083207853 1.1599122 3435438
0.13090809 -0.097556643 1.1676418 3829942
0.13387361 -0.097189479 1.1648778 3764149
-0.11091794 -0.072779708 1.1577439 3501229
0.13171366 -0.084220961 1.1676247 3896505
0.13599606 -0.087370113 1.1655903 3830455
-0.10971157 -0.062974006 1.1572895 3632563
-0.10537737 -0.059870422 1.1598823 3567542
0.1298746 -0.076941572 1.164969 4027837
0.13492484 -0.080810525 1.1637154 3896505
-0.10834116 -0.052979968 1.1570963 3829940
-0.10497458 -0.053202581 1.1598738 3699127
0.12891617 -0.067250893 1.1661453 4291009
-0.10729484 -0.042884123 1.1565639 3895737
-0.10367814 -0.04228659 1.1598804 4027576
0.12983854 -0.057250116 1.1654758 4422849
-0.10568534 -0.03627412 1.155794 4158911
-0.1010496 -0.032845434 1.1579338 4093372
0.1303862 -0.047521565 1.1649618 4817355
-0.096728176 -0.023690566 1.1575822 4093630
-0.091853365 -0.020533882 1.1601924 4094397
0.12357552 -0.036341984 1.1654282 5080014
0.12795791 -0.039818652 1.1633577 4883149
-0.094105199 -0.016224369 1.1561036 4028348
-0.089504115 -0.013938077 1.1577457 4028864
0.11968962 -0.026446618 1.1648259 4949202
-0.085381486 -0.0045761913 1.158167 4029123
-0.08110822 -0.0025932118 1.1604817 3963586
0.11418471 -0.01623024 1.1655042 5146069
0.11743909 -0.020843215 1.1629564 5080276
-0.084045552 0.0031761378 1.156366 5342665
-0.07693933 0.0049054474 1.1605922 4882633
-0.013400766 0.0048449188 1.1626462 6070261
-0.0067364154 0.0044426173 1.1628629 6528744
-7.2061084e-005 0.0040403157 1.1630796 8827627
0.015478092 0.0031016096 1.1635853 10340848
0.02416686 0.0019397438 1.1638699 8895736
0.031614125 0.00078910589 1.1641144 6266608
0.10591164 -0.0029165 1.1655273 5475287
0.11022492 -0.0067033544 1.1640115 5475028
-0.073048264 0.010669954 1.1586983 5999306
-0.066336013 0.011376306 1.158913 5540557
-0.057564888 0.014186963 1.1585203 5803727
-0.044857755 0.015171021 1.1615959 4950220
-0.035983671 0.013508722 1.1618882 5016280
-0.026304491 0.012311682 1.1618047 5411294
-0.016221132 0.011687048 1.1602917 5806569
-0.0063076774 0.011103533 1.1622549 7120874
0.0032845261 0.011273414 1.1631647 12379901
0.013904763 0.010103837 1.1609842 13891069
0.023705188 0.0092722699 1.1606296 12969723
0.033623081 0.0089121684 1.161836 9946095
0.043644793 0.0080757141 1.1625656 10013177
0.053480066 0.0093657076 1.1626384 7449069
0.060163427 0.01081413 1.1650047 5411552
0.10329047 0.0011359379 1.1639287 6526426
-0.042584773 0.019990958 1.1616539 6264275
-0.034878347 0.020327583 1.1594006 5803990
-0.025236633 0.020374842 1.1582114 5345755
-0.015176521 0.021031655 1.1585344 5412839
-0.0055885883 0.021047696 1.1593446 5676266
0.0032965625 0.019591331 1.1619948 7253489
0.013155507 0.018811978 1.1604578 8436213
0.023009885 0.015980326 1.159785 12051453
0.037667513 0.019541673 1.1602473 10082302
0.045445178 0.01833114 1.1605027 10607102
0.053859543 0.016976312 1.160779 7515119
0.060801893 0.015944101 1.1623408 6068200
-0.003021094 0.026444055 1.1589098 6001365
0.0014066054 0.026176773 1.1590538 6396124
0.11399667 0.025160164 1.1626964 6447199
-0.016220223 -0.20538478 1.1672368 3039391
-0.0087082824 -0.20526314 1.16898 3039135
0.0027267179 -0.20652853 1.1678529 3104930
-0.04452429 -0.19248441 1.1662802 2776478
-0.038280938 -0.1937561 1.1684872 2842271
-0.02857013 -0.19598198 1.1709912 2907807
-0.019492894 -0.19839206 1.1718066 2908063
-0.0095840609 -0.19984013 1.1732364 2973600
0.00078760274 -0.19948253 1.1731036 3105187
0.010744062 -0.19973294 1.1725062 3236773
0.020529717 -0.19898269 1.1721393 3237029
0.031444851 -0.19972728 1.1725612 3171237
0.041091468 -0.20126402 1.1705767 3171236
0.050702907 -0.20028251 1.170307 3105444
0.059650209 -0.19933262 1.1696696 3171493
-0.056258898 -0.18288532 1.1690716 2841758
-0.048342645 -0.1856738 1.1701368 2907551
-0.039610654 -0.18730599 1.1732494 2842271
-0.029058866 -0.18913236 1.1747735 2908064
-0.022393927 -0.19066152 1.1749939 2973857
-0.0010735067 -0.19194856 1.1756872 3105444
0.011828901 -0.19172582 1.1761035 3237030
0.021856902 -0.19274874 1.1756306 3302823
0.031547595 -0.19255105 1.17582 3171495
0.040988278 -0.19170956 1.1756539 3105703
0.050667182 -0.19255322 1.1757607 3105703
0.06054322 -0.19265267 1.1741792 3105702
0.069099247 -0.19066373 1.1716622 3105958
-0.066997945 -0.17452675 1.1671436 2973598
-0.059265267 -0.1767121 1.1717559 2907551
-0.04957315 -0.17916124 1.1740782 2908065
0.062713213 -0.18435769 1.1777245 3237288
0.071635418 -0.18418437 1.1755666 3302823
0.080499195 -0.18267667 1.1728624 3237287
-0.07574062 -0.16270825 1.1680336 3105183
-0.068603441 -0.16651541 1.1715388 2974112
-0.060515422 -0.16920452 1.1736923 2842786
0.073453002 -0.17751706 1.1780494 3171750
0.082323819 -0.17443751 1.1769922 3172008
0.090617597 -0.17318496 1.1729206 3303081
-0.083192445 -0.15256071 1.1655682 3104930
-0.077313855 -0.1552334 1.1717701 3170978
0.085266881 -0.16625386 1.1783949 3303337
0.093191519 -0.16521248 1.1763965 3368873
0.10029976 -0.16433673 1.1734172 3237543
-0.092297204 -0.13919701 1.1672318 3040164
-0.085852399 -0.14334846 1.168577 3105701
-0.079889596 -0.14812802 1.172998 3302822
0.095232151 -0.15629561 1.1786848 3303597
0.10290582 -0.15433247 1.1745605 3238059
0.11020037 -0.15171099 1.1731507 3303852
-0.094387203 -0.13272308 1.1682551 3106213
-0.086899281 -0.13521607 1.1727296 3172007
0.10421623 -0.14531995 1.1787397 3369387
0.11227368 -0.14557135 1.1751989 3435181
-0.1008279 -0.12208089 1.1655667 3237030
-0.094450451 -0.12313536 1.1701119 3237800
-0.088371299 -0.12695785 1.1726553 3303594
0.10638929 -0.13939092 1.1789908 3500972
0.11514235 -0.13563713 1.1760099 3500976
0.12014386 -0.13303593 1.1714107 3500977
-0.10146392 -0.1127658 1.1672947 3237545
-0.097040802 -0.11469612 1.1714461 3303852
0.11739519 -0.12623313 1.1793041 3566772
0.12081921 -0.12677632 1.1754143 3566515
-0.10338945 -0.10292187 1.1673397 3369389
0.11882501 -0.11676839 1.1793197 3763639
0.12239525 -0.11605275 1.1745412 3763639
-0.10926221 -0.08870697 1.1651862 3435181
-0.10422916 -0.092700981 1.1686016 3435438
0.12013474 -0.10574034 1.1793264 3895737
0.12528241 -0.10593744 1.1743141 3764149
-0.10840699 -0.082268745 1.1662602 3435438
-0.10321715 -0.083209462 1.1704948 3501231
0.12047385 -0.10012677 1.1793191 3961530
0.12624763 -0.096494079 1.1743149 3961528
0.13371414 -0.093564801 1.1717217 3895735
-0.10758774 -0.073048882 1.1668572 3501489
-0.10340943 -0.073074922 1.1698763 3501490
0.12155898 -0.082163334 1.1792963 4159679
0.12712759 -0.087190509 1.1747626 3962041
0.13384886 -0.091334581 1.1717188 3895735
-0.10758071 -0.065695807 1.1658332 3501747
-0.10267705 -0.062792443 1.1686504 3567541
0.12119521 -0.075756133 1.1792637 4225473
0.12497914 -0.076492809 1.1753862 4159424
-0.10026045 -0.05276927 1.1676289 3764919
0.12148088 -0.066884108 1.1792443 4422597
0.12558746 -0.066422597 1.1753733 4357059
-0.099174164 -0.043044686 1.167461 3896505
-0.094573826 -0.043199599 1.1721841 3962298
0.12199673 -0.056273166 1.1792266 4685767
0.12619577 -0.056352396 1.1753604 4422851
-0.097106986 -0.034029156 1.1656692 4027836
-0.092169702 -0.032552756 1.1711359 4028094
0.12083331 -0.045592591 1.1770357 4948684
0.12676193 -0.047856342 1.1723498 4751818
-0.094873913 -0.026045352 1.1641147 4093632
-0.08929611 -0.02291847 1.1701342 4094399
0.11465974 -0.034796495 1.17892 5080784
0.11905324 -0.036136977 1.1742638 5211343
-0.085498206 -0.014691629 1.1687469 4094402
-0.078885451 -0.01201798 1.1715899 4226244
-0.072340913 -0.010737464 1.1727978 4620744
-0.018410988 -0.012866206 1.1745479 5412064
0.0040315557 -0.014220975 1.1752777 6463211
0.011853077 -0.018537551 1.1755445 6397929
0.021556599 -0.018481411 1.1758579 6397929
0.030885097 -0.017129816 1.1761551 6003432
0.11230296 -0.025361463 1.1763121 5081042
0.11749228 -0.028792538 1.170988 5081041
-0.07689178 -0.004318662 1.1664933 4160963
-0.068947814 -0.0038534999 1.1720276 4752075
-0.053776491 -0.0017168522 1.1733687 4949201
-0.047077645 -0.0026846454 1.1735884 5016022
-0.037564628 -0.0043814778 1.1732343 5213659
-0.027793221 -0.0058778673 1.1729906 5411552
-0.018031228 -0.0072499961 1.1737416 5740773
-0.0079727462 -0.0078622848 1.1748691 6003172
0.0021383706 -0.008470118 1.1747977 6331366
0.012298539 -0.009061195 1.1725266 6989552
0.022363795 -0.0096724853 1.1732541 6792432
0.032448098 -0.010274522 1.1729317 5937640
0.040898789 -0.0098652169 1.1754547 5806054
0.051635642 -0.0092070177 1.1768003 5674725
0.058436222 -0.0084907189 1.1770177 5674983
0.10401033 -0.013777182 1.1785079 5146841
0.11007468 -0.016216397 1.1729945 5080789
-0.07292632 0.0039666817 1.1647271 4554184
-0.069534577 0.0045937002 1.1678363 4751049
-0.054397982 0.0039521456 1.1713293 4818129
-0.046946581 0.0035035983 1.1707711 5015507
-0.037317693 0.002931729 1.1676824 5147609
-0.027191095 0.0023232251 1.166711 5346018
-0.017680239 0.0013694689 1.169634 5937898
-0.0073075956 -4.2170286e-006 1.1701961 6462952
0.0031982204 0.00010954589 1.1696459 8303605
0.012577021 -0.00056111813 1.1689348 8501495
0.022378802 -0.0021336377 1.1684431 7252467
0.033667069 -0.0022702664 1.1696481 6069484
0.042831905 -0.0017328113 1.1708043 6135528
0.052797422 -0.00271485 1.1742271 5741031
0.062125616 -0.0030797124 1.176119 5543655
0.071628571 -0.0023528859 1.1774243 5477092
0.081750177 -0.0016348287 1.1777492 5739747
0.09308105 -0.0025692508 1.1781183 5280481
0.10224099 -0.0057569742 1.1747305 5015513
0.10767285 -0.0080634952 1.1726046 4949463
-0.065835007 0.01025366 1.1649359 4818122
-0.056363571 0.010676704 1.1652408 5147606
-0.047650129 0.010896824 1.1655217 4818639
-0.039086387 0.0086389408 1.1658058 5344472
0.005528342 0.0065053031 1.1672548 12971007
0.0099527668 0.0056786239 1.1674005 12905215
0.034472335 0.0041984618 1.1681979 5807584
0.047846649 0.0033911094 1.1686327 6004710
0.053954668 0.0039816871 1.1688282 5807083
0.062806472 0.0059305429 1.1712426 5477863
0.071182586 0.0049919412 1.1740509 5542628
0.082679108 0.0013139024 1.1777697 5673698
0.093389973 0.00262779 1.1766108 5804766
0.099114843 0.00029623508 1.1702999 5147865
0.06635268 0.013465725 1.1691984 5412324
-0.015989255 -0.19396833 1.1792136 3039650
-0.0095942719 -0.19500042 1.1794237 3039650
-0.035779603 -0.18485929 1.1785445 2842271
-0.029024038 -0.18526711 1.1787642 2973857
-0.018829528 -0.18697433 1.1803631 2973857
-0.0092466967 -0.18930724 1.1819441 3039395
0.0015291339 -0.18802059 1.1815394 3171237
0.010922299 -0.1871677 1.1811287 3237030
0.021261819 -0.1872398 1.1819352 3302569
0.029579543 -0.18788362 1.1820009 3237546
-0.054771032 -0.1732142 1.177893 2908065
-0.047269553 -0.17463613 1.17814 2973857
-0.038746424 -0.17691642 1.1794235 2973857
-0.029173475 -0.17939749 1.1808591 2973858
-0.021010991 -0.18071845 1.1830106 3105444
0.010621401 -0.18262798 1.1840392 3237030
0.022386301 -0.18182559 1.1844169 3302825
0.031334531 -0.18191019 1.1843985 3171754
0.041192297 -0.1830267 1.1830276 3171752
0.051556356 -0.18322885 1.1827748 3171753
0.060175724 -0.18062624 1.1826329 3237546
0.068554305 -0.17872065 1.181897 3303592
-0.065352738 -0.16309969 1.1775182 2908579
-0.05737358 -0.16575275 1.1797857 2908579
-0.047679856 -0.16780943 1.1810154 3105444
-0.039190926 -0.17009169 1.1823885 3105443
0.055227041 -0.17624514 1.1854603 3303339
0.063421883 -0.17446391 1.1843854 3303082
0.071993895 -0.17287168 1.182561 3237545
0.078106135 -0.17025226 1.1821785 3303850
-0.073679656 -0.15129077 1.1772109 3302822
-0.067414939 -0.15597948 1.1796798 3040165
-0.060588721 -0.16017823 1.1816648 3040167
0.067070574 -0.16788454 1.1858162 3303598
0.073390424 -0.16426481 1.1850671 3238061
0.082122415 -0.16272818 1.1833956 3303596
0.089977868 -0.1607933 1.1825316 3369131
-0.082802556 -0.14018756 1.1768801 3171751
-0.076656625 -0.14419653 1.1785042 3368615
-0.070073478 -0.14826125 1.1813197 3171751
0.092136383 -0.15433447 1.1840813 3369134
-0.084347606 -0.13302788 1.176807 3369130
-0.078458086 -0.13534321 1.1800065 3434922
0.093792483 -0.14474934 1.1856523 3435183
-0.085593484 -0.1243367 1.1780727 3434923
0.0969612 -0.13783249 1.1858847 3501232
0.10391461 -0.13511483 1.1854887 3435694
0.11081991 -0.13378583 1.183118 3501232
-0.093114205 -0.11271901 1.1774585 3369646
-0.087689221 -0.11680532 1.1793146 3435182
0.10814427 -0.12612081 1.1870089 3567282
0.11234284 -0.12584145 1.1849607 3567027
-0.10068749 -0.099536031 1.1761706 3501231
-0.096439071 -0.10372683 1.179073 3435439
0.10862224 -0.11820857 1.1869987 3829686
0.11394188 -0.11571405 1.1853839 3829431
-0.10048334 -0.096156485 1.1761663 3501231
-0.095965393 -0.093180865 1.1779703 3567024
0.11679521 -0.10648845 1.1858909 3830201
-0.099632703 -0.08207503 1.1761483 3632818
-0.096518792 -0.08298222 1.1782529 3698612
0.11956926 -0.096026666 1.1852798 3896507
-0.099054269 -0.072499633 1.176136 3633333
-0.09532059 -0.072917596 1.1790595 3764919
0.12003689 -0.085828386 1.1847616 4093886
-0.098973848 -0.063685611 1.1761101 3633334
-0.094992489 -0.062986627 1.1794382 3830201
0.11759718 -0.076037802 1.1853738 4291523
-0.093899369 -0.052733641 1.1779063 3896506
0.11776097 -0.065544754 1.1847225 4619975
-0.090052471 -0.043397337 1.1780481 4028348
0.11251421 -0.053780358 1.1869162 5146320
0.1168308 -0.056267206 1.1860633 4883148
-0.087724797 -0.034107309 1.176664 3962814
-0.082756899 -0.03304239 1.1793939 3963072
0.11210512 -0.044914138 1.1853735 5146577
0.11582642 -0.046766683 1.1834987 5080527
-0.085796781 -0.025135301 1.1764115 4028607
-0.079596043 -0.023756914 1.1787418 4291526
-0.029732246 -0.024773523 1.1822245 5147865
-0.02226238 -0.024997562 1.1824667 5344731
-0.0059396708 -0.025075346 1.1829946 5345501
0.00083869975 -0.025484525 1.183215 5739743
0.010903358 -0.028329611 1.1822155 5936862
0.019926118 -0.028882124 1.1828425 5871068
0.030143354 -0.028387986 1.1841717 5739228
0.048287291 -0.028348826 1.1847579 5213656
0.11077188 -0.035935666 1.1852014 4949970
-0.077304378 -0.016433373 1.1766578 4422856
-0.068663195 -0.01218152 1.1787425 4686797
-0.058255222 -0.011679314 1.1792592 4884690
-0.048018329 -0.013736293 1.1810975 4950486
-0.037606105 -0.015126362 1.1806048 5213659
-0.029066797 -0.016817927 1.1790187 5279707
-0.019011147 -0.018563837 1.1797496 5345244
-0.0087683899 -0.017546996 1.1799884 5411808
0.0010073865 -0.019253209 1.1801078 5806052
0.010162787 -0.022938289 1.1795061 6068964
0.022149999 -0.024038784 1.1798971 6068963
0.03227729 -0.022263885 1.1811423 6003173
0.040789604 -0.021054983 1.1822909 5608417
0.050946258 -0.021676645 1.1832216 5411038
0.057734799 -0.022112481 1.1850432 5279709
0.10245817 -0.02305349 1.1855683 5212630
0.10793086 -0.026983358 1.1840134 5015248
-0.064571194 -0.006743744 1.1770381 4949712
-0.05781563 -0.007151559 1.1772578 4949713
-0.04768227 -0.0077632666 1.1775873 5016279
-0.038322225 -0.008705169 1.1778929 5213659
-0.029735476 -0.0099772662 1.1781745 5345501
0.042920891 -0.013797961 1.1805354 5871590
0.051399376 -0.013744466 1.1808093 5871847
0.061702631 -0.012127161 1.1831381 5543139
0.069030002 -0.011437945 1.1836586 5280225
0.093439184 -0.012923419 1.1861676 5411294
0.09928418 -0.014695592 1.1838155 5279196
0.071613491 -0.0064850301 1.1814392 5411556
0.081285954 -0.0053729787 1.1817483 5412066
0.092545241 -0.0060526654 1.1821144 5477344
0.099164695 -0.0087135062 1.1823369 5213404
-0.0081550507 -0.18477124 1.1874413 3105189
-0.028000209 -0.17509094 1.1877692 3039906
-0.018464431 -0.17780444 1.1885149 3039908
-0.009083678 -0.17953146 1.1907295 3105447
0.0016310774 -0.17940339 1.1884907 3105702
0.010793153 -0.17870609 1.1880343 3171750
0.019783251 -0.17883489 1.1883253 3237289
0.031333692 -0.17766954 1.1886948 3237548
0.041535456 -0.17828539 1.1890266 3171752
0.050603684 -0.1788328 1.1893215 3171752
-0.054864328 -0.1619941 1.1858579 3039909
-0.047105879 -0.16319391 1.1870019 3105701
-0.039181806 -0.16632479 1.1889256 3105443
-0.02997712 -0.17228216 1.1906977 3040163
0.00078577083 -0.17322555 1.1916951 3105960
0.012226279 -0.17279947 1.1920636 3105958
0.021419851 -0.17184129 1.1915572 3237545
0.031893171 -0.17141199 1.190799 3237547
0.041948028 -0.17170613 1.1906195 3237544
0.051999718 -0.17208517 1.1910299 3237545
0.060784839 -0.17062497 1.190291 3303339
-0.065517627 -0.15190347 1.185481 3172009
-0.057382952 -0.15556151 1.188157 3105961
-0.048254073 -0.15833053 1.1900618 3171752
0.035538059 -0.16481635 1.1927912 3303337
0.042362038 -0.16522828 1.1930132 3303593
0.052494448 -0.16486102 1.1933395 3303594
0.061878543 -0.16280958 1.1923856 3303596
0.068864711 -0.16172302 1.1898564 3238062
-0.072371744 -0.14295278 1.1852305 3434409
-0.066841096 -0.14504921 1.188241 3237547
-0.058702361 -0.14791429 1.1896905 3237805
0.063238077 -0.15557534 1.1936567 3238318
0.072726488 -0.15321124 1.1928352 3238572
0.08289434 -0.15361233 1.1914843 3434926
0.089455098 -0.15340462 1.1904951 3369134
-0.074202344 -0.1337921 1.1863731 3435179
-0.068468899 -0.13614936 1.188892 3369388
0.077719249 -0.14680532 1.1940964 3500977
0.083573684 -0.14361452 1.1932749 3435186
0.089114614 -0.14397447 1.1904535 3500720
-0.08204291 -0.12255695 1.1858525 3566511
-0.076581195 -0.12576883 1.1877069 3566767
-0.069583669 -0.12877658 1.1892768 3500977
0.08547841 -0.13608187 1.1938124 3501234
0.093585186 -0.13412854 1.1913166 3501490
-0.090788476 -0.10883155 1.1845249 3566770
-0.0844042 -0.11380539 1.1873487 3632306
-0.078132398 -0.11912392 1.1889694 3632563
0.095845819 -0.12558262 1.1932013 3699127
0.10341831 -0.12475294 1.1913246 3633076
-0.091689542 -0.10317714 1.185478 3566770
-0.085849516 -0.10442608 1.1886723 3763892
0.097238183 -0.11657655 1.1946297 3633335
0.10411116 -0.11479615 1.1924003 3764407
-0.091271371 -0.093101352 1.1872599 3698868
-0.087013021 -0.0939698 1.1886009 3699126
0.098528631 -0.10466267 1.1946329 3962811
0.1050855 -0.10514856 1.1936791 3830969
0.11287127 -0.10584057 1.1910982 3830714
-0.091781273 -0.083098762 1.1853331 3699126
-0.086662382 -0.083966091 1.1885799 3830712
0.10636397 -0.095266514 1.1942555 4028606
0.11461162 -0.095863916 1.1911222 3962300
-0.090652257 -0.073663175 1.1860164 3830970
-0.085820541 -0.073629476 1.1885737 3962813
0.1071619 -0.086238846 1.1948524 4291522
0.11516776 -0.08631333 1.1914731 4094399
-0.090349622 -0.063593909 1.186108 3962044
-0.085575938 -0.064181343 1.1885511 4093630
0.10939871 -0.075610012 1.1946235 4554438
0.11430909 -0.076657869 1.1910504 4357059
-0.089109346 -0.053607233 1.1857346 4093886
-0.08458323 -0.053146821 1.1885475 4291009
0.10822631 -0.064976186 1.1939287 4686026
0.11433667 -0.065439567 1.191015 4685769
-0.087020427 -0.046454839 1.184445 4159935
-0.081973694 -0.04428276 1.1874598 4225985
0.10155318 -0.054593988 1.1945688 5015248
0.10763562 -0.056241289 1.1921027 5014991
-0.078348704 -0.034666356 1.186806 4292037
-0.073183142 -0.037193358 1.1888645 4619977
-0.050024115 -0.031738944 1.1895953 5279449
-0.042062812 -0.032219537 1.1898543 5016538
-0.029620923 -0.034112677 1.1902626 4950743
-0.020221956 -0.036359586 1.1905737 4950488
-0.011136194 -0.0367513 1.1908686 5147351
-0.00065338891 -0.036432378 1.1912065 5278422
0.009780054 -0.039382108 1.1906638 5212886
0.019177828 -0.039286669 1.1901058 5278423
0.0291619 -0.039049827 1.190928 5147094
0.039973106 -0.040108502 1.1925315 4885460
0.049552266 -0.039180893 1.1921104 4950741
0.058649596 -0.03921283 1.1931323 5016279
0.10070615 -0.044673204 1.1931086 5212370
0.10809916 -0.046281781 1.1907514 5212369
-0.075847708 -0.027837411 1.1867471 4423370
-0.073573656 -0.024774335 1.1864104 4554187
-0.049247082 -0.026754446 1.1893376 5147610
-0.039311625 -0.026625805 1.1879241 5081818
-0.030363932 -0.029444844 1.1882224 5016538
