# .PCD v0.7 - Point Cloud Data file format
VERSION 0.7
FIELDS x y z rgba
SIZE 4 4 4 4
TYPE F F F U
COUNT 1 1 1 1
WIDTH 174
HEIGHT 1
VIEWPOINT 0 0 0 1 0 0 0
POINTS 174
DATA ascii
-0.062545888 -0.031396873 1.0876997 5134174
-0.056163557 -0.031873792 1.0850385 5134176
-0.062336016 -0.029234707 1.0918725 4871515
-0.072315127 -0.046134658 1.0770093 4936281
-0.062442135 -0.046900392 1.0728382 5199967
-0.05765244 -0.046704821 1.0719239 5397348
-0.079427719 -0.043064505 1.084277 4673880
-0.072150081 -0.041305184 1.0815037 4870232
-0.06266848 -0.041520789 1.0801028 5068382
-0.052915476 -0.041434973 1.0788374 5068384
-0.044882569 -0.041243821 1.0791494 4476504
-0.07859236 -0.037462562 1.0919844 4607822
-0.071808279 -0.035991326 1.0900741 4673623
-0.061129671 -0.035900317 1.0873607 5134174
-0.050756395 -0.035064846 1.0861864 4739419
-0.042984512 -0.036000997 1.085097 4081746
-0.077334851 -0.035036683 1.1000789 4410445
-0.069344193 -0.0315497 1.0980958 4213839
-0.059143484 -0.030897349 1.0966101 4345429
-0.049312606 -0.030686051 1.0943615 4016211
-0.041228242 -0.031540781 1.0930548 3621193
-0.067938372 -0.028987445 1.1027277 3884109
-0.058575269 -0.028153196 1.1018244 3752784
-0.048350073 -0.027766839 1.0998117 3621192
-0.041352861 -0.027982928 1.0974944 3686459
-0.081081636 -0.061367393 1.0726691 4673626
-0.0735875 -0.05895704 1.0690677 4870741
-0.064744785 -0.059297167 1.0664164 5265754
-0.054718047 -0.058797188 1.0652714 5397604
-0.045567293 -0.059794128 1.0673959 4608350
-0.08120212 -0.053730778 1.0789443 4673629
-0.073477186 -0.05219876 1.0750535 4870744
-0.0654542 -0.052296862 1.0719513 5134174
-0.052960448 -0.051447257 1.0716742 5397606
-0.044197954 -0.054430574 1.0726877 4476760
-0.037184786 -0.054221943 1.0760268 4015442
-0.086243339 -0.054129124 1.0894916 3883351
-0.083458737 -0.049387947 1.0865015 4475995
-0.051164232 -0.047791854 1.0768951 5068641
-0.041441128 -0.047751807 1.0788846 4082513
-0.034875553 -0.050910011 1.0807737 3752531
-0.083308861 -0.043714769 1.0949026 4079443
-0.038204849 -0.042936102 1.0862057 3621705
-0.033737969 -0.046600103 1.084691 3751503
-0.038835227 -0.038138658 1.092441 3490378
-0.071080975 -0.079660535 1.0597903 5002588
-0.067943364 -0.079541981 1.0591726 5528419
-0.080062836 -0.075576924 1.0702107 4739163
-0.073752999 -0.074046575 1.0649781 5002333
-0.064493164 -0.0737883 1.0628532 5397092
-0.054982197 -0.07369972 1.0634555 5332066
-0.048686933 -0.074391402 1.0640346 4740695
-0.081491612 -0.069133416 1.0715811 4082256
-0.075065359 -0.067867383 1.068444 5068120
-0.052272253 -0.068538353 1.0653871 5200736
-0.043439068 -0.068553299 1.0676954 4345175
-0.035903417 -0.069415063 1.0690433 4278096
-0.039748184 -0.061129659 1.0739596 4147028
-0.034596987 -0.064779662 1.074465 3819087
-0.03408397 -0.057969242 1.0793674 3687502
-0.06452173 -0.094679259 1.052984 5528423
-0.060214337 -0.094268367 1.0526215 5397348
-0.074077867 -0.086677812 1.0594182 4804702
-0.06488017 -0.085909739 1.0571471 5462626
-0.05524265 -0.087542087 1.0570549 5003105
-0.046648033 -0.086409651 1.0590093 4804440
-0.081353605 -0.08349926 1.0705578 3817824
-0.076567069 -0.081489444 1.0643388 4673622
-0.060837053 -0.080895089 1.0612425 5660265
-0.053352442 -0.079895549 1.0611713 5069150
-0.043814838 -0.080015466 1.0627816 4475986
-0.037817419 -0.077812567 1.0654672 4014924
-0.040315859 -0.075192116 1.0668426 4606547
-0.034256563 -0.074286357 1.0680807 3620428
-0.071136743 -0.10429348 1.0514627 4079956
-0.065092638 -0.10248872 1.048297 5266270
-0.058999363 -0.10408455 1.0485851 5002845
-0.073253751 -0.099754117 1.0564888 4079963
-0.066432744 -0.098916255 1.0518538 5330781
-0.055568017 -0.098945141 1.0525014 5002331
-0.051615711 -0.094574749 1.056335 5001816
-0.046936125 -0.0941502 1.0585548 4540755
-0.041649003 -0.089719884 1.0631337 4213074
-0.065408267 -0.11964642 1.0464413 5265766
-0.066338398 -0.11508048 1.0493006 5068639
-0.0576052 -0.11356431 1.0488478 4214103
-0.074020103 -0.10791024 1.0540229 1580089
-0.052881029 -0.10686038 1.0518287 4145996
-0.049387995 -0.10347186 1.056036 4212054
-0.071502648 -0.12302651 1.0481199 3618132
-0.066288158 -0.12333541 1.0461037 5199718
-0.059659157 -0.12257901 1.0457885 4214875
-0.068436332 -0.16471785 1.0011493 528927
-0.063517638 -0.16483977 0.99957895 1517876
-0.064437963 -0.18009624 0.99654657 4419983
-0.078463472 -0.17570511 1.0045069 1651559
-0.073388301 -0.17236735 1.0027051 1782104
-0.062160801 -0.17122884 0.99722791 4154236
-0.05611264 -0.17282566 1.0009258 3028033
-0.06880565 -0.17352454 1.0105851 2369321
-0.061594293 -0.17010078 1.0073611 2040105
-0.066258013 -0.16103369 1.0254759 4146252
-0.077703878 -0.18682921 1.0046761 5077683
-0.071580157 -0.18660265 1.0005097 4617364
-0.062395699 -0.18642952 0.99836159 4549258
-0.056698121 -0.18136151 1.0008302 6582660
-0.077440515 -0.17798553 1.0130507 7695014
-0.069237068 -0.17654511 1.0151231 2040625
-0.061184768 -0.17508349 1.0143265 2172202
-0.055309266 -0.17714933 1.0086943 2760198
-0.07311403 -0.19917633 0.99698842 4683677
-0.067525186 -0.19896516 0.99588829 3831442
-0.079673432 -0.19523399 1.0039468 3299734
-0.073272802 -0.19476339 1.0000296 4683420
-0.064829022 -0.19551532 0.99836522 3960460
-0.089489356 -0.24489947 0.94075358 3829135
-0.081444241 -0.24437347 0.93960428 4223637
-0.075408891 -0.24435228 0.93801153 3960467
-0.088846289 -0.24055418 0.94907993 3498881
-0.080563113 -0.23967497 0.94767165 3895695
-0.07261017 -0.23911646 0.94749635 3631246
-0.087381855 -0.23267962 0.95744717 3499128
-0.080399901 -0.23278537 0.95534992 4025235
-0.071393907 -0.23365498 0.95532125 3499655
-0.0855878 -0.22651353 0.96459657 3826560
-0.078925982 -0.22672684 0.96348238 4156303
-0.07089334 -0.22889745 0.96259522 3630985
-0.083520889 -0.22471651 0.97419327 3893387
-0.077193908 -0.2229508 0.97249097 4157333
-0.06965635 -0.22425969 0.97243977 3762828
-0.080307119 -0.22246566 0.98215359 3762325
-0.074773334 -0.21781638 0.98163384 4420507
-0.068418458 -0.21972626 0.98134208 3828877
-0.079309776 -0.21605676 0.99442101 4222878
-0.073009558 -0.21334891 0.98974824 4552347
-0.066643298 -0.21590587 0.98951572 3631755
-0.080493011 -0.20748079 0.99912179 3627913
-0.072532505 -0.20613383 0.99502647 4683676
-0.064953133 -0.20786545 0.99609357 3892613
-0.063207917 -0.20125693 1.0013043 3563127
-0.09191601 -0.25434774 0.93494451 3033484
-0.083606817 -0.25661823 0.93355459 2897991
-0.07366617 -0.25543728 0.9320882 3891064
-0.065945715 -0.25627872 0.93204111 2638186
-0.094641879 -0.24899274 0.94299597 666715
-0.084298804 -0.24963687 0.93893534 4813457
-0.070524991 -0.24775809 0.93888134 3499654
-0.063022584 -0.2506938 0.93926245 3561592
-0.093536526 -0.24370018 0.95305026 6722
-0.069186509 -0.24331282 0.94721496 3694979
-0.062462024 -0.24471933 0.94707006 3233144
-0.066039935 -0.23839971 0.95597428 3104639
-0.061058 -0.24103317 0.9565171 2640231
-0.065226138 -0.23389438 0.96456754 2907007
-0.06041589 -0.23780814 0.96567082 3099492
-0.085333526 -0.22900762 0.97957158 4089741
-0.064098895 -0.22975299 0.97315454 3496061
-0.059130546 -0.23317407 0.97539443 4278874
-0.08182124 -0.22514609 0.98617476 2972810
-0.063031815 -0.22583827 0.98275179 3757171
-0.059018753 -0.22942567 0.98269701 3748927
-0.079798311 -0.22240621 0.99098694 3630740
-0.061482206 -0.22118145 0.98842353 3953004
-0.084559985 -0.26412919 0.93057811 984897
-0.073684312 -0.26192948 0.93193662 4350584
-0.05981233 -0.25093806 0.95115846 4674411
-0.058277294 -0.24902785 0.95964491 6974583
-0.058289707 -0.24391797 0.96964449 3815753
-0.088163801 -0.23743345 0.98377758 5799072
-0.056365699 -0.23676862 0.97646844 5064001
-0.059112925 -0.2646223 0.95150083 7039097
-0.058369681 -0.26281735 0.95704418 7565430
-0.057756782 -0.25850424 0.96457791 8223350
-0.05733237 -0.25053394 0.96972466 9076613
