# .PCD v0.7 - Point Cloud Data file format
VERSION 0.7
FIELDS x y z rgba
SIZE 4 4 4 4
TYPE F F F U
COUNT 1 1 1 1
WIDTH 1132
HEIGHT 1
VIEWPOINT 0 0 0 1 0 0 0
POINTS 1132
DATA ascii
-0.067191035 0.010718592 0.99883163 6058377
-0.056121565 0.013783686 0.99667096 5467271
-0.050608143 0.017007276 0.99596143 5466762
0.072814479 0.01256483 0.99540609 5268360
0.081206374 0.010870881 0.99899626 5663111
0.089428224 0.0084126443 1.0007863 6517124
-0.048722066 0.019935474 0.99708402 5532297
-0.034850232 0.022136286 0.99504411 5204613
-0.028590746 0.024541907 0.99625623 5138821
-0.018928505 0.023692347 0.99386346 4876167
-0.011129376 0.026721291 0.99293888 5138310
0.00033199415 0.026547693 0.99300158 5138050
0.042993765 0.025901519 0.99323487 5006203
0.052626051 0.024830341 0.99370646 5202812
0.060659945 0.02334363 0.99343932 5203582
0.070394129 0.019267216 0.9974817 5597049
-0.025681645 0.029484674 1.0007485 5269636
-0.017140079 0.029926032 0.99826556 5204101
-0.0075532105 0.030082531 0.99667698 5072257
0.002269079 0.029656209 0.99626821 5006718
0.01184744 0.029406697 0.99502409 4875393
0.021467194 0.02950193 0.99806869 4875390
0.031939331 0.029270157 0.99830234 4874877
0.042122614 0.029013157 0.99731117 5006460
0.049307842 0.028150603 0.99866521 5202811
-0.098067574 -0.015445709 1.0067241 6980776
-0.091905363 -0.015341662 1.0055472 6129600
-0.096917175 -0.0087767839 1.009419 7570324
-0.089547932 -0.0059439316 1.0057166 6651024
-0.083222441 -0.00027819723 1.0048794 6781327
0.10018007 -0.0069151521 1.0060639 6854356
0.11174739 -0.0068983436 1.0079536 7111067
-0.078884058 0.0055060312 1.0057539 6583439
0.10326266 0.004275322 1.0063528 6845830
0.11146088 0.0016504526 1.0087178 7436672
-0.066398717 0.016383916 1.0078219 6321290
-0.060193822 0.017152362 1.0067962 5795463
0.082461908 0.014840901 1.00896 5860223
0.092093669 0.0099108368 1.0070355 6649473
0.099523813 0.0093778074 1.0113007 6977411
-0.066752739 0.020958759 1.0077121 7372164
-0.057299197 0.021051832 1.0065013 6123396
-0.047883902 0.025370136 1.0085119 5729669
-0.039336238 0.025819816 1.0085523 5336195
-0.032566089 0.027897343 1.003794 5270149
0.072616272 0.021962762 1.0045735 5532277
0.080064736 0.019196436 1.0095446 5860472
-0.048308417 0.030541092 1.0096014 6714755
-0.039242927 0.030403778 1.0096509 5794947
-0.028393466 0.031818628 1.0075336 5466498
-0.017891444 0.034178346 1.0063211 5466240
-0.0074084606 0.034599438 1.0075024 5334655
0.0030662948 0.034508467 1.0060549 5138044
0.012122225 0.03505902 1.0066726 5072252
0.021804128 0.034693867 1.0060428 5072247
0.031453133 0.033984378 1.0057425 5137530
0.041656807 0.033301979 1.0094701 5137788
0.050643608 0.029774882 1.0071046 5268347
0.11842617 -0.01457268 1.0155213 7374502
-0.097605906 -0.005000785 1.0181907 9214113
-0.088713557 -0.0013155118 1.0162003 6978442
0.11455951 -0.012567475 1.0154085 7112109
0.11910331 -0.0084078014 1.0158665 8686741
-0.086757541 0.0044537857 1.016553 7636109
-0.081337355 0.008425571 1.0154908 7437970
0.11929546 -0.00031043589 1.014854 9277068
0.085202448 0.016495891 1.0149019 5992060
0.091721699 0.014456972 1.0176151 6451580
0.098598093 0.013134643 1.0164586 6516347
-0.056432493 0.023837931 1.0138826 6254982
-0.052814685 0.028462395 1.019689 6648965
-0.036839768 0.026711985 1.0128393 5270660
0.06662681 0.027323656 1.016306 5662844
0.072473153 0.025876567 1.016502 5794679
0.081038199 0.022911415 1.0155811 5926261
0.089140534 0.019312799 1.0187925 6253428
-0.046578862 0.032838196 1.0142567 7043204
-0.037477557 0.033391163 1.014691 6188928
-0.027054243 0.036367789 1.0155349 5991293
-0.017254692 0.038373336 1.0155872 5794427
-0.0074656066 0.038155526 1.0148431 5597052
0.00073343795 0.037537709 1.0137098 5399930
0.010099756 0.037680894 1.0125463 5203324
0.020815508 0.037518591 1.0126048 5269365
0.033507824 0.037413254 1.0136713 5334394
0.042659484 0.036366984 1.0157664 5466234
0.049179453 0.034493908 1.0167198 5597049
0.066671908 0.030251496 1.0161685 5991033
0.071280986 0.030225672 1.0184798 6055795
-0.015262149 0.040278122 1.0153067 6056827
-0.0062506907 0.041432455 1.0187993 5859449
0.0021316372 0.041402265 1.0177393 5728377
0.011283886 0.040791303 1.0194134 5532027
0.021924222 0.040070131 1.019498 5532021
-0.094801679 -0.0031059608 1.0239786 7306630
-0.092819177 -0.0021531656 1.0239432 7438985
-0.075065769 0.015647754 1.0291964 7044228
-0.071130641 0.015398785 1.0262234 6255491
0.093929112 0.017132096 1.0239234 6187632
0.099346936 0.017541446 1.02393 6119529
-0.056549989 0.027372323 1.0227257 6780808
0.062118366 0.027933709 1.0232637 5465215
0.08569818 0.022697009 1.028628 6056820
0.091804177 0.02182705 1.026996 5988198
-0.044028465 0.035438478 1.0224056 7108737
-0.037633721 0.038379252 1.0256013 7108222
-0.029212698 0.03914544 1.0223016 6582396
0.053638332 0.035300896 1.0251291 5859705
0.058970287 0.033309147 1.0239968 5728122
-0.024647627 0.042579204 1.0246644 6713719
-0.018224299 0.043464139 1.0260549 6450807
-0.010000482 0.043484181 1.0244412 6122104
0.0018474264 0.044288978 1.0244596 6122617
0.014180489 0.044635341 1.0249192 6057083
0.020501541 0.044428051 1.0258933 6057334
-0.080105111 0.014638811 1.0322232 7832202
0.085393898 0.026294932 1.0324616 5792617
0.088370651 0.026249841 1.032478 5724767
-0.036439396 0.042019904 1.031142 7764863
-0.016533274 0.04568401 1.0310642 6384242
-0.0076030083 0.045548737 1.031113 6121843
0.16394421 -0.083493568 1.0570247 13950701
0.16697526 -0.083539478 1.0570413 13160147
0.16601154 -0.080496445 1.0568935 13423577
0.16484186 -0.09284991 1.0644772 12898285
0.16881821 -0.093910739 1.0640455 12832198
0.16349494 -0.086963668 1.0623345 10136266
0.17025238 -0.08753895 1.062501 13159885
0.16393557 -0.08062984 1.0633972 12175571
0.16931191 -0.079812646 1.0598803 13093836
-0.14053494 -0.10797384 1.0755501 1720740
-0.14119887 -0.10108456 1.0750105 3628972
-0.14214337 -0.094849274 1.076126 4745397
0.16410893 -0.094197355 1.0735472 6256041
0.16861239 -0.096936196 1.0738978 12767188
0.16248894 -0.085004076 1.075109 7312841
-0.13888368 -0.13165426 1.0878851 2903988
-0.13576692 -0.13170147 1.0879022 1324707
-0.14015624 -0.11965017 1.0865632 2904505
-0.13870141 -0.11098415 1.0848106 2644141
0.16379169 -0.11340228 1.0884655 5801403
0.16821909 -0.11381534 1.088506 11779799
-0.13821 -0.099996448 1.0823936 3039906
0.16309336 -0.10435017 1.0870349 3630254
0.16930395 -0.10529125 1.0865198 11516624
0.17638654 -0.10528888 1.0881435 13685195
-0.14058343 -0.090891577 1.0843201 2708908
0.16300955 -0.095929623 1.0857621 3762605
0.16771072 -0.099839903 1.0848423 10465738
0.1632925 -0.089322396 1.0813228 6721740
-0.13798848 -0.073538616 1.0851537 1588628
-0.13487175 -0.073585831 1.0851707 3826867
-0.13259512 -0.14681739 1.0946356 3694011
-0.13745973 -0.14031357 1.092304 7178192
-0.13222358 -0.14008731 1.0934734 2114980
-0.13749179 -0.12885299 1.0917643 1063065
-0.13305947 -0.13169509 1.0928203 2447769
-0.13690624 -0.12130862 1.0914119 2578847
-0.13441184 -0.12076099 1.0944015 2907546
0.16337818 -0.12413025 1.0944747 6851775
0.16897914 -0.12382086 1.092985 13029078
-0.13606536 -0.11120397 1.0916911 3104917
-0.13421878 -0.10822774 1.0938123 3170462
0.16215202 -0.11333043 1.0939604 3040417
0.1718277 -0.11686888 1.0926713 13422807
0.17479545 -0.11378835 1.0925404 13619661
-0.13795954 -0.09866479 1.0910919 3104162
0.16104418 -0.10513875 1.0929259 2973607
-0.13716704 -0.09034805 1.0909544 3169952
0.16160497 -0.094948873 1.0945942 2843043
-0.13881242 -0.080694526 1.0896491 3301299
-0.1277017 -0.15831596 1.1052113 4750553
-0.12410181 -0.16050026 1.1073335 1196192
-0.12958959 -0.15117955 1.1016628 3036848
-0.12575084 -0.15326512 1.1069851 1789334
0.15843338 -0.15365183 1.105852 12898004
-0.1283786 -0.14024764 1.1025777 2776475
0.15907675 -0.14462304 1.1043289 9087435
0.16497353 -0.14023574 1.1007465 13488846
-0.13045949 -0.12949887 1.1018394 3038106
0.15909886 -0.13403049 1.1028292 4354994
0.16698515 -0.13229771 1.1003823 13752800
-0.13219079 -0.1197051 1.1028162 2973083
0.15921706 -0.12422746 1.103277 2121388
-0.13679802 -0.10630731 1.0977142 3301280
-0.13350993 -0.11113335 1.1015974 3039132
0.1600796 -0.11628738 1.1007638 2646946
0.17638063 -0.11120688 1.1024376 13817039
-0.13670114 -0.10001785 1.0974185 3366820
-0.13418669 -0.1002874 1.1024488 3105183
0.15862319 -0.10386331 1.1037093 3631271
0.17746526 -0.10912063 1.1023445 13817037
-0.13652891 -0.088836603 1.096893 3499424
-0.13387099 -0.089716747 1.1007514 3302563
0.15845004 -0.093654715 1.1024684 3369127
-0.13368684 -0.08024101 1.1000059 3434147
0.16050798 -0.084065259 1.1029958 2908578
0.16631153 -0.081616819 1.1009967 8233160
-0.13813594 -0.069155037 1.096817 3365295
-0.13284832 -0.070305265 1.0998887 3499689
0.16144833 -0.074523121 1.1022886 4024485
0.16644105 -0.073208049 1.1006016 11192030
-0.13647583 -0.06020917 1.098549 2181536
-0.13125235 -0.060090177 1.0997696 3433908
0.16074857 -0.068972237 1.1043797 2708114
-0.13475144 -0.051834658 1.1021675 8233201
-0.13093406 -0.053090762 1.1005286 3564980
0.014210589 0.11743802 1.090903 9935247
0.019936653 0.11825241 1.090892 9934992
-0.11866162 -0.16907886 1.1164652 929696
-0.11449438 -0.16938668 1.1188098 1984411
0.14793724 -0.16909918 1.1200444 13424882
-0.11951599 -0.15961996 1.113721 2512540
-0.11493858 -0.1614327 1.1170985 2906513
0.14936361 -0.16331823 1.1173319 8955594
0.15505567 -0.16222921 1.1137481 14080986
-0.12645501 -0.14541702 1.11362 2381461
-0.12343066 -0.15054817 1.1158156 2776212
0.14973673 -0.15379019 1.1156482 3697834
-0.12681481 -0.13945703 1.1141721 2841752
-0.12476581 -0.1436564 1.1175497 2906774
0.151741 -0.14389089 1.1156722 2646183
-0.128546 -0.12883146 1.1146886 2907034
-0.1246017 -0.13300276 1.117049 2775704
0.15244716 -0.13512383 1.1163641 3696546
0.15457395 -0.13065076 1.1155963 3761571
-0.12941259 -0.11944216 1.1128283 2973083
0.15634948 -0.12461466 1.1146532 3368880
-0.13034704 -0.10925524 1.1117991 3039134
0.15682629 -0.11304341 1.1137164 3500454
-0.13036197 -0.098829515 1.1110079 3171232
0.15587988 -0.10455112 1.1143262 3631529
-0.13078099 -0.090095557 1.109894 3302564
0.15455425 -0.094349049 1.1095492 3697839
0.15495318 -0.09446542 1.1125599 3763633
-0.13071537 -0.079514563 1.1101972 3368355
0.15569365 -0.083245657 1.1117493 3436468
0.17006019 -0.079828948 1.1119428 10992842
-0.12821618 -0.06914518 1.1097209 3697068
0.15372953 -0.0700849 1.1154108 3765679
0.15691462 -0.072856799 1.1107329 3830452
0.16977137 -0.075577341 1.1117413 11387079
-0.1269879 -0.061498947 1.1071644 3631022
-0.12476026 -0.058349811 1.1065261 3500456
0.15321356 -0.063302934 1.112197 3830449
0.15993354 -0.064014003 1.1097802 5207985
0.16641942 -0.064932987 1.1138939 10334913
-0.12705043 -0.049388811 1.1086677 3434161
0.15249217 -0.054381479 1.1115193 3893939
0.15958232 -0.05500989 1.1107802 8428221
-0.12716883 -0.039199188 1.1117629 6194370
-0.12259152 -0.037128039 1.1125453 4421311
0.15052459 -0.042441141 1.1130022 5734064
0.15676507 -0.046154588 1.1142988 10203587
-0.12115576 -0.030489706 1.1122396 6852289
0.14914078 -0.036603391 1.1106094 8955077
0.020791227 0.09496744 1.1070089 9737616
-0.088714413 -0.20574108 1.1289865 7635861
-0.085350327 -0.20615903 1.1316917 8100012
-0.098832168 -0.19555274 1.1311283 10535920
-0.091835409 -0.19844326 1.1289421 5996227
-0.085295089 -0.20257294 1.1315233 6394567
-0.10863262 -0.18475556 1.1225646 8431615
-0.10168473 -0.18717234 1.1254836 1526185
-0.095558465 -0.18946388 1.1297132 1262491
0.1281946 -0.19002411 1.1319478 11717846
-0.11705606 -0.17608023 1.1221161 7571711
-0.11011515 -0.17837918 1.1238146 1917611
-0.10319453 -0.18082523 1.1277447 2379673
-0.096495882 -0.18375126 1.1305839 2644619
0.1298902 -0.18318337 1.1316339 5010097
0.13725458 -0.18048051 1.1283953 10599906
0.14437962 -0.17941938 1.1275212 14081762
-0.11005723 -0.16943344 1.1260517 2709143
0.13109609 -0.17261165 1.1311419 2909858
0.13777141 -0.1724174 1.1273421 4026283
0.14538291 -0.17289767 1.1237149 12307424
-0.11674344 -0.1557841 1.1211621 2775446
-0.11243961 -0.1599223 1.1242898 2775442
0.13915613 -0.16346106 1.1277461 3105445
0.14413717 -0.16294093 1.1227398 2578854
-0.11867533 -0.14846134 1.1229645 2775449
-0.11451752 -0.1507159 1.1276083 2906778
0.14163026 -0.15364183 1.1286973 3564451
0.14501739 -0.15290399 1.1246742 3433893
-0.12239995 -0.13968174 1.123675 2840984
0.14324513 -0.14541546 1.1299194 3565217
0.14708462 -0.14360926 1.1245134 3499430
-0.12700948 -0.12784845 1.1197982 2841497
-0.12408232 -0.12938744 1.1258913 2907290
0.14951301 -0.13292429 1.1263579 3237547
-0.12705138 -0.11832547 1.1209515 2973083
-0.12434692 -0.11864167 1.1253842 3038877
0.15274876 -0.1232412 1.1271006 3827369
0.1554563 -0.12251063 1.1208904 3564710
-0.12796187 -0.10829336 1.1217335 3039391
-0.12536937 -0.11006617 1.1256431 3170977
0.15317366 -0.11317756 1.1264468 3565735
0.15558794 -0.11396489 1.1204886 3500198
-0.12797222 -0.10000855 1.1234887 3170977
0.15358314 -0.10420524 1.1253591 3631790
0.15462834 -0.10577295 1.1281074 3434923
-0.12796006 -0.089512534 1.1219935 3302823
0.15342239 -0.092753597 1.1249861 3566513
-0.12776887 -0.079586111 1.1201924 3368614
0.15265977 -0.083492823 1.124585 3632560
-0.12715295 -0.071834162 1.1211652 3565995
0.15162396 -0.07337831 1.1228307 3895728
-0.12399387 -0.056772709 1.1220731 3697842
0.14944574 -0.063466303 1.1208855 4158132
-0.12219835 -0.048561912 1.1204573 3502262
0.14847329 -0.052737195 1.1215771 4027837
-0.11940379 -0.039126445 1.11944 3698611
0.14377558 -0.04104384 1.1250088 4619197
0.14955953 -0.044488199 1.1196538 4946612
-0.12554505 -0.032777049 1.1153297 7180220
-0.1179461 -0.029558793 1.1224225 4815032
0.1437934 -0.034599904 1.1240381 5209534
0.14857954 -0.033265769 1.1166565 8425655
0.021832976 0.091069818 1.1102006 9474444
-0.062003702 -0.2160393 1.1392757 8300241
-0.080074251 -0.20774935 1.1351591 7642055
-0.072602257 -0.20841898 1.1373649 4815810
-0.065903947 -0.21189675 1.1390622 5210825
-0.089027442 -0.19572881 1.1341866 932767
-0.082119316 -0.199195 1.1360687 2382238
-0.073559642 -0.2022527 1.1385717 2251168
0.10999168 -0.20178464 1.1394227 6518691
0.11585114 -0.20091537 1.1379795 11319227
-0.090660118 -0.18888152 1.1357253 2447513
-0.08532992 -0.19232976 1.1380486 2513045
0.1178199 -0.19271314 1.137979 4617903
0.12487716 -0.19297466 1.1350743 10929103
-0.099944651 -0.17774406 1.1347443 2971544
-0.094093591 -0.18156859 1.1354982 2774929
0.12003782 -0.18351686 1.136942 2909086
0.12496914 -0.18275343 1.1345936 3105187
-0.10726871 -0.16452309 1.1326309 2709911
-0.10273668 -0.16953599 1.135244 2644371
0.12663567 -0.17294386 1.1347558 3368356
-0.10950635 -0.15779532 1.1341237 2775444
-0.10460465 -0.16194928 1.135192 2709910
0.13120216 -0.16311023 1.1353003 3368613
0.13546169 -0.16028745 1.1335859 3499683
-0.11258625 -0.1492019 1.133386 2841497
0.13310449 -0.15557696 1.1373574 3237027
0.13788775 -0.15306777 1.1345924 3302821
-0.1183339 -0.13757907 1.131882 2645144
-0.11488775 -0.13923663 1.1345189 2775964
0.14115602 -0.14315295 1.1349906 3237542
0.14530298 -0.13967946 1.1339974 3106215
-0.1200394 -0.12912107 1.1323597 2907291
0.14267397 -0.13361025 1.135034 3499683
0.14581335 -0.13175061 1.133436 3303338
-0.12087656 -0.11914791 1.1328329 3039134
0.14755729 -0.12328143 1.1333147 3499947
-0.12579232 -0.10490122 1.1297362 3236770
-0.12371508 -0.1090621 1.133279 3236770
0.14944842 -0.11279385 1.1332369 3500458
-0.12569264 -0.098429129 1.129432 3237027
-0.12399169 -0.098628633 1.1334538 3302821
0.15197495 -0.10227171 1.1332216 3632048
-0.12554309 -0.088720992 1.1289756 3302824
-0.12384997 -0.089427501 1.1330214 3302569
0.15038463 -0.093372233 1.1326911 3632047
-0.12583548 -0.079653524 1.1285474 3434408
-0.12304135 -0.077142924 1.132447 3434665
0.14716387 -0.082304507 1.1317908 4026292
-0.12524402 -0.069304727 1.1280631 3631531
-0.12352482 -0.068319023 1.1320293 3631531
0.14740002 -0.074402131 1.1300447 4157366
-0.12514433 -0.062832639 1.1277589 4025255
-0.1219263 -0.057656407 1.1298188 3632304
0.14704689 -0.062639669 1.1290443 4289211
-0.118325 -0.048754554 1.1288447 3568048
0.14405361 -0.051805407 1.1291875 4094399
0.1463109 -0.056159969 1.130738 4224702
-0.11691519 -0.042817194 1.1268559 3764911
-0.11342064 -0.038442247 1.1291692 3895729
0.14162302 -0.043318566 1.1295651 4487616
-0.117865 -0.024574131 1.1289958 6458567
-0.11298501 -0.028445251 1.1286006 3895996
0.14172754 -0.032343134 1.1279932 5735616
0.14864182 -0.029216893 1.1274786 9477559
-0.11738948 -0.021854177 1.1298711 6852289
-0.11413848 -0.021903418 1.1298889 5933254
0.054145988 0.076870888 1.1220351 9474701
-0.025461916 -0.22647023 1.1519541 7248329
0.0073611406 -0.22859502 1.1514093 5801654
0.015403122 -0.22761357 1.1508673 5210039
0.028180949 -0.22837688 1.1522989 6328255
0.035846621 -0.22849299 1.1523408 7379645
0.047407843 -0.22854654 1.1523983 8430007
0.05540463 -0.22708367 1.148363 8625323
-0.063200653 -0.21815652 1.1433742 9678537
-0.052407414 -0.2180154 1.1499525 4422071
-0.0430879 -0.21876298 1.1515074 2778029
-0.033353817 -0.22072358 1.1516459 2513574
-0.025782015 -0.22354761 1.1518149 2315684
0.0041393796 -0.22473025 1.1520128 2120102
0.016185438 -0.22491272 1.1520787 2185635
0.029343443 -0.22401784 1.1520993 2186146
0.034802072 -0.22519469 1.1521806 2316696
0.050167121 -0.22323909 1.1521616 4486314
0.05774235 -0.2230532 1.1501865 5997746
0.068931937 -0.22022575 1.1509649 6063288
0.077618673 -0.21884063 1.1520851 6589614
0.085719004 -0.21918215 1.1521397 8757678
-0.06845399 -0.20612496 1.1427828 1855898
-0.061787114 -0.2085802 1.1461718 2249885
-0.054159179 -0.21081415 1.1503525 2381985
-0.046066541 -0.21302825 1.1512233 3039902
0.071681574 -0.21317051 1.1517899 2841504
0.077713028 -0.21271479 1.1517972 3302564
0.087319478 -0.21066958 1.1504117 4420011
0.097155251 -0.21019191 1.1460501 6984117
0.10664672 -0.2076906 1.1436893 6254993
-0.079441532 -0.19541135 1.1430272 2710418
-0.07178323 -0.19862005 1.1467996 2775447
-0.065108038 -0.2008159 1.1497569 2906776
0.089884348 -0.20277938 1.1509869 3171492
0.098428935 -0.20166788 1.148172 3237285
0.10680392 -0.20078018 1.1439368 3629215
-0.082240872 -0.1882391 1.1466807 2775191
-0.074170791 -0.19173074 1.1494195 2906012
0.10052073 -0.19243136 1.1492822 3040421
0.10750607 -0.19101477 1.145859 3105703
0.11342258 -0.19149505 1.1429591 2777257
-0.097330652 -0.1741778 1.1411417 2710677
-0.090641208 -0.17799437 1.1448865 2709909
-0.08449135 -0.18157649 1.1475577 2709910
0.10876971 -0.18249482 1.1490469 3368100
0.11640082 -0.18098342 1.1446142 3302561
-0.098472938 -0.16747653 1.1439353 2710421
-0.09375155 -0.17020541 1.1481797 2644886
0.11094001 -0.17470378 1.1501659 3040936
0.11903994 -0.17182852 1.1479797 3237031
0.12550278 -0.16916502 1.1449687 3368615
-0.10790424 -0.15445983 1.1401631 2776209
-0.10256431 -0.1587947 1.1451479 2841240
0.12119313 -0.16328532 1.1496772 3237287
0.12770784 -0.16140112 1.1444707 3302822
-0.10882393 -0.1475872 1.1443737 2710683
-0.10419261 -0.15081507 1.1473508 2841499
0.13008782 -0.15290825 1.1466397 3237541
0.13511947 -0.15045111 1.142732 3237798
-0.11082382 -0.13898101 1.1445692 2907293
0.13189518 -0.14405654 1.1488228 3237797
0.13669148 -0.14182311 1.1437348 3303334
-0.11693234 -0.12739043 1.13999 2907805
-0.11478757 -0.12877315 1.1461293 2907805
0.13866383 -0.13237903 1.145858 3434407
-0.11729542 -0.11801524 1.1410725 3039392
-0.11472044 -0.11898512 1.1464697 3039391
0.14075524 -0.12285337 1.1452925 3500202
0.14497635 -0.12026104 1.139756 3631274
-0.12031264 -0.10872331 1.1424894 3170979
0.14285496 -0.112528 1.1469458 3631791
0.14628327 -0.11228286 1.1411663 3566510
-0.12056311 -0.098324247 1.1431811 3105957
0.1422095 -0.10147241 1.1451987 3632305
0.14745951 -0.10292937 1.1392856 3501227
-0.12077946 -0.088412337 1.1404251 3237546
0.14189577 -0.092446618 1.1438925 3698099
0.14653081 -0.093133397 1.1388867 3698094
-0.12000751 -0.078674182 1.1402087 3434923
0.1432721 -0.08317703 1.1440088 3895479
0.14551181 -0.085499719 1.1381221 3895477
-0.11947063 -0.068206169 1.1403383 3566256
0.14369854 -0.071829364 1.1448115 4027579
0.14621687 -0.071448699 1.1414684 4157882
-0.11833527 -0.059357695 1.1391701 3567024
0.14180812 -0.062296201 1.1438434 4159422
0.14615592 -0.062716365 1.1394553 4289724
-0.11585902 -0.049670972 1.1365272 3567791
-0.11275151 -0.04753558 1.1417809 3764403
0.14026007 -0.052315023 1.1418743 4356797
-0.11084381 -0.038923878 1.1352824 3830196
0.13774955 -0.042747419 1.1404775 4619718
-0.10921434 -0.027948 1.1371138 3896507
0.13383979 -0.030784138 1.1403853 4817095
0.13837332 -0.031580776 1.1372185 4948420
-0.11668587 -0.018618934 1.1377312 6916535
-0.10920424 -0.019276462 1.1374897 5210049
0.13308163 -0.024288535 1.1421894 5013440
0.13755949 -0.02404917 1.1398634 5998788
0.033928502 0.051021546 1.1340251 5859448
0.042135276 0.050887361 1.1322112 6122362
0.047682278 0.051072642 1.1352322 6319482
0.058793709 0.052357584 1.1392291 5330522
0.034586035 0.055382907 1.1322974 5792108
0.042426333 0.056083471 1.1317677 5527648
0.047749445 0.055433035 1.1350273 5067354
-0.019732274 -0.22638871 1.1549807 4354997
-0.01239894 -0.22743236 1.1570669 4684224
-0.0024910159 -0.22735721 1.1556422 4289976
0.0085249376 -0.22524954 1.1550615 2054307
0.018947043 -0.2259559 1.1551442 2777510
0.024419915 -0.22713581 1.1552259 4026798
0.040889204 -0.22738527 1.1553159 5604271
0.044757381 -0.22579834 1.1552596 4881326
-0.038551886 -0.21576041 1.1543908 3039902
-0.030619647 -0.21677402 1.1549768 2710943
-0.022194438 -0.21867715 1.157914 2645152
-0.012377284 -0.22152334 1.1614608 2514339
-0.00243292 -0.22159548 1.1609776 2514851
0.0075299107 -0.2193152 1.1593826 2842787
0.017431427 -0.21914518 1.1572192 2908579
0.027105644 -0.21887419 1.1577419 3039651
0.037282795 -0.21967855 1.1589404 2908578
0.046646647 -0.21896109 1.1587009 2778020
0.056714248 -0.21756269 1.156359 2646433
0.066254742 -0.22045608 1.1551104 5012145
0.077763543 -0.22191022 1.1552335 8955830
-0.051453732 -0.20714059 1.1542097 2841242
-0.041653324 -0.20926365 1.1564063 2775960
-0.032674383 -0.21058288 1.1584466 2841500
-0.023318689 -0.21271935 1.1623291 2907551
0.0083856834 -0.21246316 1.1624678 3105184
0.017604446 -0.21223459 1.162501 3170722
0.027554583 -0.2123853 1.1625553 3302053
0.03769749 -0.21198663 1.1625848 3170723
0.048214588 -0.21122539 1.162599 3105188
0.057566114 -0.2106548 1.1609005 3170467
0.067193702 -0.21077362 1.1570617 3236258
0.077400498 -0.20758119 1.1550022 3171236
-0.067892522 -0.1955698 1.1533009 2906776
-0.061402328 -0.19784857 1.1545831 2907033
-0.052985877 -0.19878691 1.1583619 2841497
-0.043808591 -0.20283562 1.1617664 2775704
0.058629643 -0.2051236 1.1623613 3105443
0.067474216 -0.20525756 1.1624097 3105443
0.07833115 -0.20176715 1.1610324 3105956
0.086757869 -0.1991927 1.1574105 3105956
-0.078703105 -0.18443593 1.1527253 2644884
-0.071703665 -0.18796599 1.1559281 2775705
-0.063390173 -0.19083643 1.1587725 2841497
0.082016759 -0.19443163 1.1619692 3172006
0.08971525 -0.19221531 1.1609004 3040421
0.095625848 -0.19007462 1.158325 2974628
-0.087351575 -0.17552887 1.152265 2645144
-0.080751173 -0.17725179 1.1554396 2710425
-0.07549753 -0.17997918 1.1571074 2776216
0.09922488 -0.18148604 1.158188 3171493
0.10425273 -0.17948166 1.1549641 3237026
-0.090279028 -0.16735336 1.1544573 2710424
-0.083963014 -0.16947049 1.1585486 2710937
0.10222322 -0.17485449 1.1611438 3302823
0.10863179 -0.17101854 1.1578323 3172005
0.11447944 -0.16800904 1.1568753 3172006
-0.098764613 -0.15597549 1.1512902 2841498
-0.094432287 -0.15832806 1.1563501 2907290
0.11123791 -0.16394481 1.160673 3303592
0.11754394 -0.16072404 1.1592166 3237544
0.12379325 -0.15678678 1.1523868 3303337
-0.10040763 -0.14742088 1.1525959 2973342
-0.09589503 -0.15031356 1.1590463 3038879
0.12129159 -0.15299337 1.1595379 3237544
0.12572019 -0.15024687 1.1548913 3303336
-0.10825152 -0.13579382 1.1512961 2973342
-0.10225677 -0.13883486 1.1559728 2973600
0.12926391 -0.1411276 1.1556802 3368872
-0.10971515 -0.12785289 1.1522698 3039392
-0.1043265 -0.12848791 1.1579788 3236259
0.13070163 -0.13163629 1.1569922 3500460
0.13519512 -0.12953423 1.1511581 3434923
-0.11066935 -0.11817978 1.1523465 3170978
0.13187638 -0.12269071 1.1574944 3500719
0.13662484 -0.12042113 1.154073 3500718
-0.11704684 -0.10706446 1.1489007 3237029
-0.11328413 -0.10820887 1.1549792 3237286
0.13708575 -0.1114497 1.156428 3697329
-0.11691169 -0.098290414 1.1484884 3237543
-0.11438189 -0.097541802 1.1559736 3172263
0.13844648 -0.10239156 1.1555022 3697843
-0.11708049 -0.088519394 1.151031 3303340
-0.11501279 -0.087244637 1.1559864 3303852
0.13837956 -0.091936283 1.1554102 3764149
-0.11697922 -0.078908876 1.1475757 3500716
-0.11427895 -0.077208951 1.1555175 3501229
0.14148799 -0.081623942 1.1535093 3764661
-0.11648933 -0.070871547 1.1471996 3566512
-0.11328658 -0.06729649 1.1514151 3632306
0.13866423 -0.071387447 1.1529131 3896764
-0.1125369 -0.057696573 1.1509668 3698357
0.13282409 -0.061165273 1.1546026 4291265
0.1366657 -0.06265045 1.1491607 4225217
-0.11078573 -0.048741218 1.1501895 3764408
0.13375746 -0.05161703 1.1534902 4554434
0.13639459 -0.051664658 1.1474983 4488640
-0.10766936 -0.038049106 1.150502 3895997
-0.10351472 -0.034765147 1.1535707 4027323
0.13353673 -0.040873442 1.1519823 4817354
-0.10596327 -0.028713137 1.1466 3962044
-0.10199664 -0.027293719 1.1524253 4093118
0.12438599 -0.02827546 1.154349 5014224
0.12975615 -0.03127414 1.1505113 4751563
-0.1046989 -0.018393643 1.1447854 4290235
-0.099837326 -0.018126369 1.1493343 4158908
-0.093638241 -0.015767962 1.1527233 4028609
0.12283903 -0.021304026 1.1522337 4817874
0.12955151 -0.021366246 1.1470405 5145287
-0.09734109 -0.011622898 1.1469043 4487616
-0.091940656 -0.0088438541 1.1510707 4356800
0.11417959 -0.0086807609 1.1513759 5276623
0.12049168 -0.011959732 1.1478418 5604813
0.12988247 -0.013383687 1.1465551 6720449
-0.089737535 -0.0018351749 1.152086 5671109
0.11239935 -0.0030267686 1.1525314 5802961
0.11877372 -0.0040837675 1.1485116 6787017
0.036569729 0.013925664 1.1519448 12972031
-0.018514421 0.024569638 1.1491796 5869264
0.013817663 0.020529799 1.1515257 7515376
0.021305306 0.020048171 1.151584 8764660
0.030904688 0.019460939 1.1516572 10146554
0.037522234 0.018329717 1.151742 10870005
-0.076078802 0.033463687 1.1424804 8028800
-0.070949398 0.033751667 1.1424912 7305855
-0.014116419 0.025739603 1.1511476 5671370
-0.010799706 0.025689363 1.1511657 5869265
0.012417284 0.025337711 1.1512927 6988787
0.016839568 0.025270723 1.1513169 7185904
0.1032102 0.032799497 1.1513733 6314850
-0.069652483 0.038729504 1.1422631 8028802
0.10016904 0.036380351 1.1511903 6117979
0.076412797 0.046877787 1.1425741 5593178
0.078608714 0.046844527 1.1425861 5658970
-0.017908797 -0.21557628 1.1664939 2973083
-0.012378961 -0.21676847 1.1665763 2973595
-0.0029476825 -0.21645012 1.1672735 2973598
-0.037706941 -0.20419215 1.1658639 2842012
-0.031349339 -0.20567398 1.1659638 2776219
-0.022054624 -0.20822126 1.1676534 2907806
-0.012489747 -0.20966735 1.1694028 2907807
-0.0019418523 -0.21035892 1.1696613 2973599
0.0069862902 -0.20828232 1.1669363 3039136
0.017740773 -0.20742473 1.1676145 3170723
0.027723214 -0.20748799 1.1669976 3236770
0.037531346 -0.20720756 1.1663636 3170979
0.046580341 -0.20713145 1.1664031 3170980
0.053262223 -0.20557001 1.1663613 3171236
-0.048664182 -0.19515875 1.1653864 2842012
-0.041997634 -0.19745481 1.1669824 2842011
-0.032424081 -0.19980925 1.1681468 2842012
-0.024166606 -0.20131016 1.1697969 2907805
0.022287618 -0.20340407 1.1701164 3302309
0.028322311 -0.20239353 1.1689535 3302308
0.036983203 -0.20246744 1.1676395 3171236
0.047749467 -0.20326966 1.1662269 3171236
0.058387492 -0.20198038 1.1678852 3105443
0.068241708 -0.20024003 1.1671828 3171492
0.074824035 -0.19850707 1.1661314 3040420
-0.069571704 -0.1837578 1.1647503 2841497
-0.060841359 -0.1866115 1.1654601 2907291
-0.052451104 -0.1893234 1.1669782 2907549
-0.045805272 -0.19050886 1.1691856 2907551
0.071439214 -0.1930262 1.1698617 3040420
0.078492492 -0.1913823 1.1679211 3106213
0.086362742 -0.18900159 1.1657388 3106214
-0.070984773 -0.17716211 1.1664354 2907290
-0.064449906 -0.18006723 1.1681049 2973340
0.082708135 -0.18429902 1.1695045 3302823
0.08880116 -0.1821214 1.1670283 3237030
0.094992042 -0.17880338 1.1670794 3237031
-0.088123903 -0.1635251 1.1637096 2841497
-0.079783738 -0.16710269 1.1644517 2842012
-0.073710598 -0.16931285 1.1670539 2907547
0.10029913 -0.17124692 1.1658934 3368361
0.10543732 -0.16811952 1.1648465 3237285
-0.089512043 -0.15759246 1.1634238 2973085
-0.082748465 -0.157791 1.1662052 3039135
0.1027236 -0.16419892 1.164649 3368615
0.1092952 -0.16093722 1.1652548 3237799
0.11391982 -0.15771794 1.1643972 3303337
-0.096708767 -0.1445518 1.1627756 2973857
-0.091342069 -0.14808661 1.1645249 3039137
-0.085434712 -0.14894135 1.1670403 3104930
0.11139343 -0.15341656 1.1661849 3172264
0.11766645 -0.15068646 1.1647514 3238059
-0.097778581 -0.13629436 1.163383 3039650
-0.093867533 -0.13980453 1.1665702 3105700
0.12104771 -0.14093377 1.1657972 3369132
0.12526967 -0.14126344 1.1636766 3434410
-0.10040621 -0.12766628 1.1636794 3171236
0.12305921 -0.13280085 1.1664712 3500719
0.12647226 -0.13060701 1.1651828 3435183
-0.10735875 -0.11557136 1.1613607 3302823
-0.10275118 -0.11749361 1.1641428 3171495
0.12739035 -0.12054189 1.1645315 3566514
-0.10897941 -0.10685164 1.1623988 3368873
-0.10532688 -0.10800041 1.1642176 3368875
0.130252 -0.11144889 1.1630976 3697588
-0.10974967 -0.097725682 1.1631789 3303850
0.1319547 -0.10176095 1.1652812 3763892
0.13520637 -0.10128886 1.1618421 3698099
-0.11093114 -0.087562203 1.1616271 3435181
-0.10509521 -0.088026829 1.1640793 3435438
0.13312724 -0.091635078 1.1653821 3829942
0.13599569 -0.091264375 1.162518 3764149
-0.10974824 -0.077897437 1.1615782 3501229
0.13333277 -0.078291394 1.164755 3896505
0.13769424 -0.081339642 1.162735 3830455
-0.10899615 -0.068079069 1.1606575 3632563
-0.10473551 -0.064675383 1.1629817 3567542
0.13109611 -0.071226671 1.1618376 4027837
0.13627827 -0.074924514 1.1606061 3896505
-0.1080815 -0.058053762 1.1599846 3829940
-0.10463274 -0.05800353 1.1626682 3699127
0.12973672 -0.061543714 1.1626147 4291009
-0.10750441 -0.047956318 1.1589781 3895737
-0.10382779 -0.047052283 1.1621566 4027576
0.13019048 -0.051552758 1.1614791 4422849
-0.10621507 -0.041324023 1.1578711 4158911
-0.10168044 -0.037603222 1.1597197 4093372
0.13028657 -0.041842792 1.160522 4817355
-0.097785592 -0.028293952 1.1588379 4093630
-0.092986993 -0.024812929 1.1611612 4094397
0.12299657 -0.030961119 1.1606981 5080014
0.1274716 -0.034333508 1.1586534 4883149
-0.09554223 -0.020795025 1.1569555 4028348
-0.091004699 -0.018238388 1.1583583 4028864
0.11865534 -0.021281943 1.1597768 4949202
-0.08729627 -0.0086962059 1.1582453 4029123
-0.083053887 -0.006426163 1.1603429 3963586
0.1127184 -0.01129505 1.1601684 5146069
0.11610476 -0.015872285 1.1577303 5080276
-0.086359926 -0.0009823963 1.1560664 5342665
-0.079224236 0.0012444407 1.16 4882633
-0.015714489 0.0040469617 1.1601701 6070261
-0.0090353563 0.0039457977 1.1602067 6528744
-0.0023562219 0.0038446337 1.1602432 8827627
0.013228425 0.003608577 1.1603284 10340848
0.021965122 0.0028406829 1.1604061 8895736
0.02946043 0.002028048 1.16048 6266608
0.10386 0.00163275 1.1598513 5475287
0.10829528 -0.0020271316 1.1583762 5475028
-0.075649679 0.0070815459 1.15774 5999306
-0.068972521 0.0080888346 1.1577244 5540557
-0.060350589 0.01125858 1.1569488 5803727
-0.047620174 0.012933776 1.1596 4950220
-0.038675752 0.011674851 1.1597018 5016280
-0.028958626 0.010898381 1.1593841 5411294
-0.018903125 0.01064615 1.1576018 5806569
-0.0089229513 0.010584764 1.159294 7120874
0.00067346264 0.011213638 1.1599107 12379901
0.011271079 0.010410756 1.1574697 13891069
0.021085382 0.0099920481 1.1568618 12969723
0.031039022 0.01011961 1.1577883 9946095
0.041104525 0.0097547099 1.1582565 10013177
0.050870243 0.011474222 1.1579809 7449069
0.05754479 0.013318181 1.1600821 5411552
0.10101639 0.0054906085 1.1581546 6526426
-0.04556505 0.017845906 1.1593785 6264275
-0.037946798 0.01841592 1.1568853 5803990
-0.028353523 0.018829644 1.1554097 5345755
-0.01832794 0.01993835 1.1554052 5412839
-0.0087316465 0.020408995 1.1559292 5676266
0.00027983729 0.019462742 1.1583763 7253489
0.01011752 0.019045219 1.1565837 8436213
0.020066647 0.016618341 1.1557441 12051453
0.034556866 0.020832583 1.1556146 10082302
0.042385105 0.019975059 1.1556922 10607102
0.050856214 0.019002244 1.1557783 7515119
0.057878438 0.018345371 1.1571774 6068200
-0.0064219143 0.025886975 1.1551818 6001365
-0.0019843951 0.025819764 1.1552061 6396124
0.1105955 0.0298784 1.1555505 6447199
-0.008968804 -0.20568278 1.1740797 3039391
-0.0014245361 -0.20515506 1.1755923 3039135
0.010020163 -0.20597041 1.1741835 3104930
-0.037838884 -0.19408512 1.1733963 2776478
-0.031486083 -0.19498228 1.1754711 2842271
-0.021619603 -0.19666716 1.1777816 2907807
-0.012424277 -0.19863987 1.1784326 2908063
-0.0024246778 -0.19958842 1.1796304 2973600
0.0079128398 -0.19878538 1.1791745 3105187
0.017850159 -0.19862825 1.1782938 3236773
0.027578384 -0.19746944 1.1776043 3237029
0.038523421 -0.19771764 1.1777347 3171237
0.048170686 -0.19892055 1.1755347 3171236
0.057717245 -0.19753414 1.1749372 3105444
0.066591844 -0.19622491 1.1739938 3171493
-0.049910702 -0.18489031 1.1761097 2841758
-0.041850846 -0.18728 1.1770614 2907551
-0.032971628 -0.18838748 1.1799824 2842271
-0.022310387 -0.18968131 1.1812719 2908064
-0.015579995 -0.19090691 1.1813616 2973857
0.0057877144 -0.19123057 1.1814785 3105444
0.018673703 -0.19042692 1.1815019 3237030
0.028720576 -0.19103205 1.1807773 3302823
0.038394161 -0.19040368 1.1806705 3171495
0.047779363 -0.18915981 1.1801878 3105703
0.057485621 -0.18957502 1.1800445 3105703
0.067308627 -0.18931524 1.1781769 3105702
0.075693846 -0.18707106 1.1753223 3105958
-0.061063267 -0.17710364 1.1741354 2973598
-0.053115644 -0.17873895 1.1786081 2907551
-0.043262836 -0.18065566 1.1807474 2908065
0.069201455 -0.18078168 1.1812881 3237288
0.078043766 -0.18031734 1.1788611 3302823
0.086752728 -0.1785485 1.1758318 3237287
-0.070299521 -0.16564938 1.1747637 3105183
-0.062904425 -0.16897932 1.1782198 2974112
-0.054647386 -0.17121311 1.1802487 2842786
0.079628319 -0.17347166 1.1809937 3171750
0.088319354 -0.17005926 1.1795394 3172008
0.096432716 -0.16863178 1.1751727 3303081
-0.078264579 -0.15595825 1.1720767 3104930
-0.072102621 -0.15808888 1.178213 3170978
0.090929873 -0.16170004 1.1804932 3303337
0.098741472 -0.16040562 1.1782169 3368873
0.10571808 -0.15935645 1.1749926 3237543
-0.087910347 -0.14294264 1.1734203 3040164
-0.08125098 -0.14674407 1.1747551 3105701
-0.074959658 -0.15105429 1.1792032 3302822
0.10044243 -0.1513139 1.1800495 3303597
0.10790322 -0.14920664 1.1756173 3238059
0.11503097 -0.14633608 1.1738778 3303852
-0.090259641 -0.13652633 1.1742195 3106213
-0.082546443 -0.13848558 1.1785754 3172007
0.108923 -0.13996576 1.1793555 3369387
0.11688255 -0.14002554 1.1755918 3435181
-0.097243354 -0.12630755 1.1712581 3237030
-0.090701677 -0.12687632 1.1756542 3237800
-0.084389076 -0.13031119 1.1781819 3303594
0.11083391 -0.13394235 1.1792812 3500972
0.11932386 -0.1299492 1.17588 3500976
0.12407443 -0.1273431 1.1710246 3500977
-0.09824869 -0.11696042 1.172593 3237545
-0.093630232 -0.11850633 1.1766922 3303852
0.12124271 -0.12031656 1.1786894 3566772
0.12457871 -0.12088534 1.1747274 3566515
-0.10061204 -0.10721785 1.1722622 3369389
0.12224624 -0.11080748 1.1782465 3763639
0.12564719 -0.11015372 1.1733375 3763639
-0.10717413 -0.093384452 1.169661 3435181
-0.10187434 -0.096996672 1.173098 3435438
0.12305944 -0.099743806 1.1777295 3895737
0.12807012 -0.099942788 1.1725805 3764149
-0.1065793 -0.086873077 1.1704252 3435438
-0.1012373 -0.087394156 1.1745412 3501231
0.12314596 -0.094126858 1.1774656 3961530
0.12861022 -0.090475976 1.1721374 3961528
0.13586316 -0.087344252 1.1691977 3895735
-0.10615843 -0.077608712 1.1705917 3501489
-0.10190122 -0.077315986 1.1734838 3501490
0.12342282 -0.076152638 1.1766207 4159679
0.12908384 -0.081132159 1.1721494 3962041
0.13589752 -0.085112698 1.1690929 3895735
-0.10650972 -0.070316166 1.1692456 3501747
-0.1016652 -0.067077339 1.171786 3567541
0.12277114 -0.069775417 1.1763175 4225473
0.12647557 -0.070521049 1.1723655 4159424
-0.099730037 -0.057014812 1.1702535 3764919
0.12265774 -0.060909338 1.1758995 4422597
0.12663078 -0.060444795 1.1718919 4357059
-0.0990863 -0.047269665 1.1696262 3896505
-0.094354719 -0.047010094 1.1742131 3962298
0.12269621 -0.050297666 1.1754001 4685767
0.12678599 -0.05036854 1.1714184 4422851
-0.097476155 -0.038262859 1.1673793 4027836
-0.092460729 -0.036326874 1.1726271 4028094
0.12099449 -0.039788004 1.1727773 4948684
0.1268868 -0.042000756 1.1680217 4751818
-0.095647484 -0.030267783 1.1654098 4093632
-0.090051189 -0.026631653 1.171118 4094399
0.11439717 -0.029197142 1.1743674 5080784
0.11871587 -0.030554041 1.1696464 5211343
-0.086666137 -0.018318214 1.1692586 4094402
-0.080103897 -0.015232995 1.1717838 4226244
-0.073592506 -0.013615035 1.1727397 4620744
-0.019593623 -0.013309285 1.1729822 5412064
0.0028987033 -0.013649963 1.1731052 6463211
0.010910438 -0.017604962 1.1733295 6397929
0.020606618 -0.017111711 1.1733524 6397929
0.029869715 -0.015342653 1.1733131 6003432
0.11154809 -0.020001449 1.1714181 5081042
0.11673684 -0.023440316 1.1660986 5081041
-0.078599527 -0.0076924786 1.166297 4160963
-0.070534356 -0.0066315904 1.1715674 4752075
-0.055442914 -0.0037770867 1.172363 4949201
-0.048703864 -0.0044409856 1.1724263 5016022
-0.039137732 -0.0057357624 1.1718653 5213659
-0.029319506 -0.0068142116 1.171398 5411552
-0.01948873 -0.007724084 1.1719189 5740773
-0.0093855578 -0.0078456476 1.1727736 6003172
0.00073679537 -0.0080147162 1.1724292 6331366
0.010846517 -0.0082643926 1.1698861 6989552
0.020945339 -0.0084027722 1.1703411 6792432
0.031033708 -0.0085785687 1.1697466 5937640
0.039524097 -0.0076875389 1.1719975 5806054
0.050253712 -0.0065016821 1.1729939 5674725
0.057018712 -0.0054804906 1.172978 5674983
0.10280789 -0.0087022632 1.1733475 5146841
0.10882073 -0.011121646 1.1677692 5080789
-0.075060271 0.00066950172 1.1640514 4554184
-0.071615353 0.0015837848 1.1670281 4751049
-0.056374364 0.0017613694 1.1700956 4818129
-0.048928633 0.0016133189 1.169337 5015507
-0.039372947 0.0013226569 1.1659924 5147609
-0.029260002 0.0011129081 1.1647489 5346018
-0.019638695 0.00070787221 1.1674278 5937898
-0.0092032757 -0.00018547475 1.1677419 6462952
0.0012676017 0.00036118925 1.1668761 8303605
0.010643779 6.8567693e-005 1.1659175 8501495
0.020488892 -0.0010957643 1.165205 7252467
0.031800933 -0.00068549812 1.1660796 6069484
0.040960897 0.00030274689 1.1669388 6135528
0.051051337 -8.8080764e-005 1.1701046 5741031
0.060435276 4.0017068e-005 1.1717333 5543655
0.069928527 0.0012387559 1.1727232 5477092
0.080012806 0.0024113432 1.1727159 5739747
0.091380067 0.001989454 1.1727898 5280481
0.10057659 -0.00094588101 1.1692753 5015513
0.10604557 -0.0031071976 1.1670928 4949463
-0.068255171 0.0072626695 1.1637734 4818122
-0.058807455 0.0081115812 1.1637784 5147606
-0.050108232 0.0087238401 1.1637909 4818639
-0.041447215 0.0068566203 1.16392 5344472
0.0032413062 0.0067377612 1.1641382 12971007
0.0077007059 0.0061121881 1.1641889 12905215
0.032274663 0.0057399794 1.1643232 5807584
0.045678642 0.0055369511 1.1643965 6004710
0.051757075 0.0064014941 1.1643847 5807083
0.060575914 0.008841604 1.1664475 5477863
0.069060206 0.0083970428 1.169045 5542628
0.080808692 0.0053956807 1.1725792 5673698
0.091413639 0.0071215034 1.1710467 5804766
0.097060546 0.0047586933 1.1646775 5147865
0.063722476 0.016424045 1.1639699 5412324
-0.0089190751 -0.1937371 1.1855309 3039650
-0.0024808533 -0.19447887 1.1855965 3039650
-0.029109187 -0.18553913 1.1850489 2842271
-0.02233864 -0.18564168 1.185086 2973857
-0.012037452 -0.18682878 1.1864555 2973857
-0.0023195073 -0.1886678 1.1878527 3039395
0.0083723981 -0.18693219 1.1870725 3171237
0.017702864 -0.18569008 1.1863465 3237030
0.028053558 -0.18527478 1.1868485 3302569
0.036390424 -0.18555173 1.1866959 3237546
-0.048614807 -0.17477444 1.1844494 2908065
-0.041053116 -0.17585535 1.1845363 2973857
-0.032404002 -0.17770153 1.1856655 2973857
-0.022693302 -0.17969541 1.1869243 2973858
-0.014423359 -0.1805606 1.1888889 3105444
0.017279197 -0.18104079 1.1890622 3237030
0.029002178 -0.17971 1.1890553 3302825
0.037941255 -0.17940515 1.1887755 3171754
0.047797475 -0.1801517 1.1871634 3171752
0.0581492 -0.17991304 1.1866125 3171753
0.066635862 -0.17694622 1.186101 3237546
0.074896917 -0.17471242 1.1850339 3303592
-0.05964607 -0.16515818 1.1839443 2908579
-0.051496208 -0.16735558 1.1860888 2908579
-0.041689649 -0.16892996 1.1871196 3105444
-0.033072107 -0.17077555 1.1883396 3105443
0.061575696 -0.17266163 1.1888785 3303339
0.069649458 -0.17057529 1.1874839 3303082
0.07808762 -0.168695 1.1853379 3237545
0.084063224 -0.16583163 1.1846595 3303850
-0.068499848 -0.15374951 1.1833652 3302822
-0.061965115 -0.15804419 1.1858509 3040165
-0.054905042 -0.16184725 1.1878154 3040167
0.073037408 -0.16378513 1.1885152 3303598
0.07916531 -0.15993091 1.1874206 3238061
0.087769948 -0.15809223 1.1854252 3303596
0.09550374 -0.15585777 1.1842444 3369131
-0.078117467 -0.14308091 1.1828172 3171751
-0.071755245 -0.14674057 1.1844331 3368615
-0.06492094 -0.15038291 1.1872281 3171751
0.097412281 -0.14924753 1.185444 3369134
-0.079983696 -0.13600603 1.1824753 3369130
-0.073909931 -0.13791533 1.1855974 3434922
0.098679416 -0.13953805 1.1865423 3435183
-0.081582844 -0.12732908 1.1833941 3434923
0.10153977 -0.13248621 1.1863765 3501232
0.10835058 -0.12948869 1.1856552 3435694
0.11512104 -0.12796849 1.1830249 3501232
-0.089631446 -0.11609 1.182493 3369646
-0.083979279 -0.11984777 1.1843653 3435182
0.11221281 -0.12025928 1.1866525 3567282
0.11633634 -0.11989007 1.1844705 3567027
-0.097821422 -0.10332148 1.1808518 3501231
-0.09331055 -0.10718752 1.1838083 3435439
0.11233476 -0.11234229 1.1862804 3829686
0.11749038 -0.10969383 1.1844006 3829431
-0.097769335 -0.099939898 1.1806929 3501231
-0.093341306 -0.096691601 1.1822295 3567024
0.11993977 -0.10033911 1.1844168 3830201
-0.097552299 -0.085849985 1.1800307 3632818
-0.094343781 -0.086524442 1.1820799 3698612
0.12222358 -0.089804694 1.1832643 3896507
-0.097404718 -0.076268837 1.1795803 3633333
-0.09357658 -0.076390974 1.1824074 3764919
0.12221855 -0.079629607 1.1822847 4093886
-0.09772066 -0.067469887 1.1791646 3633334
-0.093684115 -0.066448182 1.1823393 3830201
0.11935983 -0.069937035 1.1825379 4291523
-0.093095019 -0.056237087 1.1803263 3896506
0.11903449 -0.059487026 1.1814215 4619975
-0.089668505 -0.046745095 1.1799436 4028348
0.11332778 -0.047875389 1.1832504 5146320
0.11772636 -0.050207715 1.18238 4883148
-0.087799273 -0.037434544 1.178084 3962814
-0.082810543 -0.036031675 1.1806159 3963072
0.1124787 -0.039114289 1.1813322 5146577
0.11622608 -0.040885728 1.1794313 5080527
-0.086283542 -0.028407633 1.1773802 4028607
-0.080088809 -0.026656233 1.1794629 4291526
-0.030152369 -0.02533944 1.1815071 5147865
-0.02267614 -0.025226422 1.1815374 5344731
-0.0063580293 -0.024568573 1.181584 5345501
0.00043537654 -0.024671465 1.1816212 5739743
0.010586055 -0.027117357 1.1804498 5936862
0.019638408 -0.027247064 1.1808326 5871068
0.029856043 -0.026248351 1.1818353 5739228
0.047989212 -0.025391743 1.1818813 5213656
0.11073964 -0.030219458 1.1808052 4949970
-0.078186646 -0.019341506 1.1769919 4422856
-0.069690607 -0.014627039 1.1786306 4686797
-0.059305333 -0.013648696 1.178816 4884690
-0.048939511 -0.015172191 1.1804386 4950486
-0.038493015 -0.016127862 1.1796991 5213659
-0.029933561 -0.01751554 1.1779363 5279707
-0.019793324 -0.018786564 1.1784449 5345244
-0.0096038356 -0.017314374 1.1783351 5411808
0.00023821741 -0.018585652 1.1782395 5806052
0.0095296036 -0.021891505 1.1775291 6068964
0.021560352 -0.022449553 1.1776127 6068963
0.031628363 -0.02018033 1.1784778 6003173
0.040106371 -0.018550768 1.1793193 5608417
0.05030255 -0.018686317 1.1799748 5411038
0.057151612 -0.018742941 1.1816119 5279709
0.10186955 -0.01770857 1.1808517 5212630
0.10746796 -0.021462426 1.1793096 5015248
-0.065895468 -0.0090987012 1.1765683 4949712
-0.059124909 -0.009201251 1.1766052 4949713
-0.048969083 -0.0093550757 1.1766608 5016279
-0.039571337 -0.0098732337 1.1767299 5213659
-0.030931648 -0.010755733 1.1768125 5345501
0.041860454 -0.011294559 1.1771841 5871590
0.050332326 -0.010859154 1.1772039 5871847
0.060613114 -0.0086905211 1.1791528 5543139
0.067913771 -0.0076596811 1.1794251 5280225
0.092425086 -0.0079646036 1.1812723 5411294
0.098276392 -0.0095848367 1.178828 5279196
0.070209987 -0.0027043074 1.1769146 5411556
0.079827651 -0.0011587888 1.1768875 5412066
0.091111906 -0.0013297126 1.1769493 5477344
0.097847722 -0.0036866516 1.1770922 5213404
-0.0012808237 -0.18384451 1.1931105 3105189
-0.021523722 -0.17503367 1.1936005 3039906
-0.011858802 -0.17729238 1.1941819 3039908
-0.0023523159 -0.17850685 1.1961912 3105447
0.0082798442 -0.17801318 1.1936324 3105702
0.017385256 -0.17693847 1.1928742 3171750
0.026376683 -0.17666191 1.192904 3237289
0.037868991 -0.1749786 1.1928793 3237548
0.048093382 -0.17513347 1.1929352 3171752
0.057181727 -0.17527112 1.1929849 3171752
-0.048991099 -0.16322035 1.1919128 3039909
-0.041157942 -0.16402778 1.1928779 3105701
-0.033051156 -0.16672 1.1947016 3105443
-0.0235429 -0.1721842 1.1964601 3040163
0.0072471453 -0.17173944 1.1965857 3105960
0.018662818 -0.17079878 1.1965957 3105958
0.027786594 -0.1694646 1.1957754 3237545
0.03820511 -0.16861384 1.1946889 3237547
0.048254207 -0.16847718 1.1942245 3237544
0.058320284 -0.16839868 1.194353 3237545
0.067007221 -0.16659178 1.1932906 3303339
-0.060092844 -0.15363112 1.1914085 3172009
-0.051731266 -0.15680625 1.1940005 3105961
-0.042438116 -0.15908566 1.1957537 3171752
0.041604064 -0.16178221 1.1962804 3303337
0.04844318 -0.1618858 1.1963178 3303593
0.05855405 -0.16106276 1.1963271 3303594
0.067806631 -0.15864941 1.1950061 3303596
0.074664354 -0.15737483 1.1922257 3238062
-0.067346029 -0.14500825 1.1909682 3434409
-0.061645679 -0.14672327 1.1939026 3237547
-0.053349584 -0.14916231 1.1952347 3237805
0.068874814 -0.15131268 1.1959171 3238318
0.078221209 -0.14857677 1.1947116 3238572
0.088355541 -0.14859489 1.1930788 3434926
0.094870463 -0.14814632 1.1918874 3369134
-0.069553554 -0.13589379 1.1917607 3435179
-0.063652597 -0.1378825 1.1942097 3369388
0.082954451 -0.14190878 1.1955415 3500977
0.088634819 -0.13850622 1.1944072 3435186
0.09410613 -0.13875149 1.1914414 3500720
-0.07790181 -0.12504619 1.1909794 3566511
-0.072252236 -0.12792975 1.1928104 3566767
-0.065086022 -0.13055548 1.1943029 3500977
0.090213731 -0.1308811 1.1945564 3501234
0.098152518 -0.12869108 1.1917379 3501490
-0.08728788 -0.11178923 1.1893095 3566770
-0.08061114 -0.11634719 1.1921587 3632306
-0.074064545 -0.12130849 1.193825 3632563
0.10007866 -0.11997823 1.1931772 3699127
0.10755145 -0.11890495 1.1910423 3633076
-0.088415071 -0.10614215 1.1900394 3566770
-0.08243873 -0.10698954 1.1931111 3763892
0.10110446 -0.11086465 1.1941664 3633335
0.10782629 -0.10888897 1.1916583 3764407
-0.088400319 -0.095987439 1.1913635 3698868
-0.084071815 -0.096607864 1.1926146 3699126
0.10185856 -0.098917902 1.1936076 3962811
0.10840172 -0.099160112 1.1924822 3830969
0.1161363 -0.099628061 1.1897045 3830714
-0.089411706 -0.086113974 1.1890149 3699126
-0.084171176 -0.08660958 1.1921434 3830712
0.1092509 -0.089215778 1.1925853 4028606
0.11742719 -0.089594148 1.1892383 3962300
-0.088688783 -0.076616898 1.1892489 3830970
-0.083794534 -0.076256961 1.1916579 3962813
0.10965911 -0.080144159 1.1927609 4291522
0.11756367 -0.080022305 1.1891525 4094399
-0.088835895 -0.066550195 1.1888888 3962044
-0.08397489 -0.066817842 1.1912128 4093630
0.11140949 -0.069449149 1.1919988 4554438
0.11626121 -0.070442483 1.1883312 4357059
-0.088055827 -0.056546051 1.1880401 4093886
-0.083478838 -0.055762004 1.1906946 4291009
0.10974231 -0.058918867 1.1908723 4686026
0.11578433 -0.059246734 1.187802 4685769
-0.08632648 -0.049375046 1.186376 4159935
-0.081300817 -0.046850886 1.1891414 4225985
0.10263027 -0.048819147 1.1912529 5015248
0.10870994 -0.050309561 1.1886823 5014991
-0.078130491 -0.03712501 1.1879584 4292037
-0.072801761 -0.039328713 1.1899718 4619977
