# .PCD v0.7 - Point Cloud Data file format
VERSION 0.7
FIELDS x y z rgba
SIZE 4 4 4 4
TYPE F F F U
COUNT 1 1 1 1
WIDTH 174
HEIGHT 1
VIEWPOINT 0 0 0 1 0 0 0
POINTS 174
DATA ascii
0.087027617 -0.087205283 1.0969579 5134174
0.093147129 -0.088835701 1.0941408 5134176
0.087725133 -0.085297421 1.1012013 4871515
0.074358821 -0.099262685 1.085956 4936281
0.083818868 -0.10181002 1.0815425 5199967
0.088537455 -0.10253508 1.0805302 5397348
0.068108089 -0.095132612 1.0934863 4673880
0.075549796 -0.094747052 1.0906188 4870232
0.084776118 -0.096789017 1.0890017 5068382
0.094330512 -0.098595291 1.0875249 5068384
0.10224338 -0.10001939 1.087666 4476504
0.070156313 -0.090122968 1.1013724 4607822
0.077069342 -0.089955904 1.0993675 4673623
0.087510794 -0.09188319 1.0964239 5134174
0.097823933 -0.093082532 1.0950518 4739419
0.10523573 -0.095502257 1.0937573 4081746
0.071989357 -0.088322796 1.1095203 4410445
0.080486089 -0.086419195 1.1074895 4213839
0.090589099 -0.087750986 1.1058033 4345429
0.10023069 -0.089410424 1.1033472 4016211
0.10796179 -0.091803908 1.1018318 3621193
0.082441851 -0.084376015 1.1121794 3884109
0.091768935 -0.085386381 1.1111004 3752784
0.10183521 -0.086962357 1.1088775 3621192
0.10861419 -0.088473551 1.1063998 3686459
0.062664963 -0.11225918 1.0812581 4673626
0.070436902 -0.11124599 1.0775821 4870741
0.078994423 -0.11323254 1.0747254 5265754
0.088901453 -0.11469258 1.073378 5397604
0.097698309 -0.11757527 1.075262 4608350
0.064162493 -0.10500953 1.0878087 4673629
0.071980961 -0.1048907 1.0838065 4870744
0.079777211 -0.10645901 1.0805262 5134174
0.092183597 -0.10810256 1.0800041 5397606
0.10018733 -0.11280838 1.0807142 4476760
0.10714817 -0.11413391 1.083903 4015442
0.059295598 -0.1048196 1.0984433 3883351
0.06292773 -0.10061136 1.0955672 4475995
0.094748661 -0.10509034 1.0853138 5068641
0.10431146 -0.10706612 1.0870881 4082513
0.11014043 -0.1115411 1.0887152 3752531
0.064328574 -0.095423386 1.1041642 4079443
0.10854938 -0.1032887 1.0945066 3621705
0.11217216 -0.10770459 1.0927609 3751503
0.10897969 -0.098715991 1.100925 3490378
0.068624005 -0.13164474 1.0675029 5002588
0.071712866 -0.13212833 1.0668207 5528419
0.060789656 -0.12627684 1.0782614 4739163
0.067202047 -0.12582415 1.0729498 5002333
0.076295339 -0.1273289 1.0706315 5397092
0.085640013 -0.12915927 1.0710262 5332066
0.091677949 -0.13111269 1.0714403 4740695
0.060696512 -0.11973818 1.079897 4082256
0.067200318 -0.11965158 1.0766668 5068120
0.089353755 -0.12472228 1.0730845 5200736
0.098038256 -0.1265876 1.0751947 4345175
0.10526854 -0.1289853 1.0763434 4278096
0.10322726 -0.12030459 1.0816423 4147028
0.10755236 -0.12492409 1.0819004 3819087
0.10948579 -0.11855441 1.0870353 3687502
0.071952745 -0.14738292 1.0600102 5528423
0.076249741 -0.14782332 1.0595678 5397348
0.064280897 -0.13790447 1.0669415 4804702
0.073413022 -0.13889182 1.0644971 5462626
0.08252798 -0.14240457 1.0641325 5003105
0.09120281 -0.1430847 1.0659363 4804440
0.057947684 -0.13379121 1.0783477 3817824
0.062949203 -0.13252626 1.072102 4673622
0.078434765 -0.13495068 1.0686823 5660265
0.085966386 -0.13545872 1.0684822 5069150
0.095310025 -0.137539 1.0698758 4475986
0.1016646 -0.13668343 1.0725067 4014924
0.099759951 -0.13367552 1.0740316 4606547
0.10589524 -0.13404426 1.0751677 3620428
0.063529566 -0.15541928 1.058286 4079956
0.069766156 -0.15472797 1.0550554 5266270
0.075421415 -0.15751484 1.0551503 5002845
0.062434416 -0.15075487 1.0635198 4079963
0.069217905 -0.15110596 1.0587687 5330781
0.079866126 -0.15332259 1.0591747 5002331
0.084666446 -0.1499837 1.0630766 5001816
0.089367986 -0.15058847 1.0652064 4540755
0.095498778 -0.14748649 1.0698259 4213074
0.066003285 -0.171391 1.0525827 5265766
0.066045098 -0.16684981 1.0556264 5068639
0.074897714 -0.16708517 1.0550363 4214103
0.060019061 -0.1584896 1.0607756 1580089
0.080908075 -0.16158076 1.0581545 4145996
0.085067697 -0.15912688 1.0624043 4212054
0.059381388 -0.17355512 1.0542712 3618132
0.06439954 -0.17481448 1.0521303 5199718
0.071040817 -0.17538053 1.0516965 4214875
0.053382605 -0.21310303 1.0057553 528927
0.058154725 -0.21413831 1.0040733 1517876
0.054162212 -0.22877213 1.0005077 4419983
0.041412383 -0.22200054 1.008931 1651559
0.047025487 -0.21967007 1.0071403 1782104
0.058174144 -0.22057 1.0014614 4154236
0.063834079 -0.22348571 1.004964 3028033
0.051397573 -0.22203153 1.0148697 2369321
0.059100308 -0.21998492 1.0116141 2040105
0.056602702 -0.21090558 1.030146 4146252
0.039937187 -0.23305091 1.0086776 5077683
0.045922171 -0.23388062 1.004388 4617364
0.054924265 -0.23545282 1.002045 4549258
0.061554205 -0.23172343 1.0045702 6582660
0.042082086 -0.22478002 1.0173613 7695014
0.050436895 -0.22508548 1.019303 2040625
0.058606565 -0.22522493 1.0183823 2172202
0.063869394 -0.22819105 1.01255 2760198
0.041857336 -0.24574579 1.0004452 4683677
0.047359325 -0.24660718 0.99923027 3831442
0.036318332 -0.24085939 1.0076861 3299734
0.04262694 -0.24151525 1.003648 4683420
0.050725561 -0.24386524 1.0017712 3960460
0.015872117 -0.28500026 0.94295645 3829135
0.023842793 -0.28604028 0.9416495 4223637
0.029737215 -0.28715682 0.93992555 3960467
0.017489865 -0.28120771 0.95141941 3498881
0.02576061 -0.28193885 0.94986141 3895695
0.033661496 -0.28296775 0.94953078 3631246
0.020617839 -0.27412447 0.96003383 3499128
0.027407076 -0.27553341 0.95778024 4025235
0.036056552 -0.27817619 0.95752084 3499655
0.023709998 -0.26873082 0.96736193 3826560
0.030178241 -0.27022085 0.96609366 4156303
0.037601873 -0.27390936 0.96495062 3630985
0.02623206 -0.26776785 0.97696972 3893387
0.032759059 -0.2672298 0.97519344 4157333
0.039881788 -0.27000952 0.97492796 3762828
0.029944852 -0.266523 0.98493379 3762325
0.036287677 -0.26305103 0.98446172 4420507
0.042128168 -0.26617423 0.98396009 3828877
0.032378573 -0.2609385 0.99740165 4222878
0.039024789 -0.25935337 0.99269259 4552347
0.044748049 -0.26311478 0.9922263 3631755
0.032999847 -0.25249434 1.002437 3627913
0.041009218 -0.25259537 0.99821854 4683676
0.048104558 -0.25584227 0.99905401 3892613
0.051209338 -0.24992786 1.0044624 3563127
0.011523906 -0.29353562 0.93686175 3033484
0.019191302 -0.29735678 0.93520665 2897991
0.029145371 -0.29812002 0.93356484 3891064
0.036540709 -0.30047861 0.93331647 2638186
0.010038666 -0.28807282 0.9451614 666715
0.019985158 -0.29059908 0.94085234 4813457
0.033854458 -0.2914986 0.94056237 3499654
0.04062403 -0.29588163 0.94067031 3561592
0.012323402 -0.28351408 0.95537513 6722
0.036173612 -0.28774682 0.94902098 3694979
0.042478882 -0.29045656 0.94867623 3233144
0.040363796 -0.28391391 0.95788187 3104639
0.044726651 -0.28750581 0.95821804 2640231
0.042184629 -0.28000927 0.96661359 2907007
0.046131615 -0.28484318 0.96746683 3099492
0.023676462 -0.27182466 0.98222673 4089741
0.044239774 -0.27652317 0.97531891 3496061
0.048456419 -0.28095174 0.97732216 4278874
0.027983896 -0.26900765 0.98888701 2972810
0.04620523 -0.27328759 0.98502654 3757171
0.049419705 -0.27759677 0.9847523 3748927
0.030582331 -0.26692063 0.99374998 3630740
0.048735183 -0.26926386 0.99082869 3953004
0.016714431 -0.30440211 0.93198007 984897
0.027828719 -0.30446729 0.93317711 4350584
0.043891661 -0.29723722 0.95247555 4674411
0.04589925 -0.29601294 0.96099001 6974583
0.047051586 -0.29140842 0.97116709 3815753
0.019281134 -0.27968055 0.98618424 5799072
0.050462775 -0.28506479 0.978203 5064001
0.041848645 -0.31078941 0.95230323 7039097
0.043017112 -0.30939245 0.95789093 7565430
0.044587471 -0.30559355 0.96556151 8223350
0.046669267 -0.29808033 0.97098482 9076613
