# .PCD v0.7 - Point Cloud Data file format
VERSION 0.7
FIELDS x y z rgba
SIZE 4 4 4 4
TYPE F F F U
COUNT 1 1 1 1
WIDTH 1132
HEIGHT 1
VIEWPOINT 0 0 0 1 0 0 0
POINTS 1132
DATA ascii
0.014694912 0.047235198 1.029227 6057334
-0.084621333 0.013606384 1.0366129 7832202
0.080320366 0.031296857 1.0339429 5792617
0.0832965 0.031360231 1.0338989 5724767
-0.042000555 0.042586856 1.0355226 7764863
-0.022245035 0.046977453 1.0351655 6384242
-0.013316615 0.047167577 1.0350336 6121843
0.16326359 -0.076240882 1.053515 13950701
0.16629401 -0.076176353 1.0534703 13160147
0.16521862 -0.073167525 1.0534364 13423577
0.16465256 -0.085780539 1.0606531 12898285
0.16865459 -0.08668156 1.06011 12832198
0.16305038 -0.079885051 1.0587219 10136266
0.16982615 -0.080217525 1.0587368 13159885
0.16328508 -0.073574603 1.0599724 12175571
0.16855392 -0.072454631 1.0563772 13093836
-0.139685 -0.11239653 1.0772835 1720740
-0.14060733 -0.10552293 1.0769722 3628972
-0.14175195 -0.0993632 1.0782998 4745397
0.16415814 -0.087429248 1.0696894 6256041
0.16876352 -0.090010896 1.0698653 12767188
0.16224158 -0.078353181 1.0715686 7312841
-0.13692603 -0.13636503 1.0888395 2903988
-0.13380992 -0.13629869 1.0887935 1324707
-0.13865674 -0.12438087 1.0879178 2904505
-0.1375514 -0.11561812 1.0864077 2644141
0.16484332 -0.10707794 1.0840052 5801403
0.16928259 -0.1073298 1.0839453 11779799
-0.13750598 -0.10455135 1.0843251 3039906
0.1637902 -0.098018117 1.0828716 3630254
0.17001852 -0.098715246 1.0822047 11516624
0.17712879 -0.09850315 1.0836873 13685195
-0.14016455 -0.095602237 1.0865808 2708908
0.16337711 -0.089571446 1.0818638 3762605
0.16819564 -0.093277313 1.0807297 10465738
0.16332951 -0.082826272 1.0776278 6721740
-0.13817841 -0.078199372 1.0879034 1588628
-0.13506231 -0.078133017 1.0878574 3826867
-0.12995669 -0.15148631 1.0949885 3694011
-0.13509965 -0.1450969 1.0929574 7178192
-0.12985173 -0.14471491 1.0940295 2114980
-0.13555506 -0.13363406 1.0927758 1063065
-0.13100231 -0.1363429 1.0936549 2447769
-0.13524866 -0.12606607 1.0926473 2578847
-0.13271368 -0.12551878 1.0956025 2907546
0.16494146 -0.11799174 1.0896841 6851775
0.17049533 -0.11743247 1.0880945 13029078
-0.13476601 -0.11595061 1.0932245 3104917
-0.13298377 -0.11297474 1.0954006 3170462
0.16331726 -0.10723337 1.0895311 3040417
0.17308488 -0.1103746 1.0879413 13422807
0.17593655 -0.10718501 1.0878478 13619661
-0.13712201 -0.1034767 1.0930539 3104162
0.16189423 -0.099060021 1.0887744 2973607
-0.13663208 -0.095136203 1.0931602 3169952
0.16212296 -0.088911928 1.0907481 2843043
-0.13865045 -0.085514098 1.0921891 3301299
-0.12443314 -0.16311462 1.1051019 4750553
-0.12071348 -0.16522932 1.1070834 1196192
-0.12665012 -0.15594742 1.1018156 3036848
-0.12262855 -0.15805212 1.1069933 1789334
0.16130009 -0.14800698 1.1002314 12898004
-0.12581417 -0.14501141 1.1030467 2776475
0.16158643 -0.13891852 1.0989779 9087435
0.16724554 -0.13421145 1.0954182 13488846
-0.12829521 -0.13432848 1.1026849 3038106
0.16119629 -0.12829153 1.097809 4354994
0.16896236 -0.12619774 1.0952621 13752800
-0.13035676 -0.12463886 1.1040004 2973083
0.16097125 -0.11850891 1.0985596 2121388
-0.13554835 -0.11126956 1.0994105 3301280
-0.13200846 -0.11608801 1.1030757 3039132
0.16149506 -0.1104698 1.0962787 2646946
0.17763424 -0.10484961 1.0977874 13817039
-0.13568386 -0.10497469 1.0993092 3366820
-0.13305685 -0.105305 1.104278 3105183
0.15965465 -0.098202713 1.0996382 3631271
0.17864096 -0.1027232 1.097738 13817037
-0.13592485 -0.093783826 1.0991291 3499424
-0.13315701 -0.094683126 1.1029049 3302563
0.15908861 -0.08797425 1.0987196 3369127
-0.1333293 -0.085188702 1.1024516 3434147
0.16081098 -0.078336418 1.0995047 2908578
0.16647974 -0.075617604 1.0974687 8233160
-0.13823977 -0.074181035 1.0996983 3365295
-0.13285124 -0.075229973 1.1026275 3499689
0.16139266 -0.068749167 1.099077 4024485
0.16629854 -0.067201592 1.0973333 11192030
-0.13686663 -0.065237269 1.1016752 2181536
-0.13162646 -0.064964443 1.1027954 3433908
0.16053757 -0.0632938 1.1013534 2708114
-0.1353693 -0.056919254 1.1055181 8233201
-0.13154429 -0.057984408 1.1037656 3564980
0.0071417829 0.11795423 1.0965922 9935247
0.012833376 0.11897752 1.0964932 9934992
-0.11477881 -0.17387703 1.115834 929696
-0.11055513 -0.17410338 1.118085 1984411
0.15166491 -0.16425267 1.1141402 13424882
-0.11602988 -0.16437659 1.1134033 2512540
-0.11132073 -0.16612259 1.1166315 2906513
0.15282553 -0.15834354 1.1115814 8955594
0.15839866 -0.15693846 1.1079216 14080986
-0.12347574 -0.15044056 1.1138823 2381461
-0.12022363 -0.15552205 1.1158568 2776212
0.15282056 -0.14876141 1.1101885 3697834
-0.124038 -0.14451727 1.1146268 2841752
-0.12176923 -0.1487397 1.1178308 2906774
0.15446761 -0.13880073 1.1104815 2646183
-0.12613899 -0.13398279 1.1155083 2907034
-0.12199882 -0.13807687 1.1176591 2775704
0.15487236 -0.13003883 1.1114321 3696546
0.15682042 -0.12546964 1.1107622 3761571
-0.12738132 -0.12457923 1.113959 2973083
0.15835768 -0.11934672 1.1099728 3368880
-0.12870279 -0.11440672 1.1132666 3039134
0.15839839 -0.10774264 1.1093879 3500454
-0.12910911 -0.10396928 1.1128012 3171232
0.15716019 -0.099313147 1.1102806 3631529
-0.12986511 -0.095226645 1.1119685 3302564
0.15536907 -0.089025781 1.1058509 3697839
0.15583476 -0.089219034 1.1088482 3763633
-0.13017365 -0.084664464 1.1125998 3368355
0.15615419 -0.077960223 1.108373 3436468
0.17038947 -0.074027672 1.1083889 10992842
-0.12805945 -0.074200898 1.1123977 3697068
0.15379497 -0.064997643 1.1124811 3765679
0.15697929 -0.067507543 1.1076571 3830452
0.16994381 -0.069785312 1.1083258 11387079
-0.12716061 -0.066440605 1.1100569 3631022
-0.12506145 -0.063194111 1.1094732 3500456
0.15296847 -0.058144454 1.1094911 3830449
0.15965775 -0.058535323 1.1069208 5207985
0.16625693 -0.059341148 1.1108749 10334913
-0.12762713 -0.054392219 1.1119379 3434161
0.15191275 -0.049238876 1.1091062 3893939
0.15900391 -0.04958469 1.1082078 8428221
-0.1280472 -0.044312652 1.1153508 6194370
-0.12353196 -0.042100191 1.1161067 4421311
0.14954847 -0.037429169 1.110999 5734064
0.15594417 -0.04094955 1.1120557 10203587
-0.12234256 -0.035407551 1.1159798 6852289
0.14790595 -0.031575851 1.1088171 8955077
0.014861115 0.095259778 1.1118566 9737616
-0.08327768 -0.20978308 1.1266122 7635861
-0.079844967 -0.21015981 1.1292361 8100012
-0.093708314 -0.20004162 1.1292702 10535920
-0.08665932 -0.20260635 1.126857 5996227
-0.079922251 -0.20657063 1.1291783 6394567
-0.10406739 -0.18935464 1.1212424 8431615
-0.096977644 -0.1916033 1.1239469 1526185
-0.090685941 -0.19379681 1.1279809 1262491
0.1329404 -0.18623835 1.1257737 11717846
-0.11280487 -0.18098369 1.1212311 7571711
-0.10575181 -0.18307778 1.1227196 1917611
-0.09866716 -0.18538743 1.126434 2379673
-0.091809779 -0.18815146 1.1290476 2644619
0.13438198 -0.17933378 1.1256396 5010097
0.14157516 -0.17626603 1.1223419 10599906
0.14863762 -0.17491883 1.1213605 14081762
-0.1059689 -0.1742081 1.1252328 2709143
0.13519642 -0.16871496 1.1254536 2909858
0.1417796 -0.16816109 1.1215305 4026283
0.14932603 -0.16825199 1.1177404 12307424
-0.11324225 -0.16067007 1.1209042 2775446
-0.10872804 -0.16474129 1.1238157 2775442
0.1428495 -0.15917654 1.1221861 3105445
0.14770299 -0.15832244 1.1171007 2578854
-0.11539815 -0.15348113 1.1229718 2775449
-0.11106589 -0.15572232 1.1274599 2906778
0.14498827 -0.14930685 1.1233937 3564451
0.14826193 -0.14832352 1.1193293 3433893
-0.11942043 -0.14486936 1.124029 2840984
0.14633146 -0.14106789 1.1248394 3565217
0.14998978 -0.13895878 1.1194174 3499430
-0.12453244 -0.13310015 1.1206148 2841497
-0.1214252 -0.13471571 1.1265979 2907290
0.15207037 -0.12825321 1.1215457 3237547
-0.12489266 -0.12362459 1.1220649 2973083
-0.12208659 -0.12397636 1.1264312 3038877
0.15497068 -0.1184853 1.1225257 3827369
0.15751988 -0.11746754 1.1162889 3564710
-0.12614673 -0.11366095 1.1231771 3039391
-0.12341113 -0.11545585 1.1269774 3170977
0.15501964 -0.10839763 1.1221776 3565735
0.15733573 -0.10891444 1.1161512 3500198
-0.12641835 -0.1054393 1.1251894 3170977
0.15508342 -0.099387392 1.1213621 3631790
0.15624148 -0.10099871 1.1240391 3434923
-0.12681487 -0.094909243 1.1240221 3302823
0.15450323 -0.087943256 1.1213495 3566513
-0.12701842 -0.08493226 1.1225277 3368614
0.15339988 -0.078708664 1.1212523 3632560
-0.12666142 -0.077196158 1.1237293 3565995
0.15196463 -0.068590119 1.1198349 3895728
-0.12402772 -0.062063813 1.1250435 3697842
0.14939126 -0.058709845 1.118243 4158132
-0.12256277 -0.053747468 1.1236492 3502262
0.14804828 -0.048049517 1.1192877 4027837
-0.12013114 -0.044189494 1.1228714 3698611
0.14300582 -0.036645692 1.1231743 4619197
0.14879677 -0.039711602 1.1176013 4946612
-0.12658125 -0.037946906 1.1190833 7180220
-0.11895645 -0.034670103 1.1261213 4815032
0.14277163 -0.030178867 1.1224048 5209534
0.1473515 -0.02844654 1.1149752 8425655
0.016108779 0.091307588 1.1149042 9474444
-0.056004874 -0.2194055 1.1360455 8300241
-0.074443862 -0.2116608 1.1325473 7642055
-0.066908173 -0.21212342 1.134583 4815810
-0.060055166 -0.21540383 1.1360383 5210825
-0.083841868 -0.19995183 1.132127 932767
-0.076775752 -0.20321862 1.1337633 2382238
-0.068061262 -0.20603588 1.136 2251168
0.11533222 -0.19887897 1.1332366 6518691
0.12112521 -0.1977524 1.1317058 11319227
-0.085687205 -0.19321886 1.1339103 2447513
-0.080189109 -0.19653887 1.1360192 2513045
0.12279732 -0.18948743 1.131922 4617903
0.12979722 -0.18940207 1.1288717 10929103
-0.095384687 -0.18240383 1.1334606 2971544
-0.089385413 -0.18603292 1.1339792 2774929
0.12466097 -0.18018886 1.1311284 2909086
0.12951154 -0.17917442 1.128708 3105187
-0.10322195 -0.1694015 1.1319054 2709911
-0.09845902 -0.17432243 1.1342709 2644371
0.13082728 -0.16931993 1.1291429 3368356
-0.10566841 -0.16280863 1.1336513 2775444
-0.10059926 -0.16681105 1.1344924 2709910
0.13504758 -0.15934694 1.1299032 3368613
0.13916612 -0.15631938 1.1281937 3499683
-0.10907006 -0.15431517 1.1332427 2841497
0.13672033 -0.15181521 1.132156 3237027
0.14135149 -0.14904973 1.1293765 3302821
-0.1152621 -0.14287004 1.1322155 2645144
-0.11170424 -0.14447987 1.1347308 2775964
0.14426869 -0.1390387 1.1300189 3237542
0.14826646 -0.1353872 1.1290526 3106215
-0.11726027 -0.13449854 1.1329904 2907291
0.14544311 -0.12945257 1.1303297 3499683
0.14847952 -0.12743157 1.1287286 3303338
-0.11844546 -0.1245817 1.1337904 3039134
0.14991489 -0.11890449 1.128837 3499947
-0.12393393 -0.11043677 1.131237 3236770
-0.12163489 -0.11462474 1.1346066 3236770
0.15142566 -0.10835724 1.1290486 3500458
-0.12407341 -0.10395911 1.1311327 3237027
-0.12228278 -0.10421853 1.135112 3302821
0.15357131 -0.097754128 1.1293113 3632048
-0.12428262 -0.094242617 1.1309763 3302824
-0.12248106 -0.095009476 1.1349639 3302569
0.15165126 -0.088906765 1.12909 3632047
-0.12490975 -0.085183084 1.1308368 3434408
-0.1221269 -0.082691759 1.1347567 3434665
0.14801648 -0.077942014 1.1285988 4026292
-0.12470105 -0.074809633 1.1306636 3631531
-0.12293596 -0.073882833 1.1346239 3631531
0.14793181 -0.06998682 1.1270956 4157366
-0.12484052 -0.068331979 1.1305593 4025255
-0.12176839 -0.063106552 1.1327156 3632304
0.14713514 -0.058220167 1.1264695 4289211
-0.11851067 -0.054053389 1.1319485 3568048
0.14375785 -0.047512047 1.1270093 4094399
0.14620215 -0.051826268 1.1283785 4224702
-0.1173571 -0.048010662 1.130118 3764911
-0.11397458 -0.043583218 1.1324971 3895729
0.14103207 -0.039135233 1.1276993 4487616
-0.11891741 -0.029888123 1.1328439 6458567
-0.11391068 -0.033564307 1.1322318 3895996
0.140709 -0.028120585 1.1264684 5735616
0.14749414 -0.024729259 1.1259148 9477559
-0.11852182 -0.027180493 1.133794 6852289
-0.11527149 -0.027111284 1.1337459 5933254
0.049151577 0.077946834 1.1256493 9474701
-0.018854823 -0.22887349 1.1476678 7248329
0.014004869 -0.22977847 1.1464083 5801654
0.021993287 -0.2284874 1.1457384 5210039
0.034817405 -0.22882596 1.1468925 6328255
0.042481497 -0.22866276 1.1467793 7379645
0.054035846 -0.22829503 1.1466066 8430007
0.061888833 -0.22641847 1.1424615 8625323
-0.05703906 -0.22168881 1.1400988 9678537
-0.046122838 -0.22135314 1.1464638 4422071
-0.036752027 -0.22180623 1.14781 2778029
-0.026952974 -0.22341272 1.1476949 2513574
-0.019282639 -0.22596166 1.1476262 2315684
0.010659533 -0.22605431 1.1471957 2120102
0.022703107 -0.22579786 1.1470177 2185635
0.035817981 -0.22442326 1.1468059 2186146
0.041315906 -0.22540152 1.1467427 2316696
0.056596946 -0.22288543 1.1464809 4486314
0.064117685 -0.22236252 1.1443633 5997746
0.075212181 -0.21915257 1.145008 6063288
0.083864987 -0.21748528 1.1459988 6589614
0.091971733 -0.21753174 1.1458827 8757678
-0.062732838 -0.2098451 1.1399868 1855898
-0.055912666 -0.21215676 1.1431651 2249885
-0.048123673 -0.21423632 1.1471225 2381985
-0.039940242 -0.21617833 1.1477637 3039902
0.077722967 -0.21202983 1.145998 2841504
0.08373297 -0.2113542 1.1459002 3302564
0.093228638 -0.20891768 1.1443896 4420011
0.10294762 -0.20794798 1.1398515 6984117
0.11229164 -0.20503044 1.1373825 6254993
-0.074091025 -0.19955304 1.1407819 2710418
-0.066245176 -0.2025927 1.1443003 2775447
-0.059435047 -0.20463184 1.1470554 2906776
0.09551958 -0.20096008 1.1451596 3171492
0.10395802 -0.1994516 1.1422124 3237285
0.11220538 -0.19812962 1.1378421 3629215
-0.077069543 -0.19260247 1.1447119 2775191
-0.068823688 -0.19587827 1.1471806 2906012
0.10573906 -0.19018278 1.1435683 3040421
0.11259591 -0.18840809 1.1400535 3105703
0.11846402 -0.18858314 1.1370237 2777257
-0.092767581 -0.17894062 1.1399131 2710677
-0.085868478 -0.1826221 1.1434041 2709909
-0.079539336 -0.18605645 1.1458404 2709910
0.11361868 -0.17994854 1.1434797 3368100
0.12109625 -0.1780248 1.1389463 3302561
-0.094091497 -0.17237377 1.1429362 2710421
-0.089187428 -0.17505595 1.1469994 2644886
0.1155303 -0.17212096 1.1447978 3040936
0.12347419 -0.16888613 1.1425427 3237031
0.12977277 -0.16589756 1.1394891 3368615
-0.10406149 -0.15960208 1.1397587 2776209
-0.098466195 -0.16388834 1.1444994 2841240
0.12535375 -0.16032547 1.1444626 3237287
0.13168634 -0.15804666 1.1391897 3302822
-0.10513959 -0.15289898 1.1441988 2710683
-0.10033402 -0.15604435 1.1469817 2841499
0.13380417 -0.14954233 1.1415749 3237541
0.1386615 -0.14678499 1.1376469 3237798
-0.10744312 -0.14438167 1.144702 2907293
0.13533726 -0.14070095 1.1439966 3237797
0.13994282 -0.13813977 1.1388869 3303334
-0.11405879 -0.13288836 1.1406078 2907805
-0.11173793 -0.13437787 1.1466575 2907805
0.14161822 -0.12869883 1.1412641 3434407
-0.11473606 -0.12357002 1.141989 3039392
-0.1120157 -0.12460881 1.1473014 3039391
0.14335349 -0.11909023 1.1409544 3500202
0.14736208 -0.11617794 1.1354189 3631274
-0.1180552 -0.1144421 1.1437542 3170979
0.14511463 -0.10875005 1.1428869 3631791
0.14841047 -0.1082039 1.1370511 3566510
-0.11866494 -0.10408504 1.1447743 3105957
0.1440357 -0.097677425 1.1414982 3632305
0.14921007 -0.098760739 1.1354399 3501227
-0.1192951 -0.09410841 1.1423335 3237546
0.14337039 -0.088633597 1.1404804 3698099
0.14792159 -0.088997714 1.135365 3698094
-0.11887852 -0.084346458 1.1424055 3434923
0.14441466 -0.079327703 1.1408583 3895479
0.14661297 -0.0813867 1.134859 3895477
-0.11871579 -0.0738746 1.1428505 3566256
0.14444941 -0.068001702 1.1420057 4027579
0.14688209 -0.06742762 1.1386269 4157882
-0.117924 -0.064959072 1.1419364 3567024
0.14219764 -0.058519047 1.1413727 4159422
0.14646512 -0.058646154 1.1368885 4289724
-0.11585342 -0.055112313 1.1395484 3567791
-0.11271567 -0.053025503 1.1448035 3764403
0.14025089 -0.048545897 1.1397465 4356797
-0.111255 -0.044156034 1.1385403 3830196
0.13736933 -0.039038487 1.1386986 4619718
-0.10998338 -0.033188701 1.1406802 3896507
0.13303083 -0.027228981 1.1390564 4817095
0.13752297 -0.027762495 1.1357775 4948420
-0.11777099 -0.024162337 1.1417356 6916535
-0.11027724 -0.024538055 1.1413258 5210049
0.13207743 -0.020823359 1.1410768 5013440
0.13649423 -0.020349681 1.1386714 5998788
0.030131504 0.051022269 1.1372252 5859448
0.038298123 0.051243685 1.1352462 6122362
0.043896757 0.051539771 1.1381612 6319482
0.055035844 0.053108133 1.1419758 5330522
0.030595558 0.05545532 1.1356215 5792108
0.038392819 0.056458049 1.1349592 5527648
0.04380279 0.055903904 1.138091 5067354
-0.013069855 -0.22867453 1.1505816 4354997
-0.0056617651 -0.22951218 1.1524889 4684224
0.004205131 -0.22903129 1.1508718 4289976
0.015123638 -0.22650531 1.1501393 2054307
0.025563858 -0.22683212 1.149994 2777510
0.031076128 -0.22781295 1.1499306 4026798
0.047542021 -0.22746232 1.1496873 5604271
0.051348612 -0.22573397 1.149604 4881326
-0.032267686 -0.21872884 1.1506954 3039902
-0.024293624 -0.21946895 1.1510926 2710943
-0.015745923 -0.22115105 1.153802 2645152
-0.0057608411 -0.22374275 1.1570636 2514339
0.0041674199 -0.22343633 1.1563818 2514851
0.014006327 -0.22074559 1.154662 2842787
0.023847982 -0.22014767 1.1523097 2908579
0.033515003 -0.21953896 1.1526493 3039651
0.043737307 -0.22000656 1.1536208 2908578
0.053062256 -0.21894002 1.1532187 2778020
0.063021958 -0.21710366 1.1507229 2646433
0.072632164 -0.21960671 1.1491964 5012145
0.084185861 -0.22064191 1.1490467 8955830
-0.045472112 -0.2105853 1.1510382 2841242
-0.035557967 -0.21241423 1.1529733 2775960
-0.026496742 -0.21346557 1.1547935 2841500
-0.016991228 -0.21537547 1.158422 2907551
0.014679405 -0.21396387 1.1579418 3105184
0.023882665 -0.21339931 1.1577998 3170722
0.033830751 -0.21318746 1.1576529 3302053
0.043951161 -0.21241906 1.1574942 3170723
0.054432087 -0.21127436 1.1573242 3105188
0.063719526 -0.21031058 1.1554598 3170467
0.073262885 -0.20996025 1.1514297 3236258
0.083303057 -0.20633535 1.1492692 3171236
-0.062331744 -0.19960138 1.1508154 2906776
-0.055738434 -0.20167914 1.1518975 2907033
-0.047216594 -0.20242348 1.1554781 2841497
-0.037830565 -0.20623544 1.1585727 2775704
0.06461376 -0.20479122 1.157071 3105443
0.073456503 -0.20460293 1.1569402 3105443
0.08414977 -0.20067734 1.1554581 3105956
0.092400983 -0.19768731 1.1517524 3105956
-0.073545352 -0.18885812 1.1508009 2644884
-0.066358134 -0.19222556 1.1537533 2775705
-0.057889216 -0.19487515 1.1563418 2841497
0.087587968 -0.1932438 1.15655 3172006
0.095177792 -0.1907158 1.1553988 3040421
0.10095252 -0.18828294 1.152775 2974628
-0.082516246 -0.18026355 1.1507894 2645144
-0.075793281 -0.18183964 1.1537778 2710425
-0.070411287 -0.18442246 1.1552556 2776216
0.10423674 -0.17956826 1.1528348 3171493
0.10912083 -0.17728409 1.1495761 3237026
-0.085689351 -0.17227112 1.1532929 2710424
-0.079217225 -0.17427924 1.1571907 2710937
0.10705575 -0.17292446 1.1559358 3302823
0.11325169 -0.16875763 1.1526195 3172005
0.11896608 -0.16550848 1.1516414 3172006
-0.094642885 -0.16112021 1.1506503 2841498
-0.090124033 -0.16346556 1.1555479 2907290
0.11566052 -0.16168302 1.1556273 3303592
0.12181485 -0.15819088 1.1541475 3237544
0.12777454 -0.15382163 1.1473216 3303337
-0.096564829 -0.15267512 1.1522542 2973342
-0.091817401 -0.15559569 1.1585208 3038879
0.12528798 -0.15034162 1.1546354 3237544
0.12951696 -0.14729483 1.1499901 3303336
-0.10484716 -0.14130867 1.1514728 2973342
-0.098650582 -0.14426924 1.155933 2973600
0.13274617 -0.13808024 1.1509926 3368872
-0.10657474 -0.1334599 1.1527222 3039392
-0.10104869 -0.13407077 1.1583009 3236259
0.13386875 -0.12858701 1.1525711 3500460
0.13816091 -0.12614541 1.1467177 3434923
-0.10787436 -0.123835 1.1531192 3170978
0.13473132 -0.11962385 1.1533285 3500719
0.13932259 -0.11707902 1.1498864 3500718
-0.11471797 -0.11286073 1.1501483 3237029
-0.11079042 -0.11405115 1.1561126 3237286
0.13950968 -0.10817254 1.1525102 3697329
-0.11490705 -0.10407914 1.1500069 3237543
-0.11225005 -0.10346658 1.1574603 3172263
0.14052418 -0.09904673 1.1518404 3697843
-0.11537396 -0.094402723 1.1528556 3303340
-0.1132504 -0.09320455 1.1578065 3303852
0.14007942 -0.088602938 1.1520756 3764149
-0.11569054 -0.084694251 1.1497002 3500716
-0.11288787 -0.083139114 1.1576362 3501229
0.14277464 -0.078130715 1.150436 3764661
-0.11549794 -0.076636672 1.1495652 3566512
-0.11233848 -0.073076755 1.153826 3632306
0.1395728 -0.067990981 1.150215 3896764
-0.111944 -0.063446641 1.1536623 3698357
0.13340543 -0.058045462 1.1523374 4291265
0.13718346 -0.059222829 1.146777 4225217
-0.11053262 -0.054413714 1.1531301 3764408
0.13397139 -0.048440039 1.1515049 4554434
0.13648283 -0.04820881 1.1454633 4488640
-0.10779688 -0.043629207 1.1537138 3895997
-0.10369983 -0.040290341 1.1568007 4027323
0.13333303 -0.037670814 1.1503372 4817354
-0.10650947 -0.034122668 1.1500719 3962044
-0.10247565 -0.032736987 1.155859 4093118
0.12378664 -0.025493905 1.1532758 5014224
0.12917984 -0.02817595 1.1492411 4751563
-0.10565516 -0.023713388 1.148555 4290235
-0.1007124 -0.023406982 1.1530131 4158908
-0.094532713 -0.020927571 1.1563507 4028609
0.12194614 -0.01852259 1.1514099 4817874
0.1285466 -0.018181145 1.1460855 5145287
-0.098502934 -0.016745612 1.1507381 4487616
-0.093120091 -0.013898902 1.1548815 4356800
0.11282236 -0.0062043294 1.1511171 5276623
0.11917309 -0.0091411322 1.1473584 5604813
0.12858009 -0.010180764 1.1458427 6720449
-0.091149695 -0.0068484619 1.1560711 5671109
0.11086449 -0.00065704435 1.1524832 5802961
0.1171874 -0.0013573244 1.1483073 6787017
0.034478627 0.013519801 1.1539243 12972031
-0.020998377 0.022220589 1.1525816 5869264
0.011500008 0.019296817 1.1541611 7515376
0.018999711 0.019087896 1.1540563 8764660
0.028613437 0.018850304 1.1539215 10146554
0.035267703 0.017959885 1.1538401 10870005
-0.078972705 0.029202409 1.147302 8028800
-0.073857859 0.029677384 1.1472204 7305855
-0.016605146 0.023490243 1.1544977 5671370
-0.013289116 0.023560859 1.1544487 5869265
0.0099230874 0.024055138 1.1541058 6988787
0.014344459 0.024149284 1.1540405 7185904
0.10037082 0.034827687 1.1526241 6314850
-0.072745837 0.034703977 1.1471219 8028802
0.097199708 0.038298793 1.1526129 6117979
0.072906598 0.048177384 1.1447994 5593178
0.075102054 0.048224129 1.1447669 5658970
-0.0113963 -0.21815795 1.1623878 2973083
-0.0058266614 -0.21914899 1.1623238 2973595
0.0035995767 -0.2185072 1.1628441 2973598
-0.031599838 -0.20749186 1.1625044 2842012
-0.025192361 -0.20874247 1.1624324 2776219
-0.015778806 -0.21099824 1.1638578 2907806
-0.0061336644 -0.21214598 1.165372 2907807
0.0044353716 -0.21245874 1.1654 2973599
0.013224209 -0.20997494 1.1625652 3039136
0.023952715 -0.20874551 1.1630571 3170723
0.033915907 -0.2084247 1.1622413 3236770
0.043692231 -0.20776646 1.1614226 3170979
0.052731488 -0.2073606 1.1612855 3170980
0.059350573 -0.20555519 1.1611605 3171236
-0.042882398 -0.19885504 1.1625255 2842012
-0.036105726 -0.20095319 1.1639171 2842011
-0.026431471 -0.20299013 1.164818 2842012
-0.018092711 -0.20423745 1.166257 2907805
0.028403303 -0.20463917 1.1655928 3302309
0.034372151 -0.20337363 1.1643428 3302308
0.043000765 -0.20309059 1.1628562 3171236
0.053757057 -0.20345503 1.1612067 3171236
0.064374156 -0.20182849 1.1626939 3105443
0.074142598 -0.19970822 1.1618513 3171492
0.080634959 -0.1977044 1.1607245 3040420
-0.064195089 -0.18821257 1.1626585 2841497
-0.055354856 -0.19076523 1.1631062 2907291
-0.046842635 -0.19321328 1.1643729 2907549
-0.040113822 -0.19422144 1.1664104 2907551
0.077133887 -0.19246708 1.16469 3040420
0.084081419 -0.19050795 1.1626625 3106213
0.091813676 -0.1877756 1.1604004 3106214
-0.06580893 -0.18172732 1.1645758 2907290
-0.059140377 -0.18444087 1.1660244 2973340
0.088071771 -0.18332665 1.1643823 3302823
0.094029523 -0.18085322 1.1618552 3237030
0.1000968 -0.17731404 1.1618874 3237031
-0.083480522 -0.16864985 1.1626158 2841497
-0.075003415 -0.17194086 1.1630809 2842012
-0.068801709 -0.17400549 1.1654925 2907547
0.1051028 -0.16953588 1.1608328 3368361
0.11010221 -0.1661922 1.1597824 3237285
-0.085086755 -0.16276602 1.1625423 2973085
-0.078263797 -0.16280153 1.165182 3039135
0.10724574 -0.16236931 1.159761 3368615
0.11370704 -0.15888929 1.160338 3237799
0.11819398 -0.15547839 1.15949 3303337
-0.092759721 -0.1499837 1.1624434 2973857
-0.087234028 -0.15337139 1.1639751 3039137
-0.081248507 -0.15408559 1.1663455 3104930
0.11555243 -0.15132871 1.1614604 3172264
0.12169191 -0.14832857 1.159989 3238059
-0.094112866 -0.14179325 1.1633288 3039650
-0.090012409 -0.14525333 1.1663271 3105700
0.1247414 -0.13849506 1.1612712 3369132
0.12892726 -0.13860537 1.1590583 3434410
-0.097042277 -0.1332801 1.1639458 3171236
0.1264728 -0.13031825 1.1621585 3500719
0.12977709 -0.12796286 1.1608719 3435183
-0.10447215 -0.12138268 1.1621432 3302823
-0.099741332 -0.12321883 1.1647723 3171495
0.13031885 -0.11785571 1.1605164 3566514
-0.10638328 -0.11276372 1.1634842 3368873
-0.1026546 -0.11383289 1.1651938 3368875
0.13282111 -0.1086247 1.1593105 3697588
-0.10746472 -0.10370002 1.1645635 3303850
0.13421956 -0.098951876 1.1617608 3763892
0.13737962 -0.098256715 1.1582744 3698099
-0.10904305 -0.093544059 1.1633528 3435181
-0.10314426 -0.093869269 1.1656736 3435438
0.13502909 -0.088797659 1.1621541 3829942
0.13782191 -0.088235274 1.1592467 3764149
-0.10820974 -0.083845474 1.1635817 3501229
0.13474153 -0.075442478 1.1619391 3896505
0.13916664 -0.078266248 1.1597393 3830455
-0.10783058 -0.073982701 1.1629529 3632563
-0.10364749 -0.070497714 1.1652974 3567542
0.13219184 -0.068378821 1.159288 4027837
0.13747676 -0.071845412 1.1578398 3896505
-0.10729127 -0.063914813 1.1625748 3829940
-0.10379127 -0.063820124 1.16519 3699127
0.13050166 -0.058780208 1.1603932 4291009
-0.1070988 -0.053777065 1.1618721 3895737
-0.10339148 -0.052836258 1.165004 4027576
0.13057204 -0.048749413 1.1595609 4422849
-0.10607219 -0.047071435 1.1609472 4158911
-0.10163666 -0.043245196 1.1628209 4093372
0.13029891 -0.039017811 1.158905 4817355
-0.098098345 -0.033777144 1.1621529 4093630
-0.093380556 -0.030195192 1.1644881 4094397
0.12262759 -0.028420523 1.1595643 5080014
0.1271773 -0.031563163 1.1573275 4883149
-0.096165895 -0.026147358 1.1604609 4028348
-0.091694929 -0.023470305 1.161853 4028864
0.11792283 -0.018883124 1.1590312 4949202
-0.088335194 -0.013799824 1.1619641 4029123
-0.084134296 -0.011440948 1.164047 3963586
0.11164008 -0.0091366544 1.1598511 5146069
0.11513718 -0.01351063 1.1572051 5080276
-0.08772254 -0.0059941933 1.1600085 5342665
-0.080590956 -0.0036284998 1.1638678 4882633
-0.017233357 0.0014891922 1.1628697 6070261
-0.010555599 0.0016313866 1.162771 6528744
-0.0038778409 0.0017735809 1.1626724 8827627
0.011703592 0.0021053702 1.1624421 10340848
0.020461967 0.0016556159 1.1623231 8895736
0.027981557 0.001115866 1.1622235 6266608
0.10231785 0.0034620762 1.1601123 5475287
0.1068501 1.347065e-005 1.1584364 5475028
-0.07727658 0.0024015233 1.1617206 5999306
-0.070641741 0.0036524385 1.1616043 5540557
-0.062157437 0.0071576312 1.1607575 5803727
-0.04944291 0.0092159957 1.1632077 4950220
-0.040458828 0.0082826465 1.1630933 5016280
-0.030728817 0.007872209 1.1625596 5411294
-0.020710174 0.0080423802 1.1605718 5806569
-0.010701083 0.0082947016 1.1620637 7120874
-0.0011227019 0.0092551932 1.1625099 12379901
0.0094436388 0.0089152008 1.1598361 13891069
0.019251809 0.0088745281 1.1590214 12969723
0.029211603 0.0093379095 1.1597545 9946095
0.0392913 0.0093274266 1.1600121 10013177
0.048980985 0.011410661 1.1595973 7449069
0.055627335 0.013432786 1.1616225 5411552
0.099302538 0.0072631463 1.1585931 6526426
-0.047570825 0.014204487 1.1630988 6264275
-0.040031731 0.015128441 1.1604743 5803990
-0.030492444 0.015937567 1.1588231 5345755
-0.020515494 0.017411947 1.1586549 5412839
-0.010933483 0.018217184 1.1590036 5676266
-0.0018446594 0.01752723 1.1612414 7253489
0.0079620844 0.017524637 1.1592424 8436213
0.017972339 0.015490063 1.1581311 12051453
0.032295778 0.020233586 1.1578467 10082302
0.040149704 0.019661076 1.1577427 10607102
0.048650268 0.018996656 1.157631 7515119
0.055719256 0.018554866 1.15887 6068200
-0.0088383444 0.023796208 1.1583817 6001365
-0.0044017397 0.023890682 1.1583161 6396124
0.10794202 0.032053001 1.1565614 6447199
-0.0026613735 -0.20817941 1.1701001 3039391
0.0048889881 -0.20742232 1.1714791 3039135
0.01632368 -0.20777516 1.1698196 3104930
-0.031937793 -0.19763032 1.1703495 2776478
-0.025514893 -0.19835716 1.1722691 2842271
-0.015548106 -0.19974947 1.1743306 2907807
-0.0062762015 -0.20140335 1.1747378 2908063
0.0037738737 -0.20202142 1.1757076 2973600
0.014064053 -0.20082724 1.1750728 3105187
0.023968732 -0.20027992 1.1740011 3236773
0.033632472 -0.19874555 1.1731559 3237029
0.044579696 -0.19859701 1.1730622 3171237
0.054215919 -0.19937867 1.1706355 3171236
0.063691892 -0.19762638 1.1698929 3105444
0.072492026 -0.19596523 1.1688154 3171493
-0.044273131 -0.18897013 1.1735861 2841758
-0.036114439 -0.19109121 1.1743034 2907551
-0.02714207 -0.19196147 1.1770124 2842271
-0.016416598 -0.19290301 1.1780499 2908064
-0.0096460842 -0.19388372 1.1779683 2973857
0.011717221 -0.19342881 1.1776526 3105444
0.024563655 -0.19215538 1.1774464 3237030
0.034608461 -0.19237021 1.1765047 3302823
0.044248857 -0.19138539 1.1762264 3171495
0.053571127 -0.18978488 1.1755973 3105703
0.063280933 -0.18984015 1.1752493 3105703
0.073047094 -0.18916446 1.1731969 3105702
0.081284739 -0.18652917 1.1702484 3105958
-0.055737279 -0.18154022 1.1720763 2973598
-0.04764431 -0.18301901 1.1763378 2907551
-0.03768643 -0.18463819 1.1782212 2908065
0.074696407 -0.18066598 1.1765345 3237288
0.083463684 -0.17980483 1.1739489 3302823
0.092038229 -0.17762719 1.1708046 3237287
-0.065364309 -0.17045598 1.1732438 3105183
-0.057783693 -0.17361675 1.1764475 2974112
-0.049411088 -0.17560767 1.1782422 2842786
0.084845245 -0.17297381 1.1762619 3171750
0.093375675 -0.16920307 1.1747433 3172008
0.1013395 -0.16734751 1.1702636 3303081
-0.073727071 -0.16098547 1.171018 3104930
-0.067365676 -0.16307496 1.176962 3170978
0.095703281 -0.16078684 1.1759053 3303337
0.10341402 -0.15913883 1.1735165 3368873
0.11027954 -0.15773749 1.1701891 3237543
-0.083804458 -0.14837837 1.1729571 3040164
-0.076986283 -0.15197247 1.1740408 3105701
-0.070452504 -0.15618299 1.1782271 3302822
0.10482486 -0.15005094 1.1755977 3303597
0.11211085 -0.14753824 1.1710865 3238059
0.11909289 -0.14435725 1.1692969 3303852
-0.086365767 -0.14207959 1.1740021 3106213
-0.078497805 -0.14388698 1.1781415 3172007
0.11287553 -0.13838428 1.1750901 3369387
0.12075174 -0.13803828 1.1711698 3435181
-0.093772724 -0.13203777 1.1714991 3237030
-0.087124452 -0.13250035 1.1757452 3237800
-0.080640994 -0.13577729 1.1780393 3303594
0.11456665 -0.13229552 1.1751658 3500972
0.12283463 -0.12789279 1.1717235 3500976
0.12738597 -0.12496811 1.1668587 3500977
-0.095085427 -0.12277865 1.1731445 3237545
-0.090329759 -0.12427858 1.1771014 3303852
0.12446412 -0.11828634 1.1747932 3566772
0.12773493 -0.11861188 1.1707503 3566515
-0.09780398 -0.11312351 1.1731641 3369389
0.1251156 -0.10873784 1.1746272 3763639
0.12838757 -0.10781103 1.1696746 3763639
-0.10491215 -0.099466711 1.1711255 3435181
-0.099415265 -0.10298552 1.1743429 3435438
0.12551945 -0.097641222 1.1744393 3895737
0.13042541 -0.097499996 1.1691885 3764149
-0.10453601 -0.092964202 1.1720804 3435438
-0.099093936 -0.093414493 1.1760718 3501231
0.12539841 -0.092019446 1.1743488 3961530
0.1306154 -0.088010654 1.1690301 3961528
0.13768803 -0.084527694 1.1660466 3895735
-0.10444515 -0.083700001 1.1725272 3501489
-0.10014176 -0.083339855 1.1753423 3501490
0.12501106 -0.074029751 1.1740593 4159679
0.13075285 -0.078660473 1.1693239 3962041
0.13763994 -0.082294218 1.1660107 3895735
-0.10508649 -0.076387607 1.1714163 3501747
-0.10030958 -0.073052503 1.17396 3567541
0.12412429 -0.067674361 1.1739678 4225473
0.1277698 -0.06816338 1.1699222 4159424
-0.098769933 -0.062883958 1.172704 3764919
0.12368345 -0.058809765 1.1738287 4422597
0.12755266 -0.058078453 1.1697599 4357059
-0.098490268 -0.053107213 1.172368 3896505
-0.093676321 -0.052814391 1.1768664 3962298
0.12332986 -0.048193507 1.1736597 4685767
0.1273355 -0.047993526 1.1695976 4422851
-0.097252324 -0.043983333 1.1703715 4027836
-0.092201248 -0.042025726 1.1755769 4028094
0.12119692 -0.037678197 1.1713998 4948684
0.12706438 -0.03952818 1.1664619 4751818
-0.095753856 -0.035870481 1.1686165 4093632
-0.090173937 -0.032207415 1.1743234 4094399
0.11425769 -0.027389087 1.1734493 5080784
0.11852285 -0.028442793 1.1686039 5211343
-0.087129593 -0.023722984 1.1726575 4094402
-0.080631226 -0.020477995 1.1751474 4226244
-0.074163683 -0.018652752 1.1760244 4620744
-0.020217441 -0.016379163 1.1752088 5412064
0.0022702459 -0.015900314 1.1748766 6463211
0.010421954 -0.019564547 1.174819 6397929
0.020092487 -0.018717811 1.1746656 6397929
0.029283138 -0.016610675 1.1744984 6003432
0.1110188 -0.018218301 1.1708449 5081042
0.11621562 -0.02130159 1.1653192 5081041
-0.079513907 -0.012724049 1.1698695 4160963
-0.071383774 -0.011529662 1.1750101 4752075
-0.056391418 -0.0081504732 1.1755958 4949201
-0.049633004 -0.0085690022 1.1755052 5016022
-0.040040303 -0.0094952583 1.174715 5213659
-0.030201551 -0.01019907 1.1740204 5411552
-0.020335685 -0.0107641 1.1743182 5740773
-0.010219032 -0.010541901 1.1749688 6003172
-0.00010654517 -0.010329977 1.1744193 6331366
0.009950297 -0.010132127 1.1716703 6989552
0.02005486 -0.0099147186 1.1719211 6792432
0.03012841 -0.009703137 1.1711221 5937640
0.038626425 -0.008570984 1.1732315 5806054
0.049324926 -0.0070242509 1.174052 5674725
0.056047022 -0.0057562366 1.1739342 5674983
0.10192016 -0.007310383 1.1732979 5146841
0.10789829 -0.0093373135 1.1675292 5080789
-0.076325305 -0.0041737258 1.1678162 4554184
-0.072854064 -0.0032250285 1.1707512 4751049
-0.05756858 -0.0025833771 1.1735209 4818129
-0.050139815 -0.0024357811 1.1726111 5015507
-0.040651783 -0.0022747368 1.1690707 5147609
-0.030566018 -0.0020764396 1.1676217 5346018
-0.020882521 -0.0022105202 1.1700959 5937898
-0.010417446 -0.0027306303 1.1701757 6462952
6.6366047e-006 -0.0017751679 1.1691206 8303605
0.0093652038 -0.001695253 1.1679682 8501495
0.01922879 -0.0024764091 1.1670252 7252467
0.030534558 -0.0016793609 1.1676884 6069484
0.039669007 -0.00038325787 1.1683968 6135528
0.049830895 -0.00050082058 1.1713488 5741031
0.05923612 -7.9102814e-005 1.1727948 5543655
0.068698719 0.0014354661 1.1736337 5477092
0.078731969 0.0029758736 1.1734637 5739747
0.090106122 0.0029680878 1.1732997 5280481
0.099326819 0.00047948956 1.1695143 5015513
0.10482322 -0.0014128909 1.1671578 4949463
-0.069768973 0.002669394 1.1676093 4818122
-0.060359851 0.0038628429 1.167454 5147606
-0.051689908 0.0047922879 1.1673137 4818639
-0.042966541 0.0032401234 1.1672133 5344472
0.0016921572 0.0047497004 1.1665442 12971007
0.0061712535 0.0042864457 1.1664872 12905215
0.030740142 0.0048096105 1.1661241 5807584
0.04414136 0.0050949752 1.1659261 6004710
0.050183199 0.0061812699 1.1658211 5807083
0.05894975 0.0088784844 1.1677842 5477863
0.06749694 0.0086657926 1.1701982 5542628
0.079416998 0.0059901178 1.1734043 5673698
0.08991871 0.0081485957 1.171717 5804766
0.095512673 0.006188862 1.165167 5147865
0.061769191 0.016642846 1.1654823 5412324
-0.0028020795 -0.19659388 1.1819149 3039650
0.003658616 -0.19710127 1.18183 3039650
-0.023279585 -0.18912917 1.1820879 2842271
-0.016510431 -0.18898505 1.1819879 2973857
-0.006146865 -0.18983559 1.1831157 2973857
0.0036579864 -0.19135952 1.1842628 3039395
0.014261939 -0.18921097 1.1833258 3171237
0.023524506 -0.18760681 1.1824546 3237030
0.033861797 -0.18682858 1.1827645 3302569
0.042198218 -0.18679558 1.1824385 3237546
-0.043167934 -0.17907207 1.1822098 2908065
-0.035572104 -0.17987776 1.1821135 2973857
-0.026840501 -0.18143977 1.1830133 2973857
-0.017040215 -0.18311444 1.1840173 2973858
-0.0087052807 -0.18373585 1.1857901 3105444
0.022990739 -0.18306093 1.1853217 3237030
0.034655582 -0.18130255 1.1851245 3302825
0.043570116 -0.1806625 1.1846776 3171754
0.053410988 -0.18099853 1.1828485 3171752
0.063733667 -0.1803647 1.1821008 3171753
0.072095625 -0.17707518 1.1815143 3237546
0.080246925 -0.17450921 1.1803544 3303592
-0.054545999 -0.16985492 1.1822228 2908579
-0.046279378 -0.17181692 1.1841362 2908579
-0.036403157 -0.17306212 1.1849234 3105444
-0.027701229 -0.17462744 1.1859146 3105443
0.06694378 -0.17306508 1.1845236 3303339
0.074906409 -0.17064328 1.1830353 3303082
0.08322484 -0.16839112 1.1807826 3237545
0.089078136 -0.16529171 1.1800758 3303850
-0.063814454 -0.15876547 1.1821746 3302822
-0.057079025 -0.16289183 1.1843957 3040165
-0.049847275 -0.16649207 1.1861007 3040167
0.0780688 -0.16376826 1.1842105 3303598
0.084029943 -0.15966091 1.1831157 3238061
0.092519358 -0.15744878 1.1810088 3303596
0.10014144 -0.15489799 1.1797457 3369131
-0.073818833 -0.14844415 1.1821496 3171751
-0.067296758 -0.15191606 1.1835246 3368615
-0.060279019 -0.15538928 1.1860691 3171751
0.1018357 -0.1482619 1.1811126 3369134
-0.07594499 -0.14143515 1.1820654 3369130
-0.069742613 -0.14321506 1.1850057 3434922
0.10277553 -0.13855049 1.1824877 3435183
-0.077835575 -0.13285449 1.1832855 3434923
0.10537636 -0.13139695 1.1824853 3501232
0.11205844 -0.1281317 1.1817234 3435694
0.11871344 -0.12628549 1.1790082 3501232
-0.086300179 -0.12189518 1.1828943 3369646
-0.080478676 -0.12549888 1.1845366 3435182
0.11560627 -0.11880179 1.1829313 3567282
0.11966738 -0.11821575 1.1806808 3567027
-0.094976492 -0.10939083 1.1818142 3501231
-0.090268753 -0.11317741 1.184559 3435439
0.11543567 -0.11087798 1.1828038 3829686
0.12045232 -0.1079867 1.1809057 3829431
-0.095049366 -0.10600633 1.1817597 3501231
-0.090709873 -0.10264647 1.1833091 3567024
0.12256356 -0.098553464 1.1811651 3830201
-0.095353007 -0.091904283 1.1815327 3632818
-0.092080206 -0.092522949 1.1834961 3698612
0.12444251 -0.087912366 1.1802965 3896507
-0.095559478 -0.082314894 1.1813785 3633333
-0.091671221 -0.082382858 1.1841241 3764919
0.12405115 -0.077719182 1.1796349 4093886
-0.096200235 -0.073524818 1.1812435 3633334
-0.092137612 -0.072453193 1.184368 3830201
0.12085164 -0.06814988 1.1802465 4291523
-0.09195824 -0.062170863 1.1826631 3896506
0.12012751 -0.057689637 1.1794629 4619975
-0.088884018 -0.052552614 1.1825086 4028348
0.11404639 -0.046355583 1.1817653 5146320
0.11850686 -0.048497863 1.1807358 4883148
-0.087390028 -0.043127641 1.1809034 3962814
-0.082403168 -0.041620888 1.1833788 3963072
0.11284295 -0.037577111 1.1801382 5146577
0.11661109 -0.039151605 1.1781093 5080527
-0.086214915 -0.034034088 1.1804515 4028607
-0.080045007 -0.032121412 1.182465 4291526
-0.030156419 -0.029041372 1.1835618 5147865
-0.022690088 -0.028655887 1.1834477 5344731
-0.0064087771 -0.027403198 1.1831923 5345501
0.00038322806 -0.027258575 1.1830919 5739743
0.010588612 -0.029294685 1.1816444 5936862
0.019645795 -0.02910471 1.181844 5871068
0.02983962 -0.027763821 1.1826752 5739228
0.04792726 -0.026246183 1.1823894 5213656
0.11077453 -0.028739952 1.1799232 4949970
-0.078459129 -0.024670191 1.180186 4422856
-0.070105746 -0.019700095 1.1818026 4686797
-0.059760764 -0.018348552 1.181813 4884690
-0.049315222 -0.019540466 1.1831822 4950486
-0.03885885 -0.020090364 1.1822069 5213659
-0.030293714 -0.021109685 1.1802329 5279707
-0.020105928 -0.022023752 1.180501 5345244
-0.0099804848 -0.020177111 1.1802357 5411808
-0.00010322779 -0.021083958 1.179906 5806052
0.0092841629 -0.024024539 1.1789095 6068964
0.021326313 -0.024144337 1.1787378 6068963
0.031322084 -0.021535672 1.179474 6003173
0.039751738 -0.019623391 1.1801982 5608417
0.049957663 -0.019405708 1.1806475 5411038
0.056837026 -0.019261502 1.1821462 5279709
0.10146321 -0.016569152 1.1805348 5212630
0.10715955 -0.020067014 1.1787661 5015248
-0.066555753 -0.013976425 1.1798389 4949712
-0.059786595 -0.013832286 1.1797389 4949713
-0.049632862 -0.01361607 1.1795888 5016279
-0.040223159 -0.013791926 1.1794559 5213659
-0.031557485 -0.014359847 1.1793402 5345501
0.041198786 -0.012246266 1.1782558 5871590
0.049648087 -0.011502005 1.1781217 5871847
0.059882704 -0.0090190023 1.1799338 5543139
0.067145668 -0.0077305213 1.1800936 5280225
0.091685317 -0.0071945488 1.1814455 5411294
0.097538784 -0.0085245147 1.1788368 5279196
0.069209278 -0.0026203617 1.1776938 5411556
0.078762479 -0.00072391331 1.1775248 5412066
0.090044394 -0.00048367679 1.1773582 5477344
0.09686213 -0.0025958717 1.1772944 5213404
0.0046321405 -0.18666369 1.1896467 3105189
-0.015899841 -0.17861833 1.1908112 3039906
-0.0061499197 -0.18053856 1.1911306 3039908
0.00343398 -0.181465 1.1929127 3105447
0.013985748 -0.18050504 1.1901609 3105702
0.023028806 -0.17907536 1.1892568 3171750
0.032003131 -0.17847106 1.1891173 3237289
0.043424457 -0.17636846 1.1889181 3237548
0.05364674 -0.1761508 1.1887671 3171752
0.062733211 -0.17595731 1.1886327 3171752
-0.043803502 -0.16777191 1.1900356 3039909
-0.035927925 -0.16832124 1.19082 3105701
-0.027693257 -0.1707693 1.1923983 3105443
-0.017960012 -0.17593294 1.1937975 3040163
0.012790028 -0.17436606 1.1933281 3105960
0.024162209 -0.17300913 1.1931418 3105958
0.033212986 -0.1713177 1.1921833 3237545
0.0435692 -0.17005369 1.1909181 3237547
0.053594995 -0.1695354 1.1902596 3237544
0.063652225 -0.16909263 1.1901915 3237545
0.072244488 -0.16693762 1.1890144 3303339
-0.055250987 -0.15858437 1.19005 3172009
-0.046728343 -0.16152886 1.1923759 3105961
-0.037324645 -0.16351904 1.1938732 3171752
0.046752803 -0.16315386 1.1926541 3303337
0.053590506 -0.16300824 1.1925532 3303593
0.063663229 -0.16181654 1.1923883 3303594
0.072793446 -0.15902722 1.1909605 3303596
0.079541326 -0.15741858 1.1880862 3238062
-0.062817164 -0.15022323 1.190022 3434409
-0.056998789 -0.15181705 1.1927884 3237547
-0.048594348 -0.15399034 1.1938795 3237805
0.073615909 -0.15168744 1.1920785 3238318
0.082830645 -0.14857601 1.1907742 3238572
0.092922769 -0.14817365 1.1889417 3434926
0.099391051 -0.14745098 1.1876363 3369134
-0.065333977 -0.14122397 1.1911417 3435179
-0.059315465 -0.14306907 1.1934105 3369388
0.087337367 -0.14176767 1.1917177 3500977
0.092866778 -0.13812661 1.1905781 3435186
0.098280236 -0.13808121 1.1874986 3500720
-0.074081384 -0.13067031 1.190864 3566511
-0.068294778 -0.13339962 1.1924924 3566767
-0.061009176 -0.13580561 1.1937603 3500977
0.094173253 -0.13045691 1.1909335 3501234
0.10196757 -0.12789318 1.1880283 3501490
-0.083970927 -0.11772095 1.1897941 3566770
-0.077076554 -0.12211617 1.1923672 3632306
-0.070322424 -0.12688304 1.1937482 3632563
0.10360877 -0.11916353 1.1897001 3699127
0.11099193 -0.1177531 1.1874523 3633076
-0.085284948 -0.11214373 1.1907218 3566770
-0.07921917 -0.11286496 1.1936467 3763892
0.10432664 -0.11005284 1.1909524 3633335
0.11091923 -0.10775715 1.1883746 3764407
-0.08560773 -0.10204026 1.192361 3698868
-0.081234522 -0.10253969 1.1935064 3699126
0.10463883 -0.098075025 1.1907514 3962811
0.11116154 -0.098043337 1.1894898 3830969
0.11884824 -0.098143265 1.1865466 3830714
-0.087022305 -0.092143521 1.1903417 3699126
-0.081703156 -0.092542037 1.1933491 3830712
0.11165454 -0.088082343 1.1898861 4028606
0.11976746 -0.088059306 1.1863679 3962300
-0.086636633 -0.082637876 1.1908573 3830970
-0.081709258 -0.082172588 1.1931791 3962813
0.11173987 -0.079011403 1.1903362 4291522
0.11955785 -0.078490704 1.1865777 4094399
-0.087153137 -0.072576992 1.190814 3962044
-0.082238168 -0.072737217 1.1930319 4093630
0.11308824 -0.068241283 1.1898733 4554438
0.11789488 -0.068944395 1.1860813 4357059
-0.0867512 -0.062529832 1.1902623 4093886
-0.082150929 -0.061659988 1.1928489 4291009
0.11102032 -0.057749648 1.1891087 4686026
0.11700479 -0.057762664 1.1859107 4685769
-0.085315958 -0.055253036 1.1887887 4159935
-0.08032766 -0.052632019 1.1915314 4225985
0.1035592 -0.047933143 1.1899444 5015248
0.10963352 -0.049121231 1.187209 5014991
-0.077534527 -0.04276517 1.1905897 4292037
-0.072089098 -0.044832699 1.1924278 4619977
-0.049443968 -0.037509836 1.1919808 5279449
-0.041466657 -0.037339967 1.1918631 5016538
-0.028906327 -0.03821262 1.191696 4950743
-0.01935108 -0.039685793 1.1915824 4950488
-0.010259865 -0.039335717 1.1914455 5147351
0.00016617961 -0.038163614 1.1912758 5278422
0.010768677 -0.040266931 1.1902683 5212886
0.020090759 -0.039419577 1.1892586 5278423
0.030049693 -0.038362004 1.1895976 5147094
0.040974487 -0.038516194 1.1906929 4885460
0.050415631 -0.036822651 1.1898015 4950741
0.059523068 -0.036101606 1.1903856 5016279
0.10183752 -0.038137864 1.1884083 5212370
0.10921852 -0.0391795 1.1857182 5212369
-0.075604931 -0.035757907 1.1903292 4423370
-0.073606834 -0.032526441 1.1898472 4554187
-0.049089424 -0.032483488 1.1916265 5147610
-0.03927486 -0.03157302 1.1897364 5081818
-0.030122761 -0.033653118 1.1896384 5016538
-0.01900446 -0.031977445 1.1895839 5278938
-0.0099142827 -0.031177349 1.1894395 5344730
0.00055594929 -0.031850107 1.1882327 5673948
0.01081207 -0.033888984 1.1870512 5805277
0.019898543 -0.0336955 1.1869169 5541848
0.030096369 -0.032342039 1.1867477 5475544
0.040269732 -0.029852815 1.18656 5213397
0.050944716 -0.030237243 1.1871183 5082070
0.060640212 -0.029221758 1.1886563 5016536
0.069552168 -0.026832297 1.1900889 5213915
0.080276102 -0.025626712 1.1899143 5279453
0.091226235 -0.025849581 1.1897601 5213659
0.10070018 -0.028593689 1.188068 5212628
0.10728247 -0.028425872 1.1855698 5146833
-0.073433436 -0.026592486 1.1881469 4554443
-0.048257604 -0.024238318 1.1877451 5016281
-0.040968865 -0.024992146 1.1876523 5147611
-0.0098281335 -0.025238089 1.1872071 5411294
0.060872808 -0.019187413 1.1860877 5148123
0.069595456 -0.019003019 1.1861589 5213915
0.079655357 -0.018993847 1.1875532 5213917
0.090415187 -0.018689595 1.1879697 5213659
0.098426901 -0.020283803 1.1858974 5212887
0.091014326 -0.011727765 1.1855305 5279708
0.095557563 -0.011631019 1.1854634 5411037
-0.012240458 -0.1764736 1.198725 3106213
-0.006518567 -0.17635176 1.1986405 3105959
0.0047758035 -0.17676547 1.1984843 3105706
0.015224607 -0.17588878 1.1983192 3105960
-0.023259886 -0.16983901 1.1987752 3105700
-0.015795119 -0.17091858 1.1994354 3105957
-0.0066353362 -0.17072353 1.1993001 3106216
0.0036867354 -0.17061102 1.1999995 3106217
0.014311444 -0.16987213 1.1996626 3171752
0.022191247 -0.16921557 1.1992004 3303337
0.03333753 -0.16634408 1.1979012 3369130
0.040203795 -0.16619787 1.1977998 3369132
-0.036094729 -0.15889284 1.1991142 3171753
-0.026336744 -0.16106263 1.2013962 3171752
-0.016011227 -0.16109268 1.2033283 3172010
-0.0067877155 -0.1621612 1.204163 3172012
0.0032496341 -0.16151962 1.2048032 3237802
0.013891361 -0.16059932 1.204089 3303338
0.023095952 -0.16042829 1.2041535 3369133
0.033377811 -0.16000175 1.2022778 3369388
0.0434926 -0.15946113 1.2014322 3303853
0.052720621 -0.15812051 1.1992371 3369643
0.062785998 -0.15712395 1.1975604 3303851
-0.054078676 -0.1475978 1.1988549 3303598
-0.045886394 -0.15022543 1.2004945 3303341
-0.037237622 -0.15173157 1.2038239 3303340
-0.027823422 -0.1529296 1.2065655 3369132
-0.019614149 -0.1546407 1.2064751 3303600
0.013793682 -0.15392932 1.2059815 3303598
0.026465617 -0.15365949 1.2057942 3435186
0.033953577 -0.15350004 1.2056836 3369391
0.043745525 -0.15329152 1.2055389 3369392
0.053483777 -0.15017745 1.2047318 3369390
0.062974632 -0.14895844 1.2009894 3435184
0.072268277 -0.14719714 1.1970254 3369392
-0.05516997 -0.14060366 1.1995561 3369646
-0.047921576 -0.1427003 1.2042872 3303853
-0.040548474 -0.14586651 1.2066332 3173034
0.055257749 -0.14198245 1.2051873 3566773
0.063403212 -0.14050913 1.2043787 3566516
0.073128663 -0.13846183 1.2012708 3500977
0.083017401 -0.13894397 1.1984196 3500975
-0.0656038 -0.12887102 1.198714 3632562
-0.056618579 -0.13171126 1.2016317 3501236
-0.049037144 -0.1316615 1.2060782 3501494
0.075211093 -0.12928352 1.2046911 3698612
0.082748555 -0.12949647 1.2022216 3567283
0.091516234 -0.12690678 1.1993489 3567283
0.098824404 -0.12373421 1.1962574 3501747
-0.073004708 -0.11937898 1.198665 3895478
-0.067333423 -0.12176061 1.201123 3698613
-0.058366604 -0.12246522 1.2051728 3633080
0.076508455 -0.12262907 1.2045631 3699128
0.082997285 -0.11929938 1.204415 3830713
0.092449464 -0.11872802 1.2030689 3699126
0.099144176 -0.1173161 1.1961474 3633333
-0.074485056 -0.11139639 1.1985555 3961271
-0.067658044 -0.11163459 1.2034621 3896247
-0.060826875 -0.11402853 1.2064035 3764921
0.082741357 -0.11235441 1.2043047 3962300
0.093540259 -0.10961907 1.2036333 3896506
0.10095908 -0.10764874 1.1979632 3764920
-0.076026179 -0.10208606 1.1999254 3830712
-0.069104098 -0.10143579 1.2049828 4093627
0.096277572 -0.098697245 1.2038853 4028352
0.10157946 -0.098059841 1.1984638 3962812
-0.076640949 -0.091773644 1.2002652 3962556
-0.070101932 -0.092684418 1.2057426 4028606
0.095527001 -0.088307865 1.2037257 4357317
0.1018832 -0.088423647 1.199635 4225985
