# .PCD v0.7 - Point Cloud Data file format
VERSION 0.7
FIELDS x y z rgba
SIZE 4 4 4 4
TYPE F F F U
COUNT 1 1 1 1
WIDTH 1129
HEIGHT 1
VIEWPOINT 0 0 0 1 0 0 0
POINTS 1129
DATA ascii
0.16803031 -0.079262823 1.1174083 11387079
-0.12801115 -0.059990004 1.1008776 3631022
-0.12570739 -0.05686852 1.1003921 3500456
0.15167211 -0.066715337 1.1174158 3830449
0.15847404 -0.067497529 1.1152648 5207985
0.1647675 -0.068603687 1.1196239 10334913
-0.12793668 -0.047910299 1.1026082 3434161
0.15112643 -0.057771809 1.1168795 3893939
0.15822983 -0.058508627 1.1164212 8428221
-0.12801579 -0.037778813 1.1058898 6194370
-0.12344139 -0.035801612 1.1068995 4421311
0.14929576 -0.045828637 1.1185076 5734064
0.15541509 -0.049672313 1.1199892 10203587
-0.12188514 -0.029184513 1.1067801 6852289
0.14810875 -0.039924871 1.1161717 8955077
0.022202335 0.093882509 1.109799 9737616
-0.093055986 -0.20524743 1.1214999 7635861
-0.089814469 -0.205773 1.124333 8100012
-0.10308489 -0.19492735 1.1234173 10535920
-0.096051916 -0.19789732 1.1214664 5996227
-0.089693256 -0.2021859 1.1242354 6394567
-0.11234229 -0.18380713 1.1146647 8431615
-0.1055623 -0.1863966 1.1178209 1526185
-0.099655479 -0.18887082 1.1222547 1262491
0.12377234 -0.19332838 1.1336956 11717846
-0.12059591 -0.17498113 1.1140352 7571711
-0.11377029 -0.17743023 1.1159741 1917611
-0.10706001 -0.18006708 1.1201385 2379673
-0.10053409 -0.18315986 1.1231951 2644619
0.12559187 -0.18651327 1.1335825 5010097
0.13312784 -0.18387863 1.1307023 10599906
0.14029954 -0.18292457 1.1301428 14081762
-0.11365806 -0.16852948 1.1183821 2709143
0.12699099 -0.17595665 1.1333426 2909858
0.13382061 -0.1758076 1.1298255 4026283
0.14156719 -0.17635219 1.1265064 12307424
-0.11990992 -0.15467928 1.1134827 2775446
-0.11580838 -0.1589479 1.1167054 2775442
0.13533458 -0.16688544 1.1304572 3105445
0.14052708 -0.1663592 1.125671 2578854
-0.12179419 -0.14735872 1.1153435 2775449
-0.11787046 -0.14976966 1.1201108 2906778
0.13792837 -0.15712945 1.1316967 3564451
0.14149129 -0.15637621 1.1278315 3433893
-0.1254001 -0.13853078 1.1160674 2840984
0.13962629 -0.148956 1.1331413 3565217
0.14371613 -0.14711709 1.1279335 3499430
-0.1296493 -0.12655048 1.1122307 2841497
-0.12700336 -0.12825152 1.1184087 2907290
0.14624138 -0.13651133 1.1300801 3237547
-0.12958232 -0.11705103 1.1135629 2973083
-0.12706979 -0.11749528 1.1180965 3038877
0.14960246 -0.12690073 1.1311404 3827369
0.15257716 -0.12610281 1.125062 3564710
-0.13035922 -0.1070208 1.1144981 3039391
-0.12796082 -0.10890965 1.1184766 3170977
0.15021969 -0.11683559 1.1306969 3565735
0.15286599 -0.11755466 1.1248293 3500198
-0.13030607 -0.09877073 1.1164093 3170977
0.15082163 -0.10785317 1.1297984 3631790
0.15172584 -0.10948895 1.1325572 3434923
-0.13005911 -0.088250756 1.1151166 3302823
0.150865 -0.096395522 1.1296378 3566513
-0.12962994 -0.078297645 1.1135147 3368614
0.15027222 -0.087117173 1.1293826 3632560
-0.12892741 -0.070576668 1.1146599 3565995
0.14947677 -0.076955743 1.1277806 3895728
-0.12556128 -0.055591151 1.1159846 3697842
0.14754464 -0.066973552 1.1259369 4158132
-0.12356534 -0.047384188 1.1146013 3502262
0.14672104 -0.056243826 1.1267927 4027837
-0.12057602 -0.037981167 1.1138803 3698611
0.142078 -0.044536348 1.1302505 4619197
0.14802182 -0.047980782 1.1250736 4946612
-0.12643597 -0.031452328 1.1096425 7180220
-0.11908614 -0.028496549 1.1171025 4815032
0.14224215 -0.038076915 1.1294045 5209534
0.14735195 -0.036689889 1.1222533 8425655
0.023046374 0.089909486 1.112956 9474444
-0.066968642 -0.21619204 1.1326824 8300241
-0.084713787 -0.20751753 1.1279839 7642055
-0.077351853 -0.20835632 1.1304824 4815810
-0.070787944 -0.21197966 1.1323875 5210825
-0.09341982 -0.19532862 1.126873 932767
-0.086653776 -0.19894737 1.1289716 2382238
-0.078256898 -0.2021977 1.1317663 2251168
0.10508364 -0.204909 1.1401881 6518691
0.11101151 -0.20411442 1.1390045 11319227
-0.095002055 -0.18848366 1.1284735 2447513
-0.089830399 -0.19206542 1.1309483 2513045
0.11311331 -0.19594873 1.1392418 4617903
0.12027983 -0.19627836 1.1366258 10929103
-0.10405327 -0.17717168 1.1273236 2971544
-0.098302297 -0.1811097 1.1282449 2774929
0.11552344 -0.18677452 1.1384728 2909086
0.12055991 -0.18605311 1.1363446 3105187
-0.11106466 -0.16378981 1.1251632 2709911
-0.10672817 -0.16892731 1.1278646 2644371
0.1223795 -0.17627838 1.1367626 3368356
-0.11325134 -0.15705307 1.1266907 2775444
-0.10846723 -0.16130984 1.1278806 2709910
0.12708068 -0.16653658 1.1376824 3368613
0.13145362 -0.16375658 1.1361992 3499683
-0.11615608 -0.14839572 1.125991 2841497
0.12901969 -0.15907635 1.1399597 3237027
0.13395429 -0.15659952 1.1374425 3302821
-0.12164425 -0.13664985 1.1244736 2645144
-0.11833829 -0.1384148 1.1272181 2775964
0.13736594 -0.14675151 1.1381643 3237542
0.14160721 -0.14333232 1.1374093 3106215
-0.12322866 -0.12817393 1.1250422 2907291
0.13903765 -0.13723879 1.1384524 3499683
0.14227083 -0.13540445 1.1370208 3303338
-0.12392049 -0.11819822 1.1256707 3039134
0.14415748 -0.12696579 1.1371334 3499947
-0.12846828 -0.10381436 1.1226467 3236770
-0.12660868 -0.10807489 1.1261919 3236770
0.14622259 -0.11651271 1.1373338 3500458
-0.12824953 -0.097340442 1.1224705 3237027
-0.12672055 -0.097643197 1.1265545 3302821
0.1489204 -0.10603718 1.1376235 3632048
-0.1279214 -0.087629579 1.1222062 3302824
-0.12640956 -0.088439472 1.126304 3302569
0.14750019 -0.097103365 1.137198 3632047
-0.12804647 -0.078552075 1.1219395 3434408
-0.12537572 -0.076162174 1.125998 3434665
0.14450218 -0.085967079 1.1363772 4026292
-0.12726514 -0.068207845 1.1216776 3631531
-0.12569611 -0.067325056 1.1257294 3631531
0.14494069 -0.078039154 1.1347935 4157366
-0.12704639 -0.061733942 1.1215014 4025255
-0.12383192 -0.05665271 1.1237906 3632304
0.14482303 -0.066255942 1.1340042 4289211
-0.12004726 -0.047797836 1.123136 3568048
0.1420051 -0.055376165 1.1342309 4094399
0.14412408 -0.059796777 1.1357896 4224702
-0.11845853 -0.041850075 1.1213206 3764911
-0.11499151 -0.037579309 1.1238592 3895729
0.13970095 -0.046857081 1.13467 4487616
-0.11919599 -0.023635805 1.1237676 6458567
-0.11436817 -0.027582534 1.1234999 3895996
0.14005128 -0.03585802 1.1333137 5735616
0.1470315 -0.032842472 1.133144 9477559
-0.11871252 -0.020941019 1.1247135 6852289
-0.11546632 -0.021046601 1.1248643 5933254
0.054602087 0.074940406 1.1258385 9474701
-0.031161387 -0.22748271 1.1466541 7248329
0.0016165683 -0.2301625 1.1474217 5801654
0.0096891783 -0.22931001 1.1472305 5210039
0.022382256 -0.23031965 1.1491725 6328255
0.030036625 -0.23056862 1.149528 7379645
0.041583046 -0.23082247 1.1500608 8430007
0.049763471 -0.22942364 1.146387 8625323
-0.068369403 -0.21836337 1.136687 9678537
-0.057857729 -0.21852933 1.143706 4422071
-0.048624378 -0.21946591 1.1456289 2778029
-0.038938038 -0.22159621 1.1461309 2513574
-0.031427287 -0.22455296 1.1465578 2315684
-0.001563428 -0.22625455 1.1479658 2120102
0.010464871 -0.2266458 1.1485245 2185635
0.023623629 -0.22597837 1.1491041 2186146
0.029054061 -0.22725043 1.1493878 2316696
0.044436753 -0.22555992 1.1500393 4486314
0.052089486 -0.22546831 1.1483821 5997746
0.06328214 -0.22284892 1.1496745 6063288
0.071936488 -0.22163454 1.151178 6589614
0.080020852 -0.22211659 1.1515597 8757678
-0.073394917 -0.20623422 1.1361096 1855898
-0.066915818 -0.20886591 1.1397228 2249885
-0.059505813 -0.21130753 1.1441708 2381985
-0.051493865 -0.21367644 1.1453319 3039902
0.066110894 -0.21585849 1.1507468 2841504
0.072143525 -0.215507 1.1510112 3302564
0.081831574 -0.21360251 1.1500621 4420011
0.091846481 -0.21321426 1.1461194 6984117
0.10146768 -0.21083391 1.1441998 6254993
-0.0842053 -0.19533913 1.1361054 2710418
-0.076764084 -0.19874819 1.1401283 2775447
-0.070254482 -0.20111281 1.1433157 2906776
0.084499873 -0.2057696 1.150893 3171492
0.093171105 -0.20475394 1.1484543 3237285
0.10172819 -0.20393296 1.1445855 3629215
-0.087035485 -0.18818811 1.1397768 2775191
-0.079144649 -0.19186813 1.1427788 2906012
0.095366739 -0.19557682 1.1498259 3040421
0.10251055 -0.19421813 1.1467211 3105703
0.10853367 -0.19474685 1.1440588 2777257
-0.10164879 -0.1737693 1.1338903 2710677
-0.095184326 -0.17776886 1.137834 2709909
-0.089210458 -0.18150496 1.1406875 2709910
0.10378081 -0.18578129 1.1501205 3368100
0.11161321 -0.18432036 1.1460356 3302561
-0.10279563 -0.16710189 1.1367619 2710421
-0.098300092 -0.16998935 1.1411444 2644886
0.10603073 -0.17805071 1.1514765 3040936
0.11426066 -0.17527577 1.1496812 3237031
0.12088591 -0.17266908 1.1469904 3368615
-0.11184666 -0.15385735 1.1328536 2776209
-0.10679037 -0.15837459 1.1379704 2841240
0.11648186 -0.16680363 1.1516287 3237287
0.12323723 -0.16493651 1.1467321 3302822
-0.11282714 -0.14704852 1.1371531 2710683
-0.10837717 -0.15040997 1.1402563 2841499
0.12566458 -0.15652727 1.1491591 3237541
0.1308939 -0.15408574 1.1455096 3237798
-0.11469149 -0.1384142 1.1374304 2907293
0.12752518 -0.14774969 1.1515834 3237797
0.13256469 -0.14550602 1.1467409 3303334
-0.12041301 -0.12663777 1.1328256 2907805
-0.11854804 -0.12816998 1.1390204 2907805
0.13460237 -0.13613799 1.1491235 3434407
-0.12066636 -0.11727923 1.134071 3039392
-0.11833402 -0.11839247 1.1395502 3039391
0.13687198 -0.12664101 1.1488267 3500202
0.1413614 -0.12402038 1.1435192 3631274
-0.12358647 -0.10796431 1.1355397 3170979
0.1390709 -0.11638552 1.150762 3631791
0.14273979 -0.11609322 1.1451343 3566510
-0.12369425 -0.097576961 1.1364187 3105957
0.13868058 -0.10529017 1.1492012 3632305
0.1441469 -0.10672837 1.1434826 3501227
-0.12363281 -0.087613769 1.133846 3237546
0.13856995 -0.096237816 1.1480558 3698099
0.14339691 -0.096912168 1.1432329 3698094
-0.12269237 -0.077888027 1.1338476 3434923
0.14009269 -0.08699704 1.1484056 3895479
0.14253631 -0.089249283 1.1425729 3895477
-0.12198909 -0.067434974 1.134199 3566256
0.14067212 -0.075675085 1.1494417 4027579
0.143333 -0.075276449 1.1462132 4157882
-0.12066073 -0.058587391 1.1332477 3567024
0.13898072 -0.066094562 1.1485788 4159422
0.14349945 -0.0665088 1.1443664 4289724
-0.1179178 -0.048897807 1.1308947 3567791
-0.11499634 -0.046913303 1.1363117 3764403
0.13768025 -0.056053646 1.1467385 4356797
-0.11267902 -0.03821766 1.1300629 3830196
0.13538769 -0.046420123 1.1454225 4619718
-0.11094656 -0.027307048 1.1321691 3896507
0.13168256 -0.034391563 1.1453975 4817095
0.13632995 -0.035207808 1.1424056 4948420
-0.11828271 -0.017863527 1.1326562 6916535
-0.11080933 -0.018645354 1.1327107 5210049
0.13095717 -0.027918138 1.1472926 5013440
0.13553107 -0.027713239 1.1451582 5998788
0.033481501 0.049227126 1.1364895 5859448
0.041753188 0.048984908 1.1350131 6122362
0.047172274 0.049018957 1.138263 6319482
0.05812782 0.05003842 1.1427381 5330522
0.034281898 0.053607561 1.1348739 5792108
0.042147886 0.054182522 1.1346812 5527648
0.047319651 0.053380571 1.1381443 5067354
-0.02556178 -0.22755566 1.1499153 4354997
-0.018339563 -0.22876373 1.1522816 4684224
-0.008381133 -0.22883317 1.1512681 4289976
0.0026826328 -0.22690535 1.1511821 2054307
0.013079274 -0.22779265 1.1516807 2777510
0.018523879 -0.22906801 1.1519651 4026798
0.03496889 -0.22960287 1.1527289 5604271
0.038861666 -0.22808209 1.1528624 4881326
-0.04416319 -0.2165955 1.1487536 3039902
-0.036279883 -0.2177563 1.1496465 2710943
-0.028016351 -0.21985808 1.1528914 2645152
-0.018403094 -0.22293782 1.1567847 2514339
-0.0084497789 -0.22317243 1.1567103 2514851
0.0016068676 -0.22103524 1.155571 2842787
0.011591125 -0.22099613 1.1538211 2908579
0.021238448 -0.22090158 1.154747 3039651
0.031342439 -0.22190315 1.1563483 2908578
0.040718701 -0.22134288 1.1565086 2778020
0.050896507 -0.22007537 1.1546105 2646433
0.060431704 -0.2231093 1.1537011 5012145
0.071899965 -0.2247636 1.1542705 8955830
-0.056902766 -0.20775273 1.1482058 2841242
-0.047238279 -0.21008444 1.1507633 2775960
-0.038374726 -0.21159555 1.1531461 2841500
-0.029224727 -0.21396402 1.1573694 2907551
0.0024464699 -0.21425688 1.1588192 3105184
0.011658422 -0.21418789 1.1592364 3170722
0.021593891 -0.21451104 1.1596979 3302053
0.031732015 -0.21428785 1.1601529 3170723
0.042250562 -0.21370837 1.160615 3105188
0.051672664 -0.21326789 1.1593143 3170467
0.061448064 -0.21348199 1.155874 3236258
0.071782745 -0.2104286 1.1542981 3171236
-0.073096976 -0.19588557 1.1468414 2906776
-0.066703998 -0.19829908 1.1483463 2907033
-0.058468282 -0.1994517 1.1524501 2841497
-0.049508139 -0.20371991 1.1561518 2775704
0.05276553 -0.20778367 1.1609231 3105443
0.06159706 -0.20807093 1.1613333 3105443
0.072557792 -0.20474339 1.1604714 3105956
0.081168853 -0.20224836 1.1572497 3105956
-0.083689615 -0.18455835 1.1460336 2644884
-0.076888233 -0.18826684 1.1494541 2775705
-0.068748385 -0.19133198 1.1525832 2841497
0.076321557 -0.19749096 1.1616992 3172006
0.084093235 -0.19538836 1.160991 3040421
0.090140097 -0.19330284 1.1587026 2974628
-0.092163734 -0.17549658 1.1453874 2645144
-0.085730076 -0.17739111 1.148798 2710425
-0.080595821 -0.18023886 1.1506283 2776216
0.093882576 -0.18477651 1.1588781 3171493
0.099072263 -0.18280011 1.1559029 3237026
-0.095044725 -0.16731355 1.147613 2710424
-0.088939726 -0.16961414 1.15192 2710937
0.096864372 -0.17825311 1.162081 3302823
0.10346717 -0.17446792 1.1591102 3172005
0.10939826 -0.17154256 1.1584526 3172006
-0.10320308 -0.15573478 1.1443168 2841498
-0.09912388 -0.15825434 1.1495051 2907290
0.10606916 -0.16749363 1.1621904 3303592
0.11248238 -0.16435575 1.1610569 3237544
0.11907383 -0.16040182 1.1545669 3303337
-0.10475787 -0.14717859 1.1457168 2973342
-0.1005652 -0.15026678 1.1522912 3038879
0.11634021 -0.15669805 1.1616799 3237544
0.12100251 -0.15394327 1.1572729 3303336
-0.11234859 -0.13539612 1.1443173 2973342
-0.10660406 -0.13862556 1.149178 2973600
0.12466004 -0.14490247 1.1583812 3368872
-0.11372048 -0.12745039 1.1453812 3039392
-0.10858469 -0.12828313 1.1512941 3236259
0.12619808 -0.1354631 1.1599324 3500460
0.13096391 -0.13333182 1.1543297 3434923
-0.11451773 -0.11776533 1.1456032 3170978
0.12749806 -0.12654984 1.1606532 3500719
0.13242117 -0.12429988 1.1574744 3500718
-0.12056281 -0.10648023 1.1421106 3237029
-0.11707508 -0.10780095 1.1483159 3237286
0.13293152 -0.11538257 1.1600171 3697329
-0.12026627 -0.09770371 1.1418717 3237543
-0.11803745 -0.097136654 1.1494677 3172263
0.13447841 -0.10633375 1.1593214 3697843
-0.12037963 -0.087979659 1.1445913 3303340
-0.11849875 -0.086832121 1.1496512 3303852
0.13458747 -0.095878936 1.1594263 3764149
-0.11997684 -0.078310378 1.1413273 3500716
-0.117581 -0.076803647 1.1494045 3501229
0.13794146 -0.085588478 1.1578524 3764661
-0.11933953 -0.070277132 1.1411253 3566512
-0.11625614 -0.066835962 1.1455367 3632306
0.13531376 -0.075295597 1.1573359 3896764
-0.11533058 -0.057243768 1.1453029 3698357
0.12957755 -0.065007105 1.1589783 4291265
0.13361682 -0.066457897 1.153672 4225217
-0.1134015 -0.048307136 1.1447697 3764408
0.13071331 -0.055457514 1.1580878 4554434
0.13359582 -0.05544034 1.1522098 4488640
-0.11012523 -0.037677884 1.1454142 3895997
-0.10604809 -0.034523033 1.1487137 4027323
0.13073224 -0.044685792 1.1567775 4817354
-0.10810516 -0.028302498 1.1417649 3962044
-0.10436099 -0.027059078 1.1477747 4093118
0.12169972 -0.031977654 1.1590054 5014224
0.12717451 -0.034997322 1.1553355 4751563
-0.10659686 -0.01797469 1.1402013 4290235
-0.10192461 -0.017874986 1.144951 4158908
-0.095833607 -0.015686519 1.1486369 4028609
0.12035688 -0.024942838 1.1569617 4817874
0.12727727 -0.025025189 1.1520492 5145287
-0.099222928 -0.011371903 1.1427506 4487616
-0.093955122 -0.0087634623 1.1471882 4356800
0.11194947 -0.01215855 1.1559889 5276623
0.11834802 -0.015480258 1.152656 5604813
0.12775943 -0.017041944 1.1517303 6720449
-0.091681004 -0.0018136576 1.1484271 5671109
0.1102161 -0.006496951 1.1571778 5802961
0.1167336 -0.007589519 1.1534047 6787017
0.034765515 0.011767834 1.1537912 12972031
-0.019973669 0.023408681 1.1489624 5869264
0.012162251 0.018769726 1.1525612 7515376
0.019632075 0.018158115 1.1529187 8764660
0.02920917 0.017404281 1.1533762 10146554
0.035797976 0.016157798 1.1537119 10870005
-0.077056088 0.03341528 1.1400682 8028800
-0.07192751 0.033614568 1.1402957 7305855
-0.015642509 0.024466269 1.151132 5671370
-0.012330688 0.024358556 1.1512858 5869265
0.010852077 0.023604527 1.1523625 6988787
0.015267842 0.023460895 1.1525676 7185904
0.10167386 0.029497616 1.1563264 6314850
-0.07054048 0.038572676 1.1402164 8028802
0.098702274 0.033133127 1.1560866 6117979
0.075500257 0.044195168 1.146701 5593178
0.077692933 0.044123851 1.1468029 5658970
-0.024040166 -0.2169899 1.1616982 2973083
-0.0185389 -0.21827853 1.1619856 2973595
-0.0091407401 -0.21813568 1.1630769 2973598
-0.043605022 -0.20525655 1.1604705 2842012
-0.037282307 -0.20684934 1.160804 2776219
-0.028108947 -0.2095871 1.1628262 2907806
-0.018650047 -0.21122977 1.1649404 2907807
-0.008134787 -0.21210766 1.1656199 2973599
0.00093176216 -0.21013547 1.1633053 3039136
0.011661472 -0.20947599 1.1644422 3170723
0.021658527 -0.20969993 1.1642359 3236770
0.031487808 -0.20957696 1.1640122 3170979
0.040527388 -0.20965758 1.1644258 3170980
0.047230039 -0.208211 1.1646893 3171236
-0.054382831 -0.1960284 1.1597146 2842012
-0.04782699 -0.198468 1.1615398 2842011
-0.038350087 -0.20100811 1.1630526 2842012
-0.03019407 -0.20268123 1.1650125 2907805
0.01616608 -0.20558098 1.1672057 3302309
0.022259668 -0.20465341 1.1663119 3302308
0.030965257 -0.20485237 1.1653547 3171236
0.04176623 -0.2058139 1.1643717 3171236
0.052346002 -0.20473891 1.1664914 3105443
0.062248196 -0.20315602 1.1662289 3171492
0.068896137 -0.20151772 1.1654829 3040420
-0.07505542 -0.18425903 1.1584355 2841497
-0.066410236 -0.18727535 1.1594497 2907291
-0.058136009 -0.19015893 1.1612601 2907549
-0.05160797 -0.19149917 1.1637164 2907551
0.065450028 -0.19604887 1.1691746 3040420
0.072603889 -0.19449137 1.167558 3106213
0.080596082 -0.19220689 1.1657476 3106214
-0.076428488 -0.17767209 1.1601864 2907290
-0.070017271 -0.18071963 1.162068 2973340
0.076866172 -0.18751211 1.1694486 3302823
0.083091773 -0.18539464 1.1672677 3237030
0.08932896 -0.18218532 1.1676372 3237031
-0.093212895 -0.16369386 1.1570177 2841497
-0.084970735 -0.16742772 1.1580343 2842012
-0.079048075 -0.16978972 1.1608419 2907547
0.094804376 -0.1747009 1.1668153 3368361
0.10003237 -0.17164379 1.1660409 3237285
-0.094490126 -0.15773392 1.1567882 2973085
-0.087852046 -0.15810016 1.1598417 3039135
0.097394094 -0.16767405 1.1658068 3368615
0.10398769 -0.16453779 1.1667449 3237799
0.10869627 -0.16138346 1.1661402 3303337
-0.10143812 -0.14456144 1.1560934 2973857
-0.096207589 -0.14821981 1.1579944 3039137
-0.090424627 -0.14922237 1.1607343 3104930
0.10616898 -0.1570728 1.1679041 3172264
0.11254019 -0.15442529 1.1667827 3238059
-0.10239618 -0.13629937 1.1568136 3039650
-0.098679133 -0.13993447 1.1600915 3105700
0.11603518 -0.14475323 1.168153 3369132
0.12033554 -0.14511654 1.1662022 3434410
-0.10489147 -0.1276342 1.1571662 3171236
0.11815055 -0.13666996 1.1690645 3500719
0.12164979 -0.13451195 1.1679599 3435183
-0.11154173 -0.11538063 1.1547945 3302823
-0.10708591 -0.11743287 1.1577268 3171495
0.12275968 -0.12445386 1.1675392 3566514
-0.11306035 -0.10665485 1.1559311 3368873
-0.10950588 -0.10789967 1.1578766 3368875
0.12582767 -0.11538669 1.1663985 3697588
-0.11371204 -0.097532876 1.156853 3303850
0.12759747 -0.10577135 1.1688349 3763892
0.13099647 -0.10529218 1.1655424 3698099
-0.1146606 -0.08732371 1.1554481 3435181
-0.10893996 -0.087933891 1.1581295 3435438
0.12893133 -0.095670767 1.1691774 3829942
0.13192193 -0.095296919 1.1664416 3764149
-0.11331777 -0.077681497 1.1556325 3501229
0.12938233 -0.082323328 1.1688142 3896505
0.13377313 -0.085408613 1.1669178 3830455
-0.1123666 -0.067862272 1.1549313 3632563
-0.10815071 -0.064575866 1.1574937 3567542
0.1273853 -0.075168625 1.1659424 4027837
0.13255255 -0.07893195 1.1648552 3896505
-0.11125991 -0.057843544 1.1544882 3829940
-0.10792521 -0.057902142 1.1573122 3699127
0.12615436 -0.065479606 1.1668477 4291009
-0.11047542 -0.047740739 1.1536993 3895737
-0.10691956 -0.046958826 1.1570432 4027576
0.12681927 -0.055478759 1.1659228 4422849
-0.10903225 -0.041112401 1.1527733 4158911
-0.10451765 -0.037504952 1.1548778 4093372
0.12711483 -0.045755927 1.165156 4817355
-0.10043685 -0.028249547 1.1543353 4093630
-0.095682211 -0.024895065 1.1569202 4094397
0.12000388 -0.034755301 1.1652393 5080014
0.12450382 -0.038166136 1.1633167 4883149
-0.097994141 -0.020757034 1.1526903 4028348
-0.093477309 -0.018305227 1.1543275 4028864
0.11586455 -0.024987437 1.164325 4949202
-0.08961083 -0.0088279173 1.1545496 4029123
-0.085422404 -0.0066702887 1.1568631 3963586
0.11008166 -0.014908597 1.1646621 5146069
0.11349052 -0.019497886 1.1622788 5080276
-0.088457987 -0.0010925978 1.1525589 5342665
-0.081456088 0.00093816966 1.1568249 4882633
-0.017970636 0.0026420802 1.1596651 6070261
-0.011301349 0.0024251565 1.1599749 6528744
-0.0046320613 0.0022082329 1.1602846 8827627
0.01092961 0.0017020851 1.1610074 10340848
0.019641723 0.00078242272 1.1614304 8895736
0.027113114 -0.00016049296 1.1617975 6266608
0.10145805 -0.0018263906 1.1642274 5475287
0.1058899 -0.0055344254 1.1628666 5475028
-0.077695183 0.0067533925 1.1548259 5999306
-0.07100746 0.0076455772 1.1551046 5540557
-0.062309749 0.010679975 1.1547456 5803727
-0.049674548 0.012086451 1.1579508 4950220
-0.040764004 0.010671899 1.158397 5016280
-0.031056158 0.009734042 1.1584651 5411294
-0.020940844 0.0093413666 1.1570941 5806569
-0.011041892 0.0090768635 1.1591946 7120874
-0.0014703078 0.0095287934 1.160218 12379901
0.0092048636 0.0085884184 1.158201 13891069
0.019027727 0.008011885 1.15799 12969723
0.028935067 0.0079508051 1.1593281 9946095
0.03896508 0.0074039251 1.1602036 10013177
0.048760802 0.0089596435 1.1603634 7449069
0.055371795 0.010649331 1.1627727 5411552
0.09875121 0.0021104664 1.1624888 6526426
-0.04753143 0.016965672 1.157908 6264275
-0.039807875 0.017450072 1.1557419 5803990
-0.030156102 0.017725475 1.1546711 5345755
-0.020122085 0.018661119 1.1551008 5412839
-0.010549377 0.018956579 1.1560287 5676266
-0.001664063 0.017810285 1.1588266 7253489
0.0082313642 0.01725632 1.157433 8436213
0.018165477 0.014674194 1.156958 12051453
0.032715976 0.018639736 1.1575061 10082302
0.04051907 0.017646141 1.1578898 10607102
0.048962142 0.016526043 1.1583062 7515119
0.055908456 0.01572261 1.1599808 6068200
-0.0081207538 0.024406761 1.1554818 6001365
-0.0036897771 0.024262637 1.1556877 6396124
0.10883029 0.026373319 1.1607478 6447199
-0.01526121 -0.2073932 1.1698334 3039391
-0.0077785859 -0.20702349 1.1716654 3039135
0.0036997665 -0.2080099 1.1707141 3104930
-0.043883227 -0.19528906 1.1681828 2776478
-0.037637666 -0.19633359 1.1704999 2842271
-0.027904693 -0.1982305 1.1731825 2907807
-0.018778041 -0.20037304 1.174174 2908063
-0.0088537605 -0.20151567 1.1757644 2973600
0.0015055854 -0.20088267 1.1757504 3105187
0.011472141 -0.20088065 1.175283 3236773
0.021238361 -0.1998772 1.1750171 3237029
0.032162979 -0.20031637 1.1755937 3171237
0.041872159 -0.20164469 1.1737704 3171236
0.051456813 -0.20041227 1.1735934 3105444
0.060383279 -0.19923905 1.1730416 3171493
-0.055904306 -0.18593904 1.1705716 2841758
-0.047931347 -0.18848439 1.1718087 2907551
-0.039200496 -0.1897983 1.1750715 2842271
-0.028624717 -0.19129917 1.1767741 2908064
-0.021924939 -0.19264203 1.1771176 2973857
-0.00058872905 -0.19333601 1.1781086 3105444
0.012296656 -0.19275516 1.1786783 3237030
0.022353631 -0.19351992 1.1783568 3302823
0.032032337 -0.19305652 1.1786608 3171495
0.041448686 -0.19196591 1.178589 3105703
0.051144373 -0.19254565 1.1788379 3105703
0.061039399 -0.19242088 1.1773819 3105702
0.069571719 -0.19026941 1.1749185 3105958
-0.066835612 -0.1779263 1.1682885 2973598
-0.05910854 -0.17978035 1.1730527 2907551
-0.049385931 -0.18190564 1.1755592 2908065
0.062941626 -0.1839799 1.1807308 3237288
0.071883522 -0.18362346 1.1786796 3302823
0.080738671 -0.18194954 1.1760459 3237287
-0.075900212 -0.16632804 1.1687542 3105183
-0.068710797 -0.16984797 1.1724479 2974112
-0.060582995 -0.17226069 1.1747723 2842786
0.073490627 -0.1768465 1.1810058 3171750
0.082289524 -0.17355824 1.1799765 3172008
0.090599597 -0.1721907 1.1759757 3303081
-0.083586246 -0.15645328 1.1659269 3104930
-0.077720277 -0.15880233 1.1722701 3170978
0.084995434 -0.16526419 1.1811963 3303337
0.092915051 -0.16406295 1.179269 3368873
0.10003585 -0.16307503 1.1763555 3237543
-0.093063951 -0.14330028 1.1671202 3040164
-0.08652921 -0.14723983 1.1686554 3105701
-0.080499783 -0.15173896 1.1732758 3302822
0.094687872 -0.15503713 1.1813434 3303597
0.10235991 -0.15297759 1.1772634 3238059
0.10960003 -0.1501988 1.1758742 3303852
-0.095338471 -0.13686022 1.1679443 3106213
-0.087846071 -0.13903192 1.1725761 3172007
0.10337557 -0.14382601 1.1812161 3369387
0.11148246 -0.14395371 1.1777833 3435181
-0.10202407 -0.12646984 1.1648933 3237030
-0.095680796 -0.12723204 1.1695435 3237800
-0.089535974 -0.13082114 1.1722631 3303594
0.10538681 -0.13783607 1.1813358 3500972
0.11407524 -0.13392794 1.178364 3500976
0.11906554 -0.13131523 1.1737592 3500977
-0.10292998 -0.11713292 1.166364 3237545
-0.098511763 -0.11883336 1.1706197 3303852
0.11603407 -0.12438311 1.1814334 3566772
0.11952187 -0.12493633 1.1776023 3566515
-0.10511688 -0.10734662 1.1661222 3369389
0.11721149 -0.11488621 1.181214 3763639
0.12082363 -0.11420096 1.1764627 3763639
-0.11133673 -0.093356661 1.1635174 3435181
-0.10624439 -0.097122312 1.1671002 3435438
0.11822744 -0.10383055 1.1809424 3895737
0.12344363 -0.10402111 1.1760012 3764149
-0.11066705 -0.086871676 1.1644295 3435438
-0.10550985 -0.087560378 1.1687516 3501231
0.11841729 -0.098212034 1.1807895 3961530
0.12415744 -0.094558455 1.1757617 3961528
0.13157672 -0.091498658 1.1731837 3895735
-0.11010102 -0.077620566 1.1647903 3501489
-0.10596332 -0.077454515 1.1678603 3501490
0.11902481 -0.080232754 1.1803001 4159679
0.12478385 -0.085225999 1.1759716 3962041
0.13165213 -0.089266479 1.173123 3895735
-0.11027604 -0.070299521 1.1635703 3501747
-0.10548852 -0.067191951 1.1663694 3567541
0.11849133 -0.073840745 1.1800921 4225473
0.12234387 -0.074577287 1.1762828 4159424
-0.10332604 -0.057137784 1.1651105 3764919
0.11854132 -0.064967841 1.1798393 4422597
0.12268444 -0.064498186 1.1760085 4357059
-0.1024965 -0.047395285 1.1646965 3896505
-0.097955815 -0.047301736 1.1694785 3962298
0.11877514 -0.054351017 1.1795446 4685767
0.12302501 -0.0544191 1.1757342 4422851
-0.10064643 -0.038377758 1.1626902 4027836
-0.095822029 -0.036625374 1.1681761 4028094
0.117357 -0.043767106 1.177055 4948684
0.12340446 -0.045993224 1.1725048 4751818
-0.098606214 -0.030380502 1.1609508 4093632
-0.093192652 -0.026947007 1.166953 4094399
0.11087456 -0.033095174 1.1785738 5080784
0.11536263 -0.034439202 1.1740098 5211343
-0.089596957 -0.018660352 1.1653937 4094402
-0.083095327 -0.015735649 1.1682457 4226244
-0.076603487 -0.014248036 1.1694999 4620744
-0.022663515 -0.014877521 1.1719728 5412064
-0.00020434801 -0.015608013 1.1730158 6463211
0.0077249864 -0.019703969 1.1734945 6397929
0.01741866 -0.019378409 1.1739264 6397929
0.026703257 -0.017768845 1.1743026 6003432
0.10830214 -0.023799025 1.1756859 5081042
0.11364997 -0.027228363 1.1705199 5081041
-0.081240535 -0.0081225187 1.1629704 4160963
-0.073384777 -0.0072979406 1.168588 4752075
-0.05829443 -0.0047190934 1.1700591 4949201
-0.051575661 -0.0055000931 1.1703873 5016022
-0.042017099 -0.0069490075 1.1701963 5213659
-0.032207016 -0.008187741 1.1701134 5411552
-0.022422653 -0.0092763379 1.1710215 5740773
-0.012367048 -0.00958772 1.1722893 6003172
-0.0022432767 -0.0099248514 1.1723591 6331366
0.0079578348 -0.010301918 1.1702304 6989552
0.018025411 -0.010622665 1.1710984 6792432
0.028125502 -0.010961339 1.1709168 5937640
0.036528628 -0.010258347 1.1735322 5806054
0.047225688 -0.0092761293 1.1749923 5674725
0.05400141 -0.0083715692 1.1752747 5674983
0.099676527 -0.012388289 1.1774689 5146841
0.10587514 -0.014807902 1.1720979 5080789
-0.077473946 0.00021711737 1.1610327 4554184
-0.074140996 0.001016967 1.1641657 4751049
-0.05903966 0.00087538362 1.1678613 4818129
-0.051572304 0.00061300397 1.1674076 5015507
-0.041892059 0.00021927804 1.1644546 5147609
-0.031741038 -0.0001418367 1.163625 5346018
-0.022247214 -0.00076185167 1.1666898 5937898
-0.011849956 -0.0018405393 1.1674166 6462952
-0.0013445793 -0.0014585927 1.1669935 8303605
0.0080572274 -0.0018950775 1.1664166 8501495
0.017902933 -0.0032156184 1.1660883 7252467
0.029174127 -0.0030165389 1.1674359 6069484
0.038305543 -0.0022022799 1.1686906 6135528
0.048248045 -0.0028251559 1.1722614 5741031
0.057557106 -0.0028887838 1.1742774 5543655
0.067019515 -0.0018722713 1.1756803 5477092
0.077113338 -0.00087372214 1.176111 5739747
0.088459246 -0.0014927611 1.176645 5280481
0.097744189 -0.0045209974 1.173457 5015513
0.10326276 -0.0067357272 1.1714609 4949463
-0.070555568 0.0066960156 1.1611613 4818122
-0.061103515 0.0073817372 1.1615717 5147606
-0.05240342 0.0078436434 1.1619544 4818639
-0.043787137 0.0058253556 1.1624045 5344472
0.00084578525 0.0049323142 1.1644615 12971007
0.0052883355 0.0042291433 1.1646838 12905215
0.029826064 0.0034310445 1.1658236 5807584
0.043210287 0.0029957145 1.1664451 6004710
0.049297374 0.0037554353 1.1667004 5807083
0.058061931 0.0060048252 1.169171 5477863
0.066422604 0.005366385 1.1721067 5542628
0.077963226 0.002098456 1.1760641 5673698
0.088649623 0.0036691502 1.1750032 5804766
0.094516449 0.0013269559 1.1688281 5147865
0.061433028 0.01357621 1.1669703 5412324
-0.015490354 -0.19566284 1.1815031 3039650
-0.0090734856 -0.19651654 1.1818197 3039650
-0.035505377 -0.1871106 1.1803463 2842271
-0.028744809 -0.18733051 1.1806602 2973857
-0.018530298 -0.18871997 1.18243 2973857
-0.0089103347 -0.19075161 1.1841912 3039395
0.001831864 -0.18918648 1.1838855 3171237
0.011203608 -0.1880922 1.1835685 3237030
0.021529965 -0.18786468 1.1845043 3302569
0.029860292 -0.18828242 1.18469 3237546
-0.054789461 -0.17600214 1.1791493 2908065
-0.047256716 -0.17721465 1.1795269 2973857
-0.038693503 -0.17923006 1.180976 2973857
-0.029077578 -0.18141384 1.1825957 2973858
-0.02091169 -0.18245745 1.1848824 3105444
0.010744134 -0.18348706 1.1863526 3237030
0.022477608 -0.18235861 1.1868542 3302825
0.031424403 -0.18220277 1.1869488 3171754
0.041325439 -0.1830893 1.1857301 3171752
0.051693629 -0.18301901 1.1856109 3171753
0.060241893 -0.18019 1.1855062 3237546
0.068575777 -0.17807965 1.1848234 3303592
-0.065630466 -0.16618952 1.1783737 2908579
-0.057613939 -0.16856614 1.1808097 2908579
-0.047885876 -0.17032802 1.1822135 3105444
-0.039357964 -0.17234397 1.1837521 3105443
0.055141978 -0.17587064 1.1881542 3303339
0.063299939 -0.17389846 1.1871336 3303082
0.071849719 -0.17212471 1.1853734 3237545
0.077894658 -0.16935275 1.1849965 3303850
-0.074263588 -0.15462123 1.1776482 3302822
-0.067909271 -0.15907289 1.1803186 3040165
-0.061000392 -0.16303256 1.1824994 3040167
0.066753447 -0.16718782 1.1884329 3303598
0.072984107 -0.1634203 1.1876657 3238061
0.081693277 -0.16169381 1.1860619 3303596
0.089505158 -0.15957163 1.1852437 3369131
-0.083673261 -0.14378017 1.1769083 3171751
-0.077444717 -0.14757805 1.1787148 3368615
-0.070793219 -0.15138845 1.1817189 3171751
0.091470793 -0.15301843 1.1866468 3369134
-0.085406981 -0.13666908 1.1766249 3369130
-0.079500325 -0.1387399 1.1799575 3434922
0.092850864 -0.1433541 1.1879816 3435183
-0.086899862 -0.12798424 1.1776425 3434923
0.095831312 -0.13635075 1.1880685 3501232
0.10271461 -0.1334583 1.187686 3435694
0.10961255 -0.13200688 1.1853662 3501232
-0.094718039 -0.11659343 1.1766254 3369646
-0.089211091 -0.12048187 1.1786568 3435182
0.1066835 -0.12431674 1.1890175 3567282
0.11089958 -0.12397857 1.1870147 3567027
-0.10262155 -0.10365762 1.1748923 3501231
-0.098301545 -0.10765457 1.1779578 3435439
0.1069511 -0.11639751 1.188802 3829686
0.1122232 -0.11380416 1.1871871 3829431
-0.10250726 -0.10027508 1.1748003 3501231
-0.098093972 -0.097132407 1.1765798 3567024
0.11482345 -0.10449494 1.1874828 3830201
-0.10203103 -0.086181201 1.1744167 3632818
-0.098921888 -0.086948454 1.1765831 3698612
0.11732621 -0.093982026 1.1866268 3896507
-0.1017072 -0.076597363 1.1741558 3633333
-0.098002262 -0.07683745 1.1771353 3764919
0.11752934 -0.083792061 1.1858423 4093886
-0.10186073 -0.067788117 1.1738956 3633334
-0.097943209 -0.06689471 1.1772528 3830201
0.11482249 -0.074057966 1.1861625 4291523
-0.097103059 -0.056659982 1.1754612 3896506
0.11471583 -0.063585125 1.1852335 4619975
-0.093507841 -0.04722302 1.1754011 4028348
0.10913001 -0.051912468 1.187047 5146320
0.11352195 -0.054303855 1.1863142 4883148
-0.091410019 -0.037913427 1.1737983 3962814
-0.086508289 -0.036643572 1.17656 3963072
0.10850561 -0.043104231 1.1852632 5146577
0.11229903 -0.044904724 1.1834847 5080527
-0.089718007 -0.028902553 1.1733301 4028607
-0.083587095 -0.027296804 1.1756994 4291526
-0.033763681 -0.026878692 1.1798241 5147865
-0.026294306 -0.026895128 1.1801646 5344731
-0.0099835852 -0.026519589 1.180896 5345501
-0.0032001948 -0.026740223 1.1812111 5739743
0.0069487332 -0.029338732 1.1804124 5936862
0.015974022 -0.029631466 1.1811655 5871068
0.026156269 -0.028827615 1.1826072 5739228
0.044283535 -0.028284654 1.1834165 5213656
0.10693657 -0.034172561 1.1848348 4949970
-0.081463836 -0.019971721 1.1734489 4422856
-0.072966725 -0.015435338 1.175526 4686797
-0.062583402 -0.014639705 1.1761577 4884690
-0.052320361 -0.016371235 1.1781768 4950486
-0.041869313 -0.017493032 1.1778501 5213659
-0.033268061 -0.018995367 1.1764154 5279707
-0.023179974 -0.020450108 1.1773169 5345244
-0.01297186 -0.019151993 1.1776552 5411808
-0.0031565828 -0.020590723 1.177941 5806052
0.0061006122 -0.024042606 1.177551 6068964
0.018106705 -0.024809361 1.1781195 6068963
0.0281661 -0.022730298 1.1794419 6003173
0.036627531 -0.021262862 1.180663 5608417
0.046784088 -0.021586165 1.1817354 5411038
0.053557418 -0.021790929 1.1836518 5279709
0.09827932 -0.021513626 1.1847547 5212630
0.10387438 -0.025334403 1.1833731 5015248
-0.068998747 -0.0099362209 1.1737278 4949712
-0.062238172 -0.01015611 1.1740417 4949713
-0.052097321 -0.010485947 1.1745126 5016279
-0.04272034 -0.011167184 1.1749591 5213659
-0.034107223 -0.012199827 1.1753807 5345501
0.03858795 -0.013999902 1.1787409 5871590
0.047057714 -0.013711013 1.1791179 5871847
0.057283014 -0.011756122 1.18153 5543139
0.064582057 -0.010856442 1.1821225 5280225
0.088987209 -0.011617705 1.1849717 5411294
0.094907477 -0.013293311 1.1827402 5279196
0.067061782 -0.0058960319 1.1798036 5411556
0.076696403 -0.0045162737 1.1802025 5412066
0.087964021 -0.0048827529 1.1807258 5477344
0.094648391 -0.0073576793 1.1811011 5213404
-0.0080115935 -0.18604448 1.1895784 3105189
-0.028109625 -0.17689657 1.1894022 3039906
-0.018515658 -0.17933182 1.190338 3039908
-0.0091220671 -0.18074673 1.1927137 3105447
0.0016138516 -0.18038937 1.190605 3105702
0.010759343 -0.17945801 1.1902434 3171750
0.019745115 -0.17933705 1.1906488 3237289
0.031254686 -0.17785189 1.1911299 3237548
0.041464001 -0.17818396 1.1916041 3171752
0.050538953 -0.17847914 1.1920255 3171752
-0.055285074 -0.16458254 1.1868099 3039909
-0.04751309 -0.16554248 1.1880814 3105701
-0.039534424 -0.16840714 1.1901858 3105443
-0.030198604 -0.1740658 1.1922301 3040163
0.00056282524 -0.17415419 1.1936326 3105960
0.011982174 -0.17341076 1.1941309 3105958
0.021152865 -0.17221916 1.1937128 3237545
0.031620093 -0.17152825 1.193073 3237547
0.041680697 -0.17155626 1.1930257 3237544
0.051732689 -0.17165366 1.1935703 3237545
0.060484804 -0.16997752 1.1929014 3303339
-0.066196978 -0.15479574 1.1860319 3172009
-0.058003612 -0.15816167 1.188905 3105961
-0.048830044 -0.16063279 1.1909959 3171752
0.03506203 -0.16478664 1.1949333 3303337
0.041891064 -0.16500875 1.1952504 3303593
0.052005 -0.16436043 1.1956921 3303594
0.061342925 -0.162083 1.1947998 3303596
0.068330221 -0.16087586 1.1923292 3238062
-0.073282711 -0.1460425 1.1854578 3434409
-0.067738116 -0.14790921 1.1885914 3237547
-0.059545748 -0.15051498 1.1902173 3237805
0.062492967 -0.15478377 1.195894 3238318
0.071925119 -0.15218763 1.195127 3238572
0.082116835 -0.15235037 1.1939131 3434926
0.088682108 -0.15199232 1.1929998 3369134
-0.075370915 -0.13690747 1.1863326 3435179
-0.069610268 -0.13904232 1.1889843 3369388
0.076728933 -0.14561862 1.1962783 3500977
0.082506731 -0.14229417 1.1954443 3435186
0.088091686 -0.14257911 1.1927024 3500720
-0.083499856 -0.12590507 1.1854153 3566511
-0.077979416 -0.12891875 1.1874222 3566767
-0.070925541 -0.13169463 1.1891583 3500977
0.084203392 -0.13470143 1.1958039 3501234
0.092287317 -0.13259709 1.1933573 3501490
-0.092589036 -0.11245982 1.1836135 3566770
-0.086112268 -0.11718383 1.1866479 3632306
-0.079723053 -0.12228703 1.1884874 3632563
0.094295181 -0.12394668 1.1950409 3699127
0.10186683 -0.12296326 1.1932365 3633076
-0.093652457 -0.10680854 1.1844041 3566770
-0.087823562 -0.10781518 1.1877027 3763892
0.095428891 -0.11487187 1.1962453 3633335
0.10228067 -0.11296652 1.1940545 3764407
-0.093525566 -0.096681669 1.1859213 3698868
-0.089263536 -0.097399525 1.1873376 3699126
0.096402071 -0.10293164 1.1959463 3962811
0.10298145 -0.10326584 1.1950871 3830969
0.11081593 -0.10381585 1.1926219 3830714
-0.094275907 -0.086750709 1.183722 3699126
-0.089178659 -0.087394036 1.1870538 3830712
0.10398918 -0.093341202 1.195415 4028606
0.11229003 -0.093798794 1.1924011 3962300
-0.093407117 -0.077273414 1.1841669 3830970
-0.088611849 -0.077042259 1.1867819 3962813
0.10453899 -0.084282726 1.1957804 4291522
0.1125875 -0.084230766 1.1925037 4094399
-0.093373433 -0.067200743 1.1839932 3962044
-0.088618174 -0.067594841 1.18651 4093630
0.10649531 -0.073607266 1.1952955 4554438
0.11147811 -0.074616425 1.1918125 4357059
-0.092394248 -0.057197616 1.1833687 4093886
-0.087919138 -0.05654154 1.186224 4291009
0.10504989 -0.063030869 1.1943024 4686026
0.11120796 -0.063406274 1.1914779 4685769
-0.090479501 -0.050028075 1.1819144 4159935
-0.085532121 -0.047642212 1.1849322 4225985
0.098095365 -0.052818783 1.1945825 5015248
0.10425118 -0.054366216 1.1922367 5014991
-0.082155764 -0.037952304 1.1840668 4292037
-0.076952219 -0.04028419 1.1862557 4619977
-0.053957872 -0.034191016 1.187127 5279449
-0.045990672 -0.034450155 1.187497 5016538
-0.033509262 -0.035996296 1.1881095 4950743
-0.024058763 -0.037980422 1.1885966 4950488
-0.014970434 -0.038119525 1.1890142 5147351
-0.0045051202 -0.037509765 1.1894729 5278422
0.0060092402 -0.040190876 1.1891384 5212886
0.01540765 -0.039857265 1.1886942 5278423
0.0253703 -0.039330173 1.1896331 5147094
0.036183938 -0.040054817 1.1913979 4885460
0.045739744 -0.038881127 1.1910707 4950741
0.054820575 -0.038641237 1.1922054 5016279
0.097004108 -0.042966343 1.1928475 5212370
0.10446744 -0.044436928 1.1906258 5212369
-0.0798366 -0.031062447 1.1838564 4423370
-0.077640563 -0.027949207 1.1834662 4554187
-0.05331029 -0.029195942 1.1867458 5147610
-0.043364137 -0.028837234 1.1854522 5081818
-0.034349337 -0.031405568 1.1859363 5016538
-0.023173738 -0.030328564 1.1865475 5278938
-0.014061579 -0.030018374 1.1869533 5344730
-0.0035893237 -0.031266637 1.1863976 5673948
0.0065938667 -0.033867136 1.1858675 5805277
0.015668815 -0.034162302 1.1862891 5541848
0.025916487 -0.03335923 1.1867324 5475544
0.036202509 -0.031421065 1.1871448 5213397
0.046787277 -0.032369249 1.1883607 5082070
0.05641228 -0.031854354 1.1904805 5016536
0.065337278 -0.029927 1.1924335 5213915
0.076101601 -0.029299825 1.1929053 5279453
0.087012649 -0.030110776 1.1934252 5213659
0.096409008 -0.03338024 1.1923445 5212628
0.10313025 -0.033597931 1.1902533 5146833
-0.077042565 -0.022055864 1.1817217 4554443
-0.051798217 -0.021058753 1.1828419 5016281
-0.044568941 -0.022202983 1.1832038 5147611
-0.013517925 -0.02412203 1.1846721 5411294
0.057344463 -0.021881394 1.1878326 5148123
0.066043831 -0.022163473 1.188437 5213915
0.075986154 -0.022674762 1.1904454 5213917
0.086701475 -0.022941731 1.1915183 5213659
0.094725922 -0.024989717 1.189957 5212887
0.087824419 -0.016054541 1.1890522 5279708
0.092361897 -0.016202122 1.189263 5411037
-0.024826605 -0.17484733 1.1975043 3106213
-0.019111972 -0.17503321 1.1977696 3105959
-0.0078680692 -0.17605317 1.1983107 3105706
0.0026036268 -0.17573953 1.1987783 3105960
-0.035452541 -0.16763206 1.1968132 3105700
-0.028111219 -0.16910109 1.1979406 3105957
-0.018963058 -0.16939864 1.1983656 3106216
-0.0087116333 -0.16982989 1.1996957 3106217
0.0019383375 -0.16966552 1.200004 3171752
0.0098556597 -0.169438 1.2000196 3303337
0.021199603 -0.1671848 1.1993786 3369130
0.028057158 -0.16740784 1.199697 3369132
-0.047671489 -0.15601078 1.1962568 3171753
-0.038202204 -0.15866989 1.1991544 3171752
-0.02802993 -0.15922752 1.2017163 3172010
-0.018945701 -0.16077742 1.2031257 3172012
-0.0089457585 -0.16066591 1.2043742 3237802
0.0017539263 -0.16032627 1.2043052 3303338
0.010933317 -0.16064757 1.2049325 3369133
0.021318078 -0.1607969 1.2036868 3369388
0.031479951 -0.16080984 1.2034581 3303853
0.040883359 -0.15999423 1.2018201 3369643
0.051071193 -0.15956017 1.2007544 3303851
-0.064967185 -0.14377323 1.1947839 3303598
-0.057044223 -0.14681408 1.1969488 3303341
-0.048708059 -0.14873742 1.200817 3303340
-0.039556608 -0.15040185 1.2041426 3369132
-0.031461939 -0.15255114 1.2045728 3303600
0.00190352 -0.15363637 1.2061224 3303598
0.014559383 -0.154048 1.2067102 3435186
0.022037845 -0.15429124 1.2070576 3369391
0.031817377 -0.15460932 1.2075118 3369392
0.041741244 -0.15203208 1.207273 3369390
0.05149398 -0.15137222 1.2041081 3435184
0.061093017 -0.15016328 1.2007047 3369392
-0.065717973 -0.13672209 1.1953483 3369646
-0.058894694 -0.13914168 1.2005353 3303853
-0.051860321 -0.14266716 1.2033602 3173034
0.043926269 -0.14393857 1.207756 3566773
0.052173708 -0.1429143 1.2074343 3566516
0.062166661 -0.14143166 1.204909 3500977
0.072169542 -0.14248002 1.2026745 3500975
-0.075429499 -0.12445959 1.1937525 3632562
-0.066805393 -0.12773842 1.1972437 3501236
-0.059516437 -0.12803644 1.2021461 3501494
0.064532436 -0.13233399 1.2083602 3698612
0.072183266 -0.13298264 1.20636 3567283
0.081236772 -0.13090408 1.2040052 3567283
0.088880524 -0.12816823 1.2013369 3501747
-0.082287893 -0.11458628 1.1931565 3895478
-0.076913893 -0.11723577 1.1959809 3698613
-0.068261012 -0.11836641 1.2005799 3633080
0.066194281 -0.12576082 1.2082468 3699128
0.072851203 -0.12278563 1.2084643 3830713
0.082384735 -0.12273896 1.207695 3699126
0.089554109 -0.12177845 1.2011838 3633333
-0.08332359 -0.10653799 1.1928779 3961271
-0.076830119 -0.10707711 1.1981962 3896247
-0.070330136 -0.10979466 1.2015746 3764921
0.072979607 -0.11583895 1.2082703 3962300
0.083931819 -0.11369488 1.2082359 3896506
0.091777205 -0.11219918 1.2030125 3764920
-0.084437661 -0.09714134 1.1940593 3830712
-0.077810399 -0.096796438 1.1995251 4093627
0.087237254 -0.10293295 1.2085481 4028352
0.09288536 -0.10265153 1.203456 3962812
-0.084511556 -0.086807229 1.1942595 3962556
-0.078376278 -0.087994978 1.2001364 4028606
0.08706253 -0.092521273 1.2082407 4357317
0.093639761 -0.0930309 1.204549 4225985
0.099337846 -0.08958029 1.2007033 4225985
-0.083716542 -0.077822953 1.1940373 4028606
-0.079238109 -0.078001529 1.2002549 4094655
0.087859683 -0.084512189 1.2080468 4554695
0.093968116 -0.08267504 1.2036653 4554182
0.10038319 -0.081218034 1.2005104 4619462
-0.083968803 -0.067201167 1.1921887 4159424
-0.076259844 -0.066297174 1.1988214 4160448
-0.0699635 -0.064856619 1.2002991 4554440
0.08877115 -0.071172103 1.2077047 4620747
0.094402067 -0.07243336 1.205744 4686026
0.10102181 -0.073605858 1.2003206 4619977
-0.083002098 -0.057580121 1.1914849 4291265
-0.075190343 -0.057702769 1.1971016 4357573
-0.069730088 -0.057948831 1.2001112 4751563
0.0043783146 -0.057669926 1.2034757 4818903
0.012074469 -0.057151873 1.203811 4819160
0.08721818 -0.062592626 1.2073873 4752590
0.09471032 -0.063240021 1.2054937 4817869
0.10014939 -0.065562889 1.2000496 4752076
-0.080694087 -0.048067864 1.1913164 4291778
-0.074849591 -0.047459658 1.1951491 4554440
-0.069457777 -0.049889747 1.1998918 4883149
-0.050476521 -0.043540645 1.1965673 5674209
-0.044742871 -0.043727133 1.1968336 5082331
-0.033577833 -0.046879265 1.1993017 4950745
-0.024219792 -0.04898696 1.197318 4884953
-0.015037314 -0.049281921 1.197544 4753366
-0.0047422452 -0.048487168 1.1991915 4884692
0.0058117164 -0.050476421 1.1988833 4884692
0.014552535 -0.050020423 1.1999239 4884692
0.02466239 -0.049091712 1.202817 4950484
0.035632819 -0.050447371 1.2015749 4950488
0.044362258 -0.050444253 1.2029669 4950489
0.054953594 -0.049312405 1.204469 5411037
0.063881762 -0.049328279 1.2059439 5542623
0.078043863 -0.047771927 1.2065437 5213404
0.085712701 -0.050902773 1.2069827 5081558
0.094041623 -0.053479951 1.2050323 5015248
-0.075115956 -0.037781242 1.1912745 4685772
-0.052958325 -0.038008232 1.1933819 5542365
-0.044010803 -0.038478248 1.1938547 4951002
-0.035242539 -0.039821614 1.1931478 4884951
-0.026058462 -0.041993879 1.1936282 4753366
-0.0123047 -0.041296285 1.1942341 4950484
-0.0034566848 -0.041870303 1.1946533 5015763
0.026516147 -0.043703891 1.1960701 5015764
0.033373702 -0.043926939 1.1963886 4885461
0.045325916 -0.043334313 1.1969155 4884950
0.056050155 -0.042569064 1.1992304 5082072
0.06531582 -0.041650902 1.2025838 5542624
0.074732624 -0.04304985 1.205456 5279197
0.085037731 -0.04221233 1.2030969 5213144
0.092450656 -0.045085147 1.1991105 5212627
0.059970167 -0.035632458 1.1973605 5016538
0.065742761 -0.034102801 1.1975793 5213917
0.075350873 -0.031934597 1.1979542 5345245
0.08557649 -0.034559242 1.1991626 5213917
0.17622821 -0.039439786 1.2107725 13158081
-0.019117638 -0.15567465 1.2092302 3303598
-0.0064199371 -0.15608764 1.20982 3303850
-0.047155239 -0.14412406 1.2076222 3303853
-0.03747043 -0.14602573 1.2084752 3304111
-0.028066106 -0.14840326 1.2107222 3303857
-0.019042719 -0.14900401 1.2117958 3303856
-0.0086432984 -0.14936687 1.2125299 3369903
0.0019336324 -0.14826472 1.2099752 3435441
0.010955248 -0.14947109 1.2104205 3435187
0.021438124 -0.14917445 1.210889 3500978
0.03194638 -0.1492409 1.2113692 3369649
0.03869617 -0.14784153 1.2116361 3435441
-0.055060156 -0.13638908 1.20704 3370159
-0.048544932 -0.13737191 1.2073648 3370416
-0.038316946 -0.13790619 1.2100989 3436469
-0.028094694 -0.1384867 1.2133347 3502005
-0.018821962 -0.1387883 1.2137654 3501749
-0.0085077202 -0.14260718 1.2143446 3501493
0.0020928429 -0.13935259 1.2134817 3567542
0.011325705 -0.13973987 1.2148519 3567541
0.021780472 -0.13997117 1.2141451 3633333
0.032242712 -0.1400812 1.2120582 3567541
0.040892765 -0.13965826 1.2115008 3633079
0.050987706 -0.13780092 1.2119068 3632566
-0.055158712 -0.1279058 1.2067915 3501750
-0.048435669 -0.12832727 1.2096133 3567798
-0.040183559 -0.12907237 1.2125139 3633848
-0.026739649 -0.13272509 1.2132307 3633591
-0.019785099 -0.13295129 1.2135538 3699128
0.0022768173 -0.13250774 1.214545 3830714
0.012708635 -0.13284704 1.2150295 3764921
0.022224173 -0.1322065 1.2154442 3830712
0.032810614 -0.1316458 1.2155522 3830713
0.041531462 -0.13163768 1.2156389 3830458
0.051942237 -0.13176358 1.2141485 3764409
0.060188048 -0.13054527 1.2126733 3764407
-0.063795649 -0.11675496 1.2060779 3698874
-0.057316177 -0.11758893 1.20865 3764923
-0.048919547 -0.11847986 1.2118118 3765435
-0.042653386 -0.1229184 1.2122245 3699641
0.050846606 -0.12595953 1.2165672 3896252
0.061229207 -0.12189919 1.2143 3831226
0.068706572 -0.12152722 1.2122452 3830458
-0.066149004 -0.10721034 1.2064869 3896508
-0.057212092 -0.1073501 1.2111143 4028352
-0.049353782 -0.10830238 1.2114993 4094143
0.062875882 -0.1120709 1.2131387 4159936
0.072292596 -0.11115941 1.2121104 4028352
0.080361411 -0.11005347 1.2124457 3962559
-0.073767632 -0.097234823 1.2050627 4093628
-0.066912107 -0.097501673 1.2061336 4028352
-0.05686982 -0.098055057 1.2105497 4094401
-0.050120957 -0.096666068 1.2111298 4225986
0.064548783 -0.102889 1.2151618 4357317
0.072879188 -0.10216375 1.214695 4225732
0.08184474 -0.10206492 1.2122836 4159938
-0.074428096 -0.087466769 1.2047518 4028609
-0.066325359 -0.087765753 1.2064948 3963330
-0.057173312 -0.08802186 1.2105603 4160708
-0.050867949 -0.091300547 1.2109416 4292035
0.067555264 -0.089346632 1.2162749 4620236
0.072969496 -0.092292525 1.2152151 4488649
0.081571877 -0.093303189 1.2120192 4357318
-0.075236745 -0.077198304 1.2044199 4160449
-0.066822685 -0.077548817 1.2085139 4160708
