# .PCD v0.7 - Point Cloud Data file format
VERSION 0.7
FIELDS x y z rgba
SIZE 4 4 4 4
TYPE F F F U
COUNT 1 1 1 1
WIDTH 174
HEIGHT 1
VIEWPOINT 0 0 0 1 0 0 0
POINTS 174
DATA ascii
-0.059926514 -0.10191937 1.1164963 5134174
-0.053588867 -0.10240906 1.1137327 5134176
-0.059612434 -0.10001159 1.1207851 4871515
-0.070209429 -0.11574116 1.1050882 4936281
-0.060406916 -0.1165234 1.100757 5199967
-0.055623893 -0.11640196 1.0997961 5397348
-0.077156253 -0.11291392 1.1126105 4673880
-0.069863968 -0.11118922 1.109854 4870232
-0.06040756 -0.11157428 1.1083249 5068382
-0.050670177 -0.11167368 1.1069453 5068384
-0.042632125 -0.11171462 1.1071678 4476504
-0.076084785 -0.10779705 1.1206199 4607822
-0.069284305 -0.10639726 1.1187142 4673623
-0.058637317 -0.10643128 1.1158781 5134174
-0.048258509 -0.1058044 1.1146255 4739419
-0.040527336 -0.10688131 1.1133865 4081746
-0.074673682 -0.10588355 1.1288258 4410445
-0.066613004 -0.10249998 1.1269498 4213839
-0.056415066 -0.102033 1.1253777 4345429
-0.046607114 -0.10195169 1.123023 4016211
-0.038563736 -0.10294294 1.1215682 3621193
-0.065087594 -0.10025158 1.131705 3884109
-0.055715609 -0.099614941 1.1307355 3752784
-0.045506179 -0.099383213 1.1286216 3621192
-0.038543064 -0.099649087 1.1262087 3686459
-0.079434469 -0.13045532 1.0999777 4673626
-0.071917042 -0.1280382 1.0964298 4870741
-0.06311623 -0.12845734 1.0936533 5265754
-0.05309264 -0.12815773 1.0924146 5397604
-0.043949891 -0.12952015 1.0943635 4608350
-0.079278558 -0.12319873 1.106688 4673629
-0.071557507 -0.12164731 1.1027972 4870744
-0.063574381 -0.12177674 1.099595 5134174
-0.051065873 -0.12124462 1.0992123 5397606
-0.042377427 -0.12451392 1.0999413 4476760
-0.035325285 -0.12468757 1.1031992 4015442
-0.084213756 -0.12407988 1.1172562 3883351
-0.081333667 -0.11924741 1.1145128 4475995
-0.049114041 -0.1179502 1.1046144 5068641
-0.039372392 -0.11828507 1.1064818 4082513
-0.032875169 -0.12172179 1.1081018 3752531
-0.080937892 -0.11408187 1.1232276 4079443
-0.035926655 -0.11399399 1.11403 3621705
-0.031578023 -0.11768039 1.112249 3751503
-0.036358226 -0.1095548 1.1205415 3490378
-0.070076682 -0.14822224 1.0859319 5002588
-0.066943899 -0.14815113 1.0852832 5528419
-0.078830071 -0.14451857 1.0966835 4739163
-0.072538145 -0.14285266 1.0914707 5002333
-0.063298367 -0.14271653 1.0892494 5397092
-0.053782534 -0.1429161 1.0897374 5332066
-0.047502533 -0.14380752 1.0901967 4740695
-0.080067739 -0.13813068 1.0984446 4082256
-0.073643863 -0.13685432 1.0953066 5068120
-0.050912097 -0.13795051 1.0919325 5200736
-0.042058017 -0.13833529 1.0941257 4345175
-0.034534439 -0.13947439 1.0953274 4278096
-0.038098302 -0.13139184 1.1007652 4147028
-0.033043291 -0.13520075 1.1009932 3819087
-0.032291591 -0.12870511 1.1062771 3687502
-0.06400355 -0.16298564 1.0781814 5528423
-0.059690755 -0.16266882 1.0777899 5397348
-0.073267549 -0.15512358 1.0851891 4804702
-0.064077586 -0.15446849 1.0828524 5462626
-0.054489698 -0.15634814 1.0825453 5003105
-0.045846667 -0.15556082 1.0844551 4804440
-0.080332398 -0.15241054 1.0965847 3817824
-0.075560786 -0.15016793 1.0904342 4673622
-0.059855014 -0.14981145 1.0871822 5660265
-0.052347161 -0.14900866 1.0870761 5069150
-0.042799421 -0.14947602 1.0885578 4475986
-0.036715347 -0.14759427 1.0912924 4014924
-0.039126344 -0.14499341 1.092849 4606547
-0.033031512 -0.14432301 1.0940622 3620428
-0.070894256 -0.17231514 1.0761852 4079956
-0.064838 -0.17048934 1.0730551 5266270
-0.058787704 -0.17226063 1.0731739 5002845
-0.072831996 -0.1680232 1.0814931 4079963
-0.066041499 -0.16709691 1.0768303 5330781
-0.055175193 -0.16745234 1.0773399 5002331
-0.051063798 -0.16342045 1.0813719 5001816
-0.046350516 -0.1632511 1.0835543 4540755
-0.040895149 -0.15923853 1.0883173 4213074
-0.065641239 -0.1874945 1.0702074 5265766
-0.066415451 -0.1830807 1.073339 5068639
-0.057649616 -0.1817732 1.0728667 4214103
-0.0738471 -0.1759977 1.0785661 1580089
-0.052712373 -0.1753832 1.0761739 4145996
-0.049082749 -0.17234084 1.0805275 4212054
-0.071806855 -0.19080395 1.071762 3618132
-0.066624954 -0.19113269 1.0696665 5199718
-0.059981622 -0.19053555 1.0693134 4214875
-0.070388794 -0.22974025 1.0224085 528927
-0.065492615 -0.22990066 1.0207727 1517876
-0.066861272 -0.24492355 1.0168686 4419983
-0.080674514 -0.24063495 1.0252452 1651559
-0.075530164 -0.23733345 1.0235777 1782104
-0.064336039 -0.23617491 1.0180368 4154236
-0.058293786 -0.23814563 1.0215598 3028033
-0.070895329 -0.2390714 1.0313193 2369321
-0.063628837 -0.23565754 1.0282106 2040105
-0.06784647 -0.22754596 1.0468793 4146252
-0.080216557 -0.25176612 1.0247567 5077683
-0.074134603 -0.25145876 1.0205346 4617364
-0.064972743 -0.25140426 1.0182861 4549258
-0.059112661 -0.24664266 1.0209746 6582660
-0.079621233 -0.24343809 1.0336282 7695014
-0.071359523 -0.24233997 1.0356787 2040625
-0.063279524 -0.24104866 1.0348684 2172202
-0.0575241 -0.24293655 1.0290527 2760198
-0.076048754 -0.26375949 1.0163065 4683677
-0.07046853 -0.26363283 1.015151 3831442
-0.082422234 -0.26005846 1.0235637 3299734
-0.076054133 -0.25952956 1.0196012 4683420
-0.067652576 -0.26040682 1.0177909 3960460
-0.09427458 -0.30566028 0.95771247 3829135
-0.086231098 -0.30528182 0.95649564 4223637
-0.080215082 -0.30532777 0.9548319 3960467
-0.09342283 -0.30182862 0.96626908 3498881
-0.085134573 -0.30108884 0.96481144 3895695
-0.077171735 -0.30073252 0.96456993 3631246
-0.091653444 -0.29449916 0.97506183 3499128
-0.084700182 -0.29466739 0.97287524 4025235
-0.075722076 -0.29577282 0.97268391 3499655
-0.089614384 -0.2888121 0.98253536 3826560
-0.082973361 -0.28913674 0.98132777 4156303
-0.075012974 -0.29146433 0.98021579 3630985
-0.087395027 -0.28763565 0.99219394 3893387
-0.081041165 -0.28594202 0.99051869 4157333
-0.073543072 -0.28744546 0.99029756 3762828
-0.084034733 -0.28594095 1.0002311 3762325
-0.078382291 -0.28141785 0.99991429 4420507
-0.072085366 -0.28347558 0.99943268 3828877
-0.082729772 -0.28029007 1.0128376 4222878
-0.076409288 -0.27748162 1.0082525 4552347
-0.070117973 -0.2801888 1.0077922 3631755
-0.083627671 -0.27197564 1.0180442 3627913
-0.075678416 -0.27060318 1.0139356 4683676
-0.068137892 -0.27259511 1.0148056 3892613
-0.066156678 -0.2663517 1.0203702 3563127
-0.097020842 -0.31468439 0.95139366 3033484
-0.088792212 -0.31708959 0.94977057 2897991
-0.078839615 -0.31608933 0.94825172 3891064
-0.071145922 -0.3171314 0.94805968 2638186
-0.099512056 -0.30973947 0.95977658 666715
-0.089235142 -0.31041932 0.95555693 4813457
-0.075416639 -0.30890721 0.955441 3499654
-0.067993321 -0.31205854 0.95555711 3561592
-0.098153606 -0.30507594 0.97010756 6722
-0.073866971 -0.30499467 0.96400207 3694979
-0.067185283 -0.30656844 0.96369177 3233144
-0.07049261 -0.30068824 0.97299278 3104639
-0.065578677 -0.30348039 0.97331923 2640231
-0.069462933 -0.29671699 0.98182303 2907007
-0.06474942 -0.30081505 0.98263657 3099492
-0.089265332 -0.29218462 0.99733531 4089741
-0.068129934 -0.2931169 0.99062198 3496061
-0.063232601 -0.29679406 0.99259681 4278874
-0.085577518 -0.28881103 1.004108 2972810
-0.066852272 -0.28980058 1.0004169 3757171
-0.062939294 -0.29348397 1.0001034 3748927
-0.083428472 -0.28641233 1.009046 3630740
-0.065114751 -0.28552666 1.0063305 3953004
-0.089982018 -0.3243854 0.94637376 984897
-0.07903631 -0.3225587 0.94772261 4350584
-0.064661741 -0.31308407 0.96737778 4674411
-0.062983021 -0.31171554 0.9759413 6974583
-0.062747434 -0.30720139 0.9862209 3815753
-0.092278257 -0.30076408 1.0010784 5799072
-0.06055522 -0.3005175 0.99342513 5064001
-0.064331822 -0.32677865 0.96691394 7039097
-0.063479431 -0.32532179 0.97254324 7565430
-0.062667333 -0.32147497 0.98030722 8223350
-0.061969932 -0.31383383 0.98590368 9076613
