# .PCD v0.7 - Point Cloud Data file format
VERSION 0.7
FIELDS x y z rgba
SIZE 4 4 4 4
TYPE F F F U
COUNT 1 1 1 1
WIDTH 174
HEIGHT 1
VIEWPOINT 0 0 0 1 0 0 0
POINTS 174
DATA ascii
-0.077313356 -0.04168117 1.0890243 5134174
-0.070752017 -0.042413712 1.0869136 5134176
-0.077379026 -0.039425485 1.0931523 4871515
-0.086633906 -0.056375012 1.0778825 4936281
-0.076480389 -0.057537481 1.0745635 5199967
-0.071627878 -0.057507828 1.0740463 5397348
-0.094219349 -0.052917302 1.0844657 4673880
-0.086685665 -0.051444836 1.0822691 4870232
-0.077132612 -0.051978528 1.0816655 5068382
-0.067310758 -0.052215859 1.0812131 5068384
-0.059328839 -0.05225803 1.0821871 4476504
-0.093843386 -0.047157243 1.0920923 4607822
-0.086881585 -0.045936868 1.0907205 4673623
-0.076018341 -0.04623194 1.0889022 5134174
-0.065562248 -0.045736566 1.0885758 4739419
-0.05776085 -0.046931446 1.0881562 4081746
-0.093180068 -0.044574112 1.1002086 4410445
-0.084946141 -0.041377425 1.0988208 4213839
-0.074642129 -0.041067421 1.0981736 4345429
-0.064657748 -0.041205592 1.0967455 4016211
-0.056524597 -0.042333767 1.0961337 3621193
-0.083845571 -0.03874664 1.1034966 3884109
-0.074418068 -0.0382156 1.1033564 3752784
-0.06405475 -0.038184941 1.1021919 3621192
-0.056900922 -0.038666919 1.1004691 3686459
-0.095494367 -0.071439132 1.0731612 4673626
-0.087656073 -0.069342732 1.0701432 4870741
-0.078640409 -0.070012093 1.0682437 5265754
-0.068542607 -0.069840834 1.0679249 5397604
-0.05963435 -0.071059674 1.0708234 4608350
-0.095887706 -0.063652068 1.0792372 4673629
-0.087823674 -0.062447309 1.0759691 4870744
-0.079579696 -0.062861197 1.073547 5134174
-0.067084849 -0.062393442 1.0742903 5397606
-0.058535166 -0.06561254 1.0760928 4476760
-0.051817738 -0.065533102 1.0799977 4015442
-0.10179053 -0.063642651 1.0893354 3883351
-0.098619401 -0.059061147 1.0864846 4475995
-0.065609068 -0.058667697 1.0795616 5068641
-0.056086518 -0.058870748 1.0823506 4082513
-0.049802858 -0.062177479 1.0848469 3752531
-0.098981112 -0.053192496 1.0947438 4079443
-0.053312276 -0.053977691 1.0898088 3621705
-0.048854917 -0.057809666 1.0887504 3751503
-0.054300737 -0.049013376 1.0958644 3490378
-0.085055366 -0.090331435 1.0615584 5002588
-0.081875369 -0.090322025 1.0612011 5528419
-0.094730116 -0.085728362 1.0711056 4739163
-0.087965213 -0.084515467 1.0663831 5002333
-0.078558326 -0.084586576 1.0650296 5397092
-0.069131292 -0.084768496 1.0664178 5332066
-0.06293036 -0.085634276 1.0675327 4740695
-0.096060738 -0.07921353 1.0722121 4082256
-0.08936087 -0.078217298 1.0695928 5068120
-0.066426463 -0.079645239 1.0684552 5200736
-0.057818353 -0.079868838 1.071489 4345175
-0.05045063 -0.080923051 1.0734767 4278096
-0.054421097 -0.072409086 1.0778753 4147028
-0.049448021 -0.076198481 1.0788862 3819087
-0.049123611 -0.069289356 1.083665 3687502
-0.07844004 -0.105701 1.0556488 5528423
-0.074106529 -0.10542833 1.0556365 5397348
-0.088233627 -0.097262695 1.0610914 4804702
-0.078860343 -0.096826077 1.059576 5462626
-0.069304928 -0.098748311 1.0603203 5003105
-0.060868733 -0.097826824 1.0629567 4804440
-0.096296988 -0.09359768 1.0715164 3817824
-0.090952925 -0.09188398 1.0656743 4673622
-0.075010419 -0.09183681 1.0638831 5660265
-0.067517318 -0.091064073 1.0644121 5069150
-0.058153417 -0.091430627 1.0668114 4475986
-0.052330367 -0.089343853 1.0699373 4014924
-0.054848768 -0.086617045 1.0710431 4606547
-0.048886232 -0.085863471 1.0727603 3620428
-0.085210435 -0.11514677 1.0537926 4079956
-0.078871712 -0.11360145 1.0511014 5266270
-0.072876841 -0.11537173 1.0519294 5002845
-0.087588377 -0.11042517 1.0585256 4079963
-0.080385596 -0.10990503 1.0544561 5330781
-0.069617577 -0.1102438 1.0560045 5002331
-0.065857083 -0.10590195 1.0600572 5001816
-0.061365053 -0.10556402 1.0626483 4540755
-0.056334436 -0.10118418 1.0675532 4213074
-0.079580292 -0.13078202 1.0495995 5265766
-0.080596693 -0.1261221 1.0522716 5068639
-0.071811981 -0.12487983 1.052513 4214103
-0.088408679 -0.11861219 1.0561824 1580089
-0.067138031 -0.11825003 1.0557295 4145996
-0.063897103 -0.11486647 1.0601377 4212054
-0.085896857 -0.13393612 1.0508391 3618132
-0.08054655 -0.13445008 1.0492703 5199718
-0.073893376 -0.1339006 1.0494905 4214875
-0.08030349 -0.17682999 1.0052031 528927
-0.07527858 -0.1771374 1.0040498 1517876
-0.076431975 -0.19242862 1.0012839 4419983
-0.090918258 -0.18742689 1.0079544 1651559
-0.085608117 -0.18428755 1.0065081 1782104
-0.073937118 -0.18361953 1.0019591 4154236
-0.068268031 -0.18530655 1.0061804 3028033
-0.081729211 -0.1853897 1.0147649 2369321
-0.074171364 -0.182263 1.0120773 2040105
-0.080019608 -0.17262258 1.0295407 4146252
-0.090530217 -0.19856137 1.0084277 5077683
-0.084080078 -0.19861978 1.0047805 4617364
-0.074749075 -0.19877429 1.0033996 4549258
-0.069115482 -0.19382083 1.0062221 6582660
-0.090675615 -0.18952863 1.0166011 7695014
-0.082628958 -0.18828478 1.019316 2040625
-0.074495912 -0.18708496 1.0191593 2172202
-0.068245396 -0.18946227 1.014081 2760198
-0.085718825 -0.21122372 1.0014182 4683677
-0.080054484 -0.21120696 1.0007819 3831442
-0.092699967 -0.2069186 1.0077204 3299734
-0.085986741 -0.2067354 1.004339 4683420
-0.077462852 -0.2077803 1.0033987 3960460
-0.098856747 -0.25778884 0.94502497 3829135
-0.090731643 -0.2575323 0.94453681 4223637
-0.084588028 -0.25773072 0.94345081 3960467
-0.098763362 -0.25326368 0.95327955 3498881
-0.090368539 -0.25266761 0.9525454 3895695
-0.082414426 -0.25235218 0.95301926 3631246
-0.097742677 -0.2452355 0.96156633 3499128
-0.090618648 -0.24560142 0.96005905 4025235
-0.081673205 -0.24674101 0.96079755 3499655
-0.096347831 -0.23895401 0.96870428 3826560
-0.089627072 -0.23939392 0.96815223 4156303
-0.08162196 -0.24182524 0.96798283 3630985
-0.095022023 -0.23698702 0.97839814 3893387
-0.088523276 -0.23545365 0.9771893 4157333
-0.081052676 -0.23698872 0.97779292 3762828
-0.092404604 -0.23464069 0.98654711 3762325
-0.086701415 -0.23017336 0.98638785 4420507
-0.08040823 -0.23227939 0.98666656 3828877
-0.092217103 -0.22796829 0.99871266 4222878
-0.085470349 -0.22556487 0.99452162 4552347
-0.079191335 -0.22831638 0.99487442 3631755
-0.093509428 -0.21924898 1.0031114 3627913
-0.085199811 -0.21824116 0.99966311 4683676
-0.077793144 -0.22017273 1.0013936 3892613
-0.076273181 -0.21349478 1.0065863 3563127
-0.10109675 -0.26729852 0.93924123 3033484
-0.092777938 -0.26985019 0.93859607 2897991
-0.082717717 -0.26900369 0.93793511 3891064
-0.075050369 -0.27007705 0.93854785 2638186
-0.10430431 -0.26167011 0.9469201 666715
-0.093687773 -0.26272249 0.94374764 4813457
-0.079903424 -0.26125926 0.94479716 3499654
-0.072555311 -0.26440841 0.9458639 3561592
-0.10386255 -0.25617024 0.95691401 6722
-0.079114757 -0.25665486 0.95311451 3694979
-0.072449446 -0.25826538 0.95355934 3233144
-0.076545201 -0.25162682 0.96199602 3104639
-0.071711391 -0.25439444 0.96300793 2640231
-0.076298632 -0.24694037 0.97052717 2907007
-0.071722813 -0.25096858 0.97211111 3099492
-0.097407296 -0.24108988 0.98369932 4089741
-0.075750925 -0.24262711 0.9790861 3496061
-0.071095526 -0.24614014 0.98180479 4278874
-0.094329424 -0.237176 0.99048591 2972810
-0.075353585 -0.23851404 0.98865139 3757171
-0.071466058 -0.24222037 0.98900819 3748927
-0.092623353 -0.23438182 0.99538875 3630740
-0.07412865 -0.23376928 0.99432969 3953004
-0.093721718 -0.2773993 0.93571472 984897
-0.082930282 -0.27549419 0.93792379 4350584
-0.070345059 -0.26445952 0.9579879 4674411
-0.069454014 -0.26239049 0.96652901 6974583
-0.070126966 -0.25704098 0.97637957 3815753
-0.10084152 -0.24932237 0.98783791 5799072
-0.068544529 -0.24978876 0.98318267 5064001
-0.070112854 -0.27814624 0.95868468 7039097
-0.069771484 -0.27623016 0.96423006 7565430
-0.0696439 -0.27175552 0.9716931 8223350
-0.0693909 -0.26367879 0.97668278 9076613
