# .PCD v0.7 - Point Cloud Data file format
VERSION 0.7
FIELDS x y z rgba
SIZE 4 4 4 4
TYPE F F F U
COUNT 1 1 1 1
WIDTH 1132
HEIGHT 1
VIEWPOINT 0 0 0 1 0 0 0
POINTS 1132
DATA ascii
-0.052983046 0.029065743 1.0190974 5794947
-0.042418908 0.031798527 1.0168332 5466498
-0.032274894 0.035371557 1.0155436 5466240
-0.021868061 0.036864385 1.0165106 5334655
-0.011493284 0.038019061 1.0148209 5138044
-0.0025354661 0.039520025 1.0152674 5072252
0.0071057556 0.040262565 1.0143929 5072247
0.016761454 0.040638566 1.0138245 5137530
0.027086781 0.040840954 1.0172628 5137788
0.036326826 0.038483679 1.0144587 5268347
0.10872924 0.0014002025 1.0182962 7374502
-0.10689227 -0.013016343 1.0265502 9214113
-0.09851452 -0.0082549676 1.0246112 6978442
0.10466683 0.0029714778 1.0184082 7112109
0.10874602 0.0075666681 1.0190431 8686741
-0.09718395 -0.0023408011 1.0253094 7636109
-0.092259422 0.0022629946 1.0243952 7437970
0.10803103 0.015684657 1.0185778 9277068
0.072337925 0.028604433 1.020545 5992060
0.0791182 0.027122423 1.0229639 6451580
0.086059242 0.026641503 1.0215634 6516347
-0.069226623 0.02039019 1.0232664 6254982
-0.06595663 0.02499754 1.0292885 6648965
-0.05009985 0.025461234 1.0219724 5270660
0.052751381 0.037211522 1.0231047 5662844
0.058723137 0.036405936 1.0230683 5794679
0.067526877 0.034465879 1.0217528 5926261
0.076063856 0.031578526 1.0245265 6253428
-0.060396999 0.030375287 1.0240242 7043204
-0.051399879 0.031895563 1.0242869 6188928
-0.041338801 0.035938367 1.0250919 5991293
-0.031816408 0.039000869 1.0250558 5794427
-0.022088051 0.039908737 1.0240749 5597052
-0.01390817 0.040270403 1.0227151 5399930
-0.0046515781 0.041517049 1.0213499 5203324
0.006015785 0.042529672 1.0211523 5269365
0.018671438 0.043750614 1.0219184 5334394
0.027941538 0.043582469 1.0237278 5466234
0.034651548 0.04237923 1.0244026 5597049
0.052475516 0.040129319 1.0231649 5991033
0.057127926 0.04046011 1.0253632 6055795
-0.030050833 0.041127205 1.0248597 6056827
-0.021115839 0.043035626 1.0282153 5859449
-0.012815155 0.0439955 1.0269642 5728377
-0.0036042221 0.044286504 1.0283833 5532027
0.0070494032 0.044734851 1.0281752 5532021
-0.10413618 -0.011204518 1.0323875 7306630
-0.10227028 -0.010039374 1.0323714 7438985
-0.086395167 0.0092257708 1.0384119 7044228
-0.08254759 0.009604156 1.0353396 6255491
0.081212588 0.029608816 1.0293869 6187632
0.086552128 0.030609697 1.0292972 6119529
-0.069458954 0.023308866 1.0323292 6780808
0.048415177 0.03686966 1.0301889 5465215
0.072573841 0.03391853 1.034645 6056820
0.078686118 0.03383249 1.0328186 5988198
-0.057898223 0.032705694 1.0322702 7108737
-0.051765494 0.036117643 1.0355108 7108222
-0.043579958 0.038017005 1.0320789 6582396
0.039248466 0.043123797 1.0327431 5859705
0.044727936 0.041807681 1.0313567 5728122
-0.039343741 0.041770965 1.034564 6713719
-0.033014756 0.04326418 1.035864 6450807
-0.024893705 0.044292375 1.0340676 6122104
-0.0132071 0.046391234 1.0338696 6122617
-0.00097555667 0.04806006 1.0340693 6057083
0.0053573316 0.048485756 1.0348823 6057334
-0.091202356 0.0074749216 1.0414779 7832202
0.071998045 0.037204802 1.0387198 5792617
0.074961364 0.037486091 1.0386648 5724767
-0.0508053 0.039500177 1.0412569 7764863
-0.031423431 0.045326591 1.0409722 6384242
-0.022533488 0.046170503 1.0408075 6121843
0.1626617 -0.064649336 1.0539792 13950701
0.16567905 -0.064362906 1.0539232 13160147
0.164388 -0.061441049 1.0540042 13423577
0.16478984 -0.074314207 1.0607576 12898285
0.16884272 -0.074901432 1.0601642 12832198
0.16275045 -0.068485029 1.0590503 10136266
0.16953243 -0.068323925 1.0590228 13159885
0.16253559 -0.062223528 1.0605296 12175571
0.1676836 -0.060594041 1.0569541 13093836
-0.13668878 -0.12358697 1.077763 1720740
-0.13810956 -0.11679195 1.0777072 3628972
-0.13968858 -0.1107838 1.079264 4745397
0.16448055 -0.076319791 1.0697298 6256041
0.16926225 -0.078564167 1.0697907 12767188
0.16192399 -0.067481041 1.0719479 7312841
-0.13211606 -0.14769286 1.0884231 2903988
-0.12901339 -0.14739834 1.0883657 1324707
-0.13471819 -0.13584095 1.0879476 2904505
-0.13426229 -0.1269722 1.0867538 2644141
0.16669123 -0.096370727 1.083315 5801403
0.17113651 -0.096296579 1.0832261 11779799
-0.1350347 -0.11586347 1.0850767 3039906
0.16497554 -0.087376527 1.0825177 3630254
0.17123313 -0.087594084 1.0817982 11516624
0.17831965 -0.086918876 1.0832558 13685195
-0.13831942 -0.10721885 1.0876697 2708908
0.16394357 -0.078951418 1.0818211 3762605
0.16901007 -0.082253486 1.080531 10465738
0.16337663 -0.072079018 1.0778346 6721740
-0.13759178 -0.089776739 1.0896184 1588628
-0.1344891 -0.089482218 1.089561 3826867
-0.12402451 -0.16247915 1.0939844 3694011
-0.12963179 -0.15641171 1.092211 7178192
-0.1244179 -0.15568785 1.0932729 2114980
-0.13091893 -0.14501333 1.0924505 1063065
-0.12617551 -0.1474137 1.0932096 2447769
-0.1311633 -0.13744342 1.0925971 2578847
-0.12865376 -0.13682021 1.095559 2907546
0.16762127 -0.10744642 1.0885909 6851775
0.17310847 -0.10642747 1.0869979 13029078
-0.13141175 -0.12734711 1.0935415 3104917
-0.12983465 -0.12432998 1.0958167 3170462
0.16521977 -0.096836247 1.0888382 3040417
0.17517799 -0.099198975 1.0870912 13422807
0.17779002 -0.09580905 1.0871016 13619661
-0.13466766 -0.11507969 1.0938373 3104162
0.16320215 -0.088766128 1.0883871 2973607
-0.1347834 -0.10673494 1.0942458 3169952
0.16270804 -0.078706205 1.0907291 2843043
-0.13750136 -0.097256422 1.093636 3301299
-0.11760011 -0.17403239 1.1036414 4750553
-0.11372285 -0.17594102 1.1055278 1196192
-0.12035453 -0.16693148 1.100629 3036848
-0.11615416 -0.16892362 1.1057085 1789334
0.16624221 -0.13800834 1.0980506 12898004
-0.12030548 -0.15601525 1.1022551 2776475
0.16585949 -0.12888381 1.0971287 9087435
0.17113674 -0.12365197 1.0937182 13488846
-0.12355755 -0.1455351 1.102295 3038106
0.16469109 -0.11827812 1.0963506 4354994
0.17226648 -0.11553418 1.0938472 13752800
-0.12630726 -0.13607502 1.1039729 2973083
0.16376224 -0.1085713 1.0974592 2121388
-0.13248761 -0.12296187 1.0998977 3301280
-0.12858151 -0.12763919 1.1033686 3039132
0.16368519 -0.10043827 1.0954711 2646946
0.1793844 -0.093716815 1.0971122 13817039
-0.13308021 -0.116694 1.1000271 3366820
-0.1304009 -0.11701152 1.1049687 3105183
0.16098355 -0.088466965 1.0992848 3631271
0.18023382 -0.091522411 1.0971359 13817037
-0.13413371 -0.10555115 1.100257 3499424
-0.13128117 -0.10638245 1.1039851 3302563
0.15967043 -0.078280307 1.098743 3369127
-0.13214506 -0.096915558 1.1038797 3434147
0.16069454 -0.068577364 1.0998721 2908578
0.16613649 -0.065381542 1.0979116 8233160
-0.13786067 -0.08620213 1.1015524 3365295
-0.13238956 -0.086961314 1.1044173 3499689
0.16057608 -0.058964018 1.0997924 4024485
0.16534421 -0.057001632 1.0980846 11192030
-0.13712601 -0.077259399 1.1038486 2181536
-0.13191159 -0.076646656 1.1049546 3433908
0.15934363 -0.05367111 1.1022704 2708114
-0.13620882 -0.068998724 1.1079862 8233201
-0.13232917 -0.069718748 1.1061789 3564980
-0.0068276115 0.11598857 1.1048193 9935247
-0.0012261048 0.11742619 1.1047325 9934992
-0.10711437 -0.18444437 1.1139299 929696
-0.1028695 -0.18444395 1.1161523 1984411
0.15791018 -0.15540372 1.1113993 13424882
-0.10906866 -0.17497855 1.1118536 2512540
-0.10422241 -0.17649272 1.1149948 2906513
0.15862079 -0.14933728 1.1090531 8955594
0.16405115 -0.14739916 1.1054221 14080986
-0.11750238 -0.16164765 1.1128746 2381461
-0.11387622 -0.16654703 1.1146475 2776212
0.15791072 -0.13973686 1.1080112 3697834
-0.1184876 -0.15581174 1.1138376 2841752
-0.11589575 -0.15997083 1.1168749 2906774
0.15883282 -0.12969984 1.1086606 2646183
-0.12134102 -0.14549679 1.1151128 2907034
-0.11689954 -0.14935377 1.117094 2775704
0.15860759 -0.12097177 1.1099288 3696546
0.16021419 -0.11625175 1.1094177 3761571
-0.12327328 -0.13615873 1.1139135 2973083
0.16129752 -0.11000871 1.1088457 3368880
-0.12533417 -0.12609099 1.1135992 3039134
0.16049209 -0.098418884 1.1086849 3500454
-0.12649998 -0.1157008 1.1135173 3171232
0.15865196 -0.090139583 1.1098906 3631529
-0.12789416 -0.10701199 1.1130079 3302564
0.15608774 -0.07985656 1.1058478 3697839
0.1565875 -0.080123536 1.1088338 3763633
-0.12896371 -0.096529961 1.1140262 3368355
0.15608588 -0.068861537 1.1087689 3436468
0.16999809 -0.063906759 1.108865 10992842
-0.12761571 -0.085939839 1.114197 3697068
0.1528217 -0.056261819 1.1133584 3765679
0.15614535 -0.0583575 1.1084317 3830452
0.16924538 -0.059708573 1.1089588 11387079
-0.12729892 -0.078055248 1.1121373 3631022
-0.12544502 -0.074645676 1.1116633 3500456
0.15147893 -0.049383424 1.1106244 3830449
0.15816051 -0.049193453 1.1080118 5207985
0.16482873 -0.049659248 1.1119043 10334913
-0.12862496 -0.066148564 1.1144594 3434161
0.14977716 -0.040570188 1.11057 3893939
0.15686819 -0.040366448 1.1096278 8428221
-0.12975095 -0.05625613 1.1182401 6194370
-0.12540285 -0.05374974 1.1190562 4421311
0.14657584 -0.029039897 1.1129035 5734064
0.15321745 -0.03212145 1.1138022 10203587
-0.12470308 -0.046988089 1.1191685 6852289
0.1444975 -0.023246638 1.1109443 8955077
0.0026261918 0.093379512 1.1192099 9737616
-0.073015399 -0.21832894 1.1232482 7635861
-0.06954585 -0.21854942 1.1258413 8100012
-0.084106155 -0.20947462 1.1263069 10535920
-0.076906987 -0.21143082 1.1237702 5996227
-0.069883741 -0.21497564 1.1259151 6394567
-0.095270082 -0.19928676 1.1187212 8431615
-0.088016815 -0.20110983 1.1213101 1526185
-0.081554055 -0.20298398 1.1252333 1262491
0.14091325 -0.17909935 1.1223053 11717846
-0.10459172 -0.19157881 1.1190548 7571711
-0.097394928 -0.19320655 1.1204344 1917611
-0.090135135 -0.19512725 1.1240302 2379673
-0.083076894 -0.19747758 1.1265105 2644619
0.14184912 -0.17210786 1.1224171 5010097
0.14877716 -0.16840775 1.1192017 10599906
0.15571611 -0.16651571 1.1182387 14081762
-0.098237067 -0.18447277 1.123271 2709143
0.14188965 -0.16145815 1.1226156 2909858
0.14838725 -0.16028541 1.118686 4026283
0.15589325 -0.15969005 1.1148615 12307424
-0.10650404 -0.17135236 1.1194723 2775446
-0.10168576 -0.17518681 1.1222129 2775442
0.14880712 -0.15127639 1.1196645 3105445
0.15354958 -0.14988831 1.1145923 2578854
-0.10916106 -0.1644187 1.1218107 2775449
-0.10464583 -0.16649936 1.1261946 2906778
0.15023275 -0.14132731 1.1212224 3564451
0.15339744 -0.13996224 1.1171821 3433893
-0.11378992 -0.15616624 1.1231999 2840984
0.15098488 -0.13307007 1.1229622 3565217
0.15444191 -0.13050592 1.1176046 3499430
-0.11976647 -0.14468458 1.1202408 2841497
-0.11650775 -0.14628479 1.126147 2907290
0.1557554 -0.1197612 1.1201134 3237547
-0.12080289 -0.13531892 1.1220378 2973083
-0.11794771 -0.13562304 1.1263758 3038877
0.15794624 -0.10984994 1.1214366 3827369
0.16037051 -0.10842481 1.1152298 3564710
-0.1227686 -0.12551962 1.1235188 3039391
-0.11988302 -0.1272468 1.1272389 3170977
0.15726075 -0.099779464 1.1214572 3565735
0.15956533 -0.099908404 1.1154057 3500198
-0.12362169 -0.11741758 1.1258314 3170977
0.15666485 -0.09076491 1.1209711 3631790
0.15795578 -0.092383325 1.1235822 3434923
-0.12478942 -0.10690901 1.1250514 3302823
0.15525582 -0.079400346 1.1213791 3566513
-0.12572686 -0.096925847 1.1239235 3368614
0.15348476 -0.070273057 1.1216245 3632560
-0.12592356 -0.089232728 1.1254053 3565995
0.15130913 -0.060241193 1.1205841 3895728
-0.12438537 -0.07400623 1.1272597 3697842
0.14801449 -0.050523311 1.1193657 4158132
-0.1235376 -0.065560415 1.1261637 3502262
0.14590907 -0.040033665 1.1208053 4027837
-0.12181142 -0.055829 1.1257248 3698611
0.1400803 -0.029174782 1.1251284 4619197
0.14603868 -0.031607933 1.1194212 4946612
-0.12872419 -0.049939558 1.1221962 7180220
-0.1213074 -0.046372972 1.129315 4815032
0.13937208 -0.022718586 1.1245967 5209534
0.14376128 -0.020390421 1.117215 8425655
0.0041789338 0.089421093 1.1221054 9474444
-0.045049988 -0.22627585 1.1322018 8300241
-0.064026676 -0.21977204 1.1290712 7642055
-0.056463011 -0.21975833 1.131055 4815810
-0.049379878 -0.22258183 1.1323589 5210825
-0.074252158 -0.20877039 1.1291211 932767
-0.066956215 -0.21157135 1.1306053 2382238
-0.058044612 -0.213826 1.1326988 2251168
0.12432206 -0.19324893 1.12938 6518691
0.13000703 -0.19164929 1.1278654 11319227
-0.076568395 -0.20225835 1.1311574 2447513
-0.070829064 -0.2052435 1.1331191 2513045
0.13107657 -0.18329777 1.1283761 4617903
0.13802998 -0.1825932 1.1252996 10929103
-0.087027922 -0.19216843 1.1311464 2971544
-0.080777623 -0.19536772 1.1315053 2774929
0.13225502 -0.17386566 1.1279144 2909086
0.13700187 -0.17241423 1.1255109 3105187
-0.095798716 -0.17972316 1.1301024 2709911
-0.090674624 -0.1843667 1.1322652 2644371
0.13760224 -0.16251227 1.1262997 3368356
-0.098704591 -0.17339313 1.1320988 2775444
-0.093352556 -0.17704388 1.1327705 2709910
0.14109316 -0.15229262 1.1274052 3368613
0.14496894 -0.14891365 1.125789 3499683
-0.10271629 -0.16516051 1.1320161 2841497
0.14223105 -0.14474544 1.1299242 3237027
0.1466295 -0.14155173 1.1272269 3302821
-0.1097295 -0.15416662 1.1314354 2645144
-0.10604646 -0.15560311 1.1338743 2775964
0.1488172 -0.13138473 1.1282216 3237542
0.15253253 -0.1274195 1.1273715 3106215
-0.11232424 -0.14599617 1.1325244 2907291
0.14929521 -0.12175605 1.1288772 3499683
0.15216552 -0.11946297 1.1273375 3303338
-0.11422007 -0.13622724 1.1336915 3039134
0.15297922 -0.11086354 1.1277509 3499947
-0.12073831 -0.12243618 1.1316812 3236770
-0.11811757 -0.12656473 1.1348853 3236770
0.15372223 -0.10024887 1.1283411 3500458
-0.12134813 -0.11598631 1.1318144 3237027
-0.11951514 -0.1162583 1.1357735 3302821
0.15509476 -0.089534163 1.1289814 3632048
-0.12226284 -0.1063115 1.132014 3302824
-0.12038207 -0.10708876 1.1359627 3302569
0.15253639 -0.080847748 1.129092 3632047
-0.12354656 -0.097322501 1.1322083 3434408
-0.120924 -0.094778493 1.1362041 3434665
0.1481123 -0.070165969 1.1290181 4026292
-0.12409225 -0.086961888 1.1324134 3631531
-0.12237094 -0.086052746 1.1363969 3631531
0.14744002 -0.062188931 1.1278068 4157366
-0.12470205 -0.080512024 1.1325464 4025255
-0.12200189 -0.075158209 1.1348784 3632304
0.14578731 -0.050496511 1.1276146 4289211
-0.11941509 -0.065870225 1.134428 3568048
0.14164594 -0.040089015 1.1285604 4094399
0.14440648 -0.04426058 1.1297601 4224702
-0.118716 -0.059697419 1.1328145 3764911
-0.11564679 -0.055124409 1.1353387 3895729
0.13832459 -0.031963132 1.1295681 4487616
-0.12156761 -0.041846756 1.1362076 6458567
-0.11631185 -0.045124386 1.1354393 3895996
0.13719448 -0.020963944 1.128742 5735616
0.14371161 -0.01707013 1.1282824 9477559
-0.12136275 -0.039153595 1.1372542 6852289
-0.11812644 -0.038846377 1.1371943 5933254
0.038179535 0.078120679 1.1322075 9474701
-0.0072292592 -0.23342919 1.1433045 7248329
0.025599711 -0.23189473 1.1418661 5801654
0.033468448 -0.23000252 1.1412082 5210039
0.04629121 -0.22944853 1.1422919 6328255
0.053922269 -0.22872414 1.1421505 7379645
0.065417975 -0.22751066 1.1419398 8430007
0.073084451 -0.22491919 1.137831 8625323
-0.045886949 -0.22877324 1.1361736 9678537
-0.034978889 -0.22787426 1.1424978 4422071
-0.025590573 -0.22769265 1.1437848 2778029
-0.015701856 -0.22857666 1.1435673 2513574
-0.0078674927 -0.23055661 1.1433711 2315684
0.021998681 -0.22845475 1.1428039 2120102
0.033990342 -0.22731641 1.1425817 2185635
0.046969086 -0.22498445 1.1423618 2186146
0.052522909 -0.22555716 1.1422381 2316696
0.067578882 -0.22192806 1.1420003 4486314
0.075026631 -0.22078316 1.1398697 5997746
0.085863307 -0.21679986 1.1405816 6063288
0.094379172 -0.21454427 1.1415942 6589614
0.10246688 -0.21399651 1.1414402 8757678
-0.052425653 -0.2173789 1.1365197 1855898
-0.045433335 -0.21930146 1.1395811 2249885
-0.037486061 -0.22095034 1.143425 2381985
-0.029178947 -0.22231366 1.1439583 3039902
0.087857679 -0.20955372 1.1418201 2841504
0.093801983 -0.20843947 1.1417202 3302564
0.10308488 -0.20526555 1.1402572 4420011
0.11267539 -0.203428 1.1357142 6984117
0.12176534 -0.19975102 1.1333119 6254993
-0.064494669 -0.20797601 1.1377411 2710418
-0.056424163 -0.21056183 1.1411111 2775447
-0.049464621 -0.2121982 1.1437593 2906776
0.10479786 -0.19719535 1.1413072 3171492
0.11308346 -0.19497143 1.1383795 3237285
0.12118191 -0.19289589 1.1340237 3629215
-0.067941613 -0.20140707 1.1419356 2775191
-0.05946248 -0.20416123 1.1442462 2906012
0.11419693 -0.18565261 1.1400652 3040421
0.1208818 -0.18325794 1.1365869 3105703
0.12672547 -0.18289599 1.1335266 2777257
-0.084623165 -0.18875928 1.1377094 2710677
-0.077450514 -0.19205269 1.1410328 2709909
-0.070871733 -0.19510315 1.1433136 2709910
0.12131246 -0.17487566 1.1403154 3368100
0.12859833 -0.17225048 1.1358219 3302561
-0.086398512 -0.18241964 1.1409763 2710421
-0.081284016 -0.18488288 1.1449169 2644886
0.12266047 -0.16698247 1.1419101 3040936
0.13033248 -0.16309887 1.1397392 3237031
0.13637578 -0.15955161 1.1367686 3368615
-0.097291157 -0.17030083 1.1383121 2776209
-0.09136609 -0.17433703 1.142868 2841240
0.13159963 -0.15449908 1.1419622 3237287
0.13771255 -0.15157661 1.1367478 3302822
-0.098821148 -0.16385868 1.1429988 2710683
-0.093780391 -0.1667445 1.1456436 2841499
0.13922471 -0.14303242 1.1394327 3237541
0.14384115 -0.1397889 1.1355864 3237798
-0.10173292 -0.15555529 1.1438231 2907293
0.14012948 -0.13419616 1.142169 3237797
0.14450066 -0.1311238 1.1371357 3303334
-0.10919394 -0.14443347 1.1401813 2907805
-0.10672819 -0.14596768 1.146162 2907805
0.14550354 -0.12167799 1.1398487 3434407
-0.11053564 -0.13524508 1.141905 3039392
-0.10770941 -0.13627437 1.1471637 3039391
0.14653486 -0.11196372 1.1398826 3500202
0.15028217 -0.10856946 1.1344393 3631274
-0.11449566 -0.12645259 1.1440173 3170979
0.14755486 -0.10159935 1.1421837 3631791
0.15076083 -0.10060444 1.1363572 3566510
-0.11584796 -0.11621097 1.1454179 3105957
0.14566559 -0.090591677 1.1412053 3632305
0.15086174 -0.091076113 1.1350884 3501227
-0.11721759 -0.10622501 1.1433461 3237546
0.1443387 -0.081589386 1.1405216 3698099
0.14886785 -0.081436396 1.1353761 3698094
-0.11750983 -0.096467614 1.1437728 3434923
0.14470772 -0.072251908 1.1412346 3895479
0.14700694 -0.073927477 1.1351542 3895477
-0.11810413 -0.086034596 1.1445994 3566256
0.14392881 -0.061002251 1.1427948 4027579
0.14628935 -0.060131032 1.1394286 4157882
-0.11796775 -0.077057898 1.1440082 3567024
0.14099057 -0.051691905 1.1425189 4159422
0.14522405 -0.051346142 1.1380141 4289724
-0.11663409 -0.067006774 1.1419723 3567791
-0.11361869 -0.064888343 1.1472861 3764403
0.13831386 -0.041834638 1.1412669 4356797
-0.11284995 -0.055715702 1.1413445 3830196
0.13474274 -0.032530464 1.1405799 4619718
-0.11236218 -0.044769365 1.1438781 3896507
0.12956154 -0.021088593 1.1413884 4817095
0.1340571 -0.021175057 1.138072 4948420
-0.12077643 -0.03637759 1.1452974 6916535
-0.11327827 -0.036192011 1.1448408 5210049
0.1281603 -0.014846481 1.1436456 5013440
0.1325139 -0.013966113 1.1412394 5998788
0.021245755 0.049483091 1.1428767 5859448
0.029360512 0.050369471 1.1408707 6122362
0.034943491 0.050966635 1.1437695 6319482
0.045966268 0.053202555 1.1475891 5330522
0.021375552 0.053993151 1.1414341 5792108
0.029074609 0.055583835 1.140774 5527648
0.034532651 0.055312052 1.1438593 5067354
-0.0014533997 -0.23291519 1.1461978 4354997
0.0060093068 -0.23327994 1.1480402 4684224
0.015803566 -0.23202431 1.1463975 4289976
0.026504556 -0.22868577 1.1457092 2054307
0.036939673 -0.22824658 1.1455054 2777510
0.042507987 -0.22882079 1.1453816 4026798
0.058902904 -0.22726446 1.1450777 5604271
0.062573381 -0.22526182 1.1450406 4881326
-0.021320917 -0.22440335 1.1467606 3039902
-0.013311554 -0.22457513 1.147095 2710943
-0.004645301 -0.22572759 1.1497028 2645152
0.0055244314 -0.22770201 1.1528229 2514339
0.015399199 -0.22664957 1.1521084 2514851
0.025004489 -0.22318971 1.1504443 2842787
0.03475986 -0.22179273 1.1480714 2908579
0.044359412 -0.22049491 1.1483898 3039651
0.054595347 -0.22025225 1.149298 2908578
0.063815251 -0.21849623 1.1488935 2778020
0.073597476 -0.21585108 1.146422 2646433
0.083352871 -0.21759149 1.1447622 5012145
0.094949871 -0.21777721 1.1445231 8955830
-0.035078604 -0.21725987 1.1474596 2841242
-0.025044389 -0.21843129 1.1492822 2775960
-0.015918057 -0.21888557 1.1510224 2841500
-0.0062734783 -0.22022855 1.1545362 2907551
0.025207069 -0.21649989 1.1539667 3105184
0.034343868 -0.21526241 1.1538042 3170722
0.044249076 -0.21432212 1.1536206 3302053
0.054285686 -0.21281415 1.153445 3170723
0.064654469 -0.21090448 1.1532701 3105188
0.073834017 -0.2092008 1.1514007 3170467
0.083297931 -0.20801167 1.1473435 3236258
0.093033031 -0.20359018 1.1452723 3171236
-0.052691847 -0.20753095 1.1477135 2906776
-0.045957662 -0.20916119 1.1486896 2907033
-0.037379038 -0.20941231 1.1522026 2841497
-0.027719416 -0.21264048 1.1551138 2775704
0.074336886 -0.20369278 1.1532085 3105443
0.083141521 -0.20285697 1.1530453 3105443
0.093510993 -0.19811277 1.1516598 3105956
0.10149699 -0.19439843 1.1480291 3105956
-0.06465517 -0.1976386 1.1481417 2644884
-0.057221778 -0.20057857 1.1509368 2775705
-0.048564762 -0.20269668 1.1533891 2841497
0.096408501 -0.19049306 1.1530073 3172006
0.10378654 -0.18737961 1.1519153 3040421
0.10935074 -0.18443984 1.1493564 2974628
-0.074225821 -0.18972474 1.1484842 2645144
-0.067385159 -0.19091436 1.151383 2710425
-0.061819598 -0.19315043 1.1527413 2776216
0.11199439 -0.17551714 1.1497198 3171493
0.11667661 -0.17276746 1.146525 3237026
-0.077952556 -0.18208 1.1512922 2710424
-0.071324244 -0.18375136 1.1550851 2710937
0.11434593 -0.16880219 1.153049 3302823
0.12019949 -0.16407853 1.1498594 3172005
0.12565601 -0.16038901 1.1489753 3172006
-0.087710053 -0.17152199 1.1490989 2841498
-0.082998261 -0.17370766 1.1538872 2907290
0.12211002 -0.15696067 1.153113 3303592
0.12798411 -0.15297881 1.1517344 3237544
0.13356242 -0.14794385 1.1450461 3303337
-0.090228193 -0.16330259 1.1510187 2973342
-0.085236952 -0.16609439 1.1571532 3038879
0.13088199 -0.14492041 1.1524932 3237544
0.13484564 -0.14140821 1.1479434 3303336
-0.099318691 -0.1525481 1.1506901 2973342
-0.092892103 -0.15520911 1.1550115 2973600
0.13740487 -0.1320253 1.1492676 3368872
-0.10160223 -0.14489609 1.1522332 3039392
-0.0960069 -0.14530434 1.1577611 3236259
0.13784695 -0.12253878 1.1511868 3500460
0.14190894 -0.11958155 1.1454074 3434923
-0.10359386 -0.13541189 1.1529874 3170978
0.1380623 -0.11356984 1.1522673 3500719
0.14243227 -0.11057504 1.1489 3500718
-0.11123659 -0.12486456 1.15045 3237029
-0.10719071 -0.12598068 1.1563492 3237286
0.14199133 -0.10177913 1.1518465 3697329
-0.11206329 -0.11612064 1.1506305 3237543
-0.1094048 -0.11558596 1.1580893 3172263
0.14233628 -0.092585474 1.1515062 3697843
-0.11321074 -0.10661306 1.1538329 3303340
-0.11114454 -0.10544313 1.1588147 3303852
0.14113668 -0.082217053 1.1521248 3764149
-0.11425325 -0.096845746 1.1510357 3500716
-0.11151446 -0.095378436 1.1590106 3501229
0.14305332 -0.071524113 1.1508569 3764661
-0.11464672 -0.0887959 1.1511943 3566512
-0.11172365 -0.085171744 1.1555681 3632306
0.13912275 -0.061642878 1.1510208 3896764
-0.11203007 -0.075538844 1.1557547 3698357
0.1322653 -0.052255623 1.1535327 4291265
0.13607919 -0.052953389 1.1479162 4225217
-0.11128156 -0.066413842 1.1555465 3764408
0.13212699 -0.042610694 1.1530491 4554434
0.134572 -0.041979305 1.147009 4488640
-0.10933138 -0.055487003 1.1565118 3895997
-0.10546552 -0.051972553 1.1597002 4027323
0.13070068 -0.031881332 1.1522785 4817354
-0.10876298 -0.045786675 1.1532137 3962044
-0.10479931 -0.044321071 1.1590296 4093118
0.12031714 -0.020545408 1.1557027 5014224
0.12586188 -0.022680454 1.1515486 4751563
-0.10867696 -0.035294861 1.1520746 4290235
-0.10373788 -0.034790821 1.1565187 4158908
-0.097730793 -0.031990498 1.1599171 4028609
0.1179625 -0.013663672 1.154101 4817874
0.12448279 -0.012650788 1.1487633 5145287
-0.10203375 -0.027908541 1.1544788 4487616
-0.096842319 -0.024829209 1.1586993 4356800
0.10796721 -0.0020394027 1.1542993 5276623
0.11448739 -0.0043686554 1.1504074 5604813
0.12393402 -0.0046656281 1.1488127 6720449
-0.095380217 -0.017701656 1.1601368 5671109
0.10562179 0.0032977685 1.1558759 5802961
0.111949 0.0032106787 1.1516489 6787017
0.028420854 0.011817746 1.158175 12972031
-0.027549341 0.016501673 1.1573987 5869264
0.0050859293 0.015895166 1.1587253 7515376
0.012580091 0.016236402 1.1585793 8764660
0.022184519 0.016703971 1.158393 10146554
0.028885104 0.016303614 1.1582495 10870005
-0.085913487 0.019432783 1.1526365 8028800
-0.080847293 0.020281292 1.1525496 7305855
-0.023246292 0.018017597 1.1593404 5671370
-0.01994456 0.018331021 1.1592792 5869265
0.0031675901 0.020525016 1.1588508 6988787
0.0075699035 0.020942912 1.1587692 7185904
0.092582598 0.037896588 1.15736 6314850
-0.080103613 0.025375746 1.1526299 8028802
0.089168005 0.041125908 1.1574898 6117979
0.064167283 0.049486428 1.1501509 5593178
0.066353276 0.049693942 1.1501105 5658970
-0.00046337023 -0.222738 1.1583729 2973083
0.0051628957 -0.22331819 1.1582477 2973595
0.014521187 -0.22201143 1.158749 2973598
-0.021386165 -0.21358141 1.1589692 2842012
-0.014905516 -0.21435906 1.158823 2776219
-0.0053432155 -0.21597388 1.1601229 2907806
0.0043702982 -0.21647075 1.161551 2907807
0.014934104 -0.21601446 1.1615205 2973599
0.023499206 -0.212797 1.1587391 3039136
0.034113467 -0.21080875 1.1592277 3170723
0.044021081 -0.20973462 1.1583797 3236770
0.053717814 -0.20833765 1.157542 3170979
0.062702604 -0.20727044 1.1573794 3170980
0.069172204 -0.20498489 1.1572908 3171236
-0.03326517 -0.20579483 1.1593561 2842012
-0.026344419 -0.20744321 1.1606399 2842011
-0.016541708 -0.20880204 1.1614227 2842012
-0.0081244111 -0.20949048 1.1627779 2907805
0.038272321 -0.20648375 1.1618918 3302309
0.044124581 -0.20474294 1.1606623 3302308
0.052699141 -0.20377932 1.1591485 3171236
0.06344153 -0.20330033 1.1574388 3171236
0.073922947 -0.20096037 1.158937 3105443
0.083505571 -0.1981059 1.1581289 3171492
0.089827284 -0.19559562 1.157047 3040420
-0.055292323 -0.19674307 1.159973 2841497
-0.046287239 -0.19866024 1.1602877 2907291
-0.037611052 -0.2005266 1.1614261 2907549
-0.030812521 -0.2011154 1.1633954 2907551
0.085983731 -0.19077356 1.1612169 3040420
0.092756227 -0.18824218 1.1592312 3106213
0.10025361 -0.18487453 1.1570359 3106214
-0.057358764 -0.19046591 1.1621332 2907290
-0.05050078 -0.19273761 1.1634519 2973340
0.096227184 -0.18085635 1.1611944 3302823
0.10197166 -0.17786634 1.1587329 3237030
0.10776626 -0.17389855 1.1588672 3237031
-0.075946048 -0.17864671 1.1607312 2841497
-0.06724944 -0.18132681 1.1610379 2842012
-0.060897298 -0.1830205 1.1633447 2907547
0.11218714 -0.16574375 1.1580751 3368361
0.1169232 -0.16200942 1.1571254 3237285
-0.077975415 -0.17289653 1.1608801 2973085
-0.071149275 -0.17253083 1.1634861 3039135
0.11379682 -0.15840624 1.1572564 3368615
0.11999255 -0.15448844 1.1579313 3237799
0.12421405 -0.1507317 1.1571884 3303337
-0.08655604 -0.16071118 1.1612824 2973857
-0.080788381 -0.16374093 1.1626647 3039137
-0.074750118 -0.16410287 1.1649806 3104930
0.12129248 -0.14685911 1.159321 3172264
0.12718749 -0.14336902 1.1579328 3238059
-0.088493519 -0.15267822 1.1624725 3039650
-0.084131628 -0.15593681 1.165324 3105700
0.12952456 -0.13339242 1.1595597 3369132
0.13369155 -0.13311787 1.1573256 3434410
-0.092028387 -0.14442864 1.1634132 3171236
0.13066441 -0.12514871 1.1607374 3500719
0.13377988 -0.1225142 1.159523 3435183
-0.10031448 -0.13304605 1.1620797 3302823
-0.095444351 -0.13462687 1.1646188 3171495
0.13358438 -0.11238819 1.1595347 3566514
-0.10283631 -0.12464306 1.1637433 3368873
-0.099027835 -0.12549914 1.165396 3368875
0.1354017 -0.10296207 1.1586556 3697588
-0.10456479 -0.11572698 1.1651578 3303850
0.13611208 -0.09330795 1.1614515 3763892
0.13918853 -0.092259243 1.1579788 3698099
-0.10688435 -0.1056757 1.164326 3435181
-0.10096116 -0.10565444 1.166607 3435438
0.13618554 -0.083142586 1.1622119 3829942
0.13890946 -0.082273856 1.1593146 3764149
-0.10675526 -0.095956802 1.1649054 3501229
0.13492829 -0.069844708 1.1624863 3896505
0.13953087 -0.072257712 1.1601651 3830455
-0.10709713 -0.086076319 1.1646357 3632563
-0.10316135 -0.082383156 1.1670872 3567542
0.13185406 -0.062894166 1.1601064 4027837
0.13736613 -0.065912455 1.1585089 3896505
-0.10729241 -0.075988807 1.1646231 3829940
-0.10378998 -0.075734213 1.1672245 3699127
0.12947983 -0.053490173 1.1615692 4291009
-0.10784093 -0.065845184 1.1642907 3895737
-0.10418948 -0.064750843 1.1674381 4027576
0.12881637 -0.043457348 1.1611036 4422849
-0.10731012 -0.0590536 1.1636068 4158911
-0.10315069 -0.05498495 1.1655991 4093372
0.12783326 -0.033754095 1.160805 4817355
-0.10031344 -0.045266602 1.1652617 4093630
-0.095851488 -0.041437559 1.1677052 4094397
0.1194182 -0.023773812 1.1618853 5080014
0.12416792 -0.026494242 1.1595148 4883149
-0.098951705 -0.037460323 1.1638411 4028348
-0.094676971 -0.034517072 1.1653099 4028864
0.11403021 -0.014590994 1.1617219 4949202
-0.092026994 -0.024638101 1.1657593 4029123
-0.087993599 -0.022056587 1.1679084 3963586
0.1070629 -0.0053634867 1.1629254 5146069
0.11084922 -0.0093729943 1.1601058 5080276
-0.091996163 -0.016743056 1.1640877 5342665
-0.085027762 -0.014005668 1.1679988 4882633
-0.022217125 -0.0042588264 1.1669055 6070261
-0.015568152 -0.0036276579 1.1667824 6528744
-0.0089191757 -0.002996482 1.1666591 8827627
0.0065950928 -0.0015237406 1.1663716 10340848
0.01536195 -0.0013304427 1.1661972 8895736
0.022899985 -0.0013176724 1.1660442 6266608
0.096853286 0.0065058619 1.1636883 5475287
0.10161176 0.0034589618 1.1618674 5475028
-0.082174957 -0.0076768473 1.1660587 5999306
-0.075649351 -0.0059431046 1.1659585 5540557
-0.067447945 -0.0018015951 1.1652026 5803727
-0.054899171 0.001086615 1.1676694 4950220
-0.045872085 0.00081416965 1.1674809 5016280
-0.03614198 0.0011323467 1.1668892 5411294
-0.026176464 0.0021027178 1.1648642 5806569
-0.016201705 0.0030286089 1.1663196 7120874
-0.0067153219 0.0046667457 1.1667578 12379901
0.0038285684 0.0051932558 1.1640263 13891069
0.013607802 0.0058958083 1.1631669 12969723
0.023512691 0.0070558786 1.1638719 9946095
0.033568159 0.0077695325 1.164084 10013177
0.043077976 0.010565907 1.1637022 7449069
0.04957433 0.012991808 1.1657704 5411552
0.093559422 0.010129847 1.1623225 6526426
-0.053394757 0.0061987713 1.1677345 6264275
-0.04596141 0.0077630132 1.1651119 5803990
-0.036517944 0.0093231872 1.1634488 5345755
-0.026675705 0.011524707 1.1632901 5412839
-0.017175127 0.01301191 1.1636251 5676266
-0.0080445223 0.012904726 1.1657957 7253489
0.0017221104 0.013687894 1.1637542 8436213
0.011845445 0.01242853 1.1625246 12051453
0.025784606 0.018208854 1.1623497 10082302
0.033658434 0.018213451 1.1621898 10607102
0.04218379 0.018173777 1.162016 7515119
0.049274832 0.018203057 1.1632063 6068200
-0.015494745 0.018747389 1.1631982 6001365
-0.011077266 0.01916673 1.1631163 6396124
0.10036295 0.035539776 1.1611594 6447199
0.0075791804 -0.21243539 1.1664054 3039391
0.015064325 -0.21118122 1.1677774 3039135
0.0264824 -0.21064095 1.1660551 3104930
-0.022382926 -0.20406038 1.1671706 2776478
-0.015910737 -0.2043868 1.1690339 2842271
-0.0058547966 -0.20512377 1.1709985 2907807
0.0035153227 -0.20611224 1.1713037 2908063
0.013590394 -0.20603204 1.1722053 2973600
0.023762044 -0.20407014 1.1715686 3105187
0.033593044 -0.20276524 1.1704735 3236773
0.043113746 -0.20050226 1.1696417 3237029
0.054020397 -0.19955429 1.1695046 3171237
0.063670442 -0.19954456 1.167008 3171236
0.072988793 -0.19708177 1.1662877 3105444
0.081637338 -0.1947469 1.1652323 3171493
-0.035290744 -0.19644324 1.1707766 2841758
-0.026994772 -0.19798955 1.1713794 2907551
-0.017963886 -0.19830194 1.1740148 2842271
-0.0071912613 -0.19849744 1.1749693 2908064
-0.0003681872 -0.19897933 1.1748217 2973857
0.02090303 -0.19696009 1.1744275 3105444
0.03362143 -0.1947487 1.1742105 3237030
0.043648403 -0.19419792 1.1732169 3302823
0.053189721 -0.19250485 1.1729317 3171495
0.062366597 -0.19020861 1.1723199 3105703
0.072052106 -0.18954463 1.1719269 3105703
0.081728674 -0.18808645 1.1698568 3105702
0.089732245 -0.184754 1.1669699 3105958
-0.047274172 -0.18981752 1.1695905 2973598
-0.039065164 -0.19085646 1.173759 2907551
-0.029002909 -0.19181374 1.1755375 2908065
0.082780749 -0.1796166 1.1734954 3237288
0.091443837 -0.17802697 1.1709038 3302823
0.099815235 -0.17511909 1.1678029 3237287
-0.057671465 -0.17951253 1.1712052 3105183
-0.04985892 -0.18222697 1.1742574 2974112
-0.041351397 -0.18366693 1.1759408 2842786
0.09234257 -0.17120156 1.1734587 3171750
0.10056595 -0.16676775 1.1720408 3172008
0.1083421 -0.16417706 1.1675963 3303081
-0.06671489 -0.17060141 1.1693642 3104930
-0.060176566 -0.17243579 1.1751994 3170978
0.10228501 -0.15825191 1.1734991 3303337
0.10983869 -0.15596204 1.1711377 3368873
0.11656062 -0.15394562 1.1678331 3237543
-0.077666342 -0.15883926 1.1718076 3040164
-0.07059785 -0.16196454 1.1727288 3105701
-0.063746221 -0.16583692 1.1767293 3302822
0.11060123 -0.14687669 1.1735432 3303597
0.11765347 -0.14367923 1.1690944 3238059
0.12437343 -0.13993609 1.1673911 3303852
-0.080670394 -0.15278542 1.1730934 3106213
-0.072662808 -0.15416384 1.1771289 3172007
0.11778045 -0.13464446 1.1734263 3369387
0.12558272 -0.13358493 1.1694862 3435181
-0.088803984 -0.14322533 1.1709923 3237030
-0.082109652 -0.14335597 1.1751888 3237800
-0.0753894 -0.1462332 1.1773328 3303594
0.11902585 -0.1284555 1.1737169 3500972
0.12692794 -0.12334142 1.1704009 3500976
0.1312204 -0.11991955 1.1656259 3500977
-0.090773262 -0.13415173 1.1729805 3237545
-0.085893288 -0.13544357 1.1768588 3303852
0.12787795 -0.11375902 1.1738122 3566772
0.13113496 -0.11369948 1.1697456 3566515
-0.094184935 -0.12472702 1.1733651 3369389
0.12783375 -0.10418867 1.1739922 3763639
0.13099459 -0.10284799 1.1690624 3763639
-0.1022795 -0.11155892 1.1718587 3435181
-0.096519068 -0.11478234 1.1749207 3435438
0.12743014 -0.093092561 1.174208 3895737
0.13227546 -0.092405193 1.1689441 3764149
-0.10236934 -0.10508502 1.1730487 3435438
-0.096880689 -0.105282 1.1769967 3501231
0.12690091 -0.087494895 1.1743237 3961530
0.13177538 -0.082927674 1.1691316 3961528
0.13855529 -0.078833848 1.1662459 3895735
-0.10294767 -0.095860958 1.1738334 3501489
-0.098661847 -0.095290549 1.1766405 3501490
0.12520736 -0.06958238 1.1746933 4159679
0.13123618 -0.073608994 1.1697664 3962041
0.13834503 -0.076609962 1.1662918 3895735
-0.10412572 -0.088579275 1.1729932 3501747
-0.099585392 -0.084999487 1.1756357 3567541
0.12386121 -0.063309215 1.1748381 4225473
0.12750375 -0.063385263 1.1707611 4159424
-0.098796517 -0.07470715 1.1747452 3764919
0.12277741 -0.054500964 1.175025 4422597
0.12655434 -0.053343594 1.1709683 4357059
-0.099229306 -0.064930238 1.1747655 3896505
-0.09441743 -0.064450577 1.17925 3962298
0.12165335 -0.043939415 1.1752455 4685767
0.12560496 -0.043301933 1.1711756 4422851
-0.098670788 -0.055674329 1.1730982 4027836
-0.093738176 -0.053543665 1.178349 4028094
0.11874712 -0.033532441 1.1733809 4948684
0.12469809 -0.03477104 1.1683525 4751818
-0.097777374 -0.047415867 1.171634 4093632
-0.092437506 -0.04356502 1.177446 4094399
0.11109442 -0.02385626 1.1758358 5080784
0.11539023 -0.024421141 1.1709361 5211343
-0.090028651 -0.034826942 1.1760776 4094402
-0.083765306 -0.031209782 1.1786554 4226244
-0.077441156 -0.02895166 1.1795696 4620744
-0.023809191 -0.022730894 1.1785969 5412064
-0.0014184378 -0.020605385 1.1781819 6463211
0.006977017 -0.023662306 1.1779541 6397929
0.016559301 -0.022109181 1.1777886 6397929
0.025571436 -0.019334242 1.1776575 6003432
0.1071803 -0.014857389 1.1735828 5081042
0.11254772 -0.017352782 1.167925 5081041
-0.083251029 -0.023209535 1.1736594 4160963
-0.075192645 -0.021613188 1.1788038 4752075
-0.060481168 -0.017175458 1.1794456 4949201
-0.053711019 -0.017097577 1.1793096 5016022
-0.044082262 -0.01729425 1.1784434 5213659
-0.03422356 -0.01725477 1.1776795 5411552
-0.024340831 -0.017110832 1.1779125 5740773
-0.014262587 -0.01617676 1.1785256 6003172
-0.0041962918 -0.015209876 1.1779391 6331366
0.0057998998 -0.014181651 1.1751543 6989552
0.01586359 -0.013238788 1.1753677 6792432
0.025889307 -0.012266092 1.1745321 5937640
0.034297571 -0.01059553 1.1766434 5806054
0.04486122 -0.00830511 1.1774721 5674725
0.051472597 -0.006547913 1.1773708 5674983
0.097331919 -0.0047361404 1.1764733 5146841
0.10340019 -0.0061130449 1.1706077 5080789
-0.080705829 -0.014381304 1.1719056 4554184
-0.077291802 -0.013289161 1.1748579 4751049
-0.062073849 -0.011637472 1.1775808 4818129
-0.054682024 -0.010916971 1.1766438 5015507
-0.045256093 -0.0099382401 1.1730695 5147609
-0.035221849 -0.0089543983 1.1715835 5346018
-0.025536794 -0.0084728152 1.174008 5937898
-0.015061259 -0.0082326308 1.174022 6462952
-0.0047417358 -0.0064837411 1.172956 8303605
0.004577945 -0.0056815296 1.1717654 8501495
0.014465258 -0.0057083592 1.1707506 7252467
0.025687836 -0.0041152686 1.171392 6069484
0.03470898 -0.002184391 1.1721065 6135528
0.044873349 -0.0016687885 1.1750069 5741031
0.054233234 -0.00061634183 1.1764253 5543655
0.063566737 0.0015514269 1.1772767 5477092
0.073460326 0.0038229376 1.1771183 5739747
0.084803611 0.0046487004 1.1769034 5280481
0.094153427 0.0029759407 1.1729884 5015513
0.099755734 0.001574859 1.1705399 4949463
-0.074664891 -0.0070762783 1.1719197 4818122
-0.065368496 -0.0051965341 1.171766 5147606
-0.056790054 -0.0036342517 1.1716211 4818639
-0.047977999 -0.0045429468 1.1714251 5344472
-0.0035523959 0.00023525208 1.1706122 12971007
0.00094798394 0.00010149181 1.1705183 12905215
0.025410969 0.0024237111 1.1700649 5807584
0.038754418 0.0036903769 1.1698176 6004710
0.04470063 0.0052165017 1.1697254 5807083
0.053262126 0.0084717721 1.1717466 5477863
0.061819162 0.008794494 1.1741132 5542628
0.073924422 0.0068791956 1.1771661 5673698
0.084229589 0.0098555982 1.1755118 5804766
0.089904301 0.0085459352 1.1688696 5147865
0.055494383 0.016498759 1.1697173 5412324
0.006682286 -0.20132509 1.1786361 3039650
0.013161998 -0.20135763 1.1785039 3039650
-0.014281079 -0.19538128 1.1791731 2842271
-0.0075411052 -0.19474147 1.1790482 2973857
0.0028646123 -0.19487588 1.1800979 2973857
0.012762093 -0.19572277 1.1811447 3039395
0.023175292 -0.19277592 1.1802396 3171237
0.032290641 -0.19047163 1.1793863 3237030
0.042546168 -0.18895502 1.1796783 3302569
0.0508557 -0.18830377 1.1793165 3237546
-0.034845304 -0.18680891 1.1797513 2908065
-0.027211916 -0.18705578 1.1795917 2973857
-0.01838382 -0.1880098 1.1803948 2973857
-0.0084809717 -0.1890021 1.1812931 2973858
-0.00011053123 -0.18907905 1.1830047 3105444
0.031448863 -0.18608317 1.1824199 3237030
0.0429537 -0.18347472 1.182235 3302825
0.051794898 -0.182172 1.181772 3171754
0.061620969 -0.18172485 1.1798879 3171752
0.071864888 -0.18031499 1.1791178 3171753
0.079961769 -0.17640674 1.1786146 3237546
0.087896973 -0.17321426 1.1775128 3303592
-0.046861708 -0.17845058 1.1801517 2908579
-0.038461145 -0.1798737 1.1819552 2908579
-0.028515272 -0.1804246 1.1826524 3105444
-0.019715883 -0.18138739 1.1835469 3105443
0.074554078 -0.17289343 1.1817913 3303339
0.082309246 -0.1698465 1.180357 3303082
0.090426132 -0.16691518 1.178151 3237545
0.096033968 -0.16337457 1.1775317 3303850
-0.056910403 -0.16807044 1.1805501 3302822
-0.04987774 -0.17177328 1.1825888 3040165
-0.042391907 -0.17489702 1.184129 3040167
0.084972776 -0.16280654 1.1817684 3303598
0.0906123 -0.15823948 1.1807979 3238061
0.098903641 -0.15534088 1.1787354 3303596
0.10631142 -0.1521983 1.1775322 3369131
-0.067637168 -0.15851024 1.1809469 3171751
-0.060870796 -0.16154578 1.182165 3368615
-0.053601645 -0.16458881 1.1845496 3171751
0.10752942 -0.14551023 1.1791332 3369134
-0.070266776 -0.15167606 1.1811283 3369130
-0.063930869 -0.15310501 1.1839739 3434922
0.10777195 -0.13581219 1.1808579 3435183
-0.0727662 -0.14330539 1.1826695 3434923
0.10984685 -0.12849295 1.1811053 3501232
0.11626884 -0.1247248 1.1804334 3435694
0.12275289 -0.1223024 1.1777579 3501232
-0.082006179 -0.13298407 1.182717 3369646
-0.075927034 -0.1362116 1.1842004 3435182
0.11913893 -0.11521119 1.1819655 3567282
0.12313072 -0.11425031 1.1797197 3567027
-0.091574281 -0.12111333 1.1821331 3501231
-0.086584836 -0.124644 1.1847167 3435439
0.11839299 -0.10732138 1.1821283 3829686
0.12317304 -0.10400608 1.1803148 3829431
-0.091892898 -0.11774336 1.1822027 3501231
-0.087797701 -0.11413481 1.1838543 3567024
0.1245961 -0.094459772 1.1809092 3830201
-0.093220465 -0.10370182 1.1824925 3632818
-0.089897536 -0.10415121 1.1844172 3698612
0.12569186 -0.083685748 1.1804217 3896507
-0.094123207 -0.094153561 1.1826895 3633333
-0.090220854 -0.094037548 1.1854135 3764919
0.12455732 -0.07353083 1.1801347 4093886
-0.095400937 -0.085434288 1.1828786 3633334
-0.091404669 -0.08418344 1.186022 3830201
0.1206764 -0.06424804 1.1811097 4291523
-0.091983892 -0.073860466 1.1846932 3896506
0.11918971 -0.053846762 1.1807121 4619975
-0.089616761 -0.064044744 1.1848764 4028348
0.11231885 -0.043075785 1.1834542 5146320
0.11691555 -0.044849258 1.1823273 4883148
-0.088821955 -0.054484237 1.1836102 3962814
-0.083940081 -0.052709013 1.1861166 3963072
0.11047016 -0.034355126 1.1821544 5146577
0.11432808 -0.035576962 1.1800524 5080527
-0.088312909 -0.045318909 1.1834856 4028607
-0.082283884 -0.043036327 1.18554 4291526
-0.032743696 -0.036376111 1.1865258 5147865
-0.02532601 -0.035444513 1.1863925 5344731
-0.0091807134 -0.033002086 1.1861104 5345501
-0.0024179853 -0.032360114 1.1859851 5739743
0.0078976806 -0.03359466 1.1844187 5936862
0.016918402 -0.032753512 1.1845846 5871068
0.026993729 -0.030705348 1.1854187 5739228
0.044921108 -0.027866304 1.1851077 5213656
0.10776456 -0.025689892 1.1822715 4949970
-0.081259012 -0.035412043 1.1835277 4422856
-0.073276959 -0.029908955 1.1852875 4686797
-0.063057475 -0.027809538 1.1853011 4884690
-0.052543528 -0.028286919 1.1865792 4950486
-0.042082012 -0.028038941 1.1855377 5213659
-0.033479746 -0.028360397 1.1834896 5279707
-0.023250837 -0.028539844 1.1836786 5345244
-0.013288196 -0.025952987 1.1834358 5411808
-0.0033737682 -0.026126243 1.1830291 5806052
0.0061949063 -0.028338075 1.1818839 6068964
0.018212488 -0.027575076 1.1816541 6068963
0.027997639 -0.024274297 1.1824406 6003173
0.036271274 -0.021781139 1.1831964 5608417
0.046437442 -0.020837799 1.1836079 5411038
0.053298693 -0.020247653 1.1850802 5279709
0.097599357 -0.014258936 1.183369 5212630
0.10352174 -0.017266877 1.1814482 5015248
-0.070165627 -0.023874968 1.1835184 4949712
-0.063425638 -0.023235157 1.1833935 4949713
-0.053315677 -0.022275433 1.1832061 5016279
-0.043919202 -0.021761253 1.1830249 5213659
-0.035236202 -0.021692589 1.1828498 5345501
0.037165444 -0.014252953 1.1815186 5871590
0.045537315 -0.012891524 1.1813741 5871847
0.055577442 -0.0097374916 1.1832299 5543139
0.062728733 -0.0079305694 1.1834043 5280225
0.08717382 -0.0056596398 1.1846652 5411294
0.093089655 -0.0064650923 1.1819836 5279196
0.064399041 -0.0026004836 1.1811836 5411556
0.073788047 -9.0822577e-006 1.1810414 5412066
0.085021339 0.0010572672 1.1808332 5477344
0.091973715 -0.00054957718 1.1806619 5213404
0.013431234 -0.19116601 1.1866922 3105189
-0.0076215416 -0.18468325 1.1882416 3039906
0.0022440255 -0.18589926 1.1884471 3039908
0.011882307 -0.18618965 1.1901515 3105447
0.022316795 -0.18436572 1.1873894 3105702
0.031225644 -0.18225011 1.1864977 3171750
0.040131256 -0.1809898 1.1863405 3237289
0.051368233 -0.17805591 1.1861671 3237548
0.061546452 -0.17708972 1.1859785 3171752
0.070593759 -0.17623088 1.1858108 3171752
-0.036243394 -0.17587498 1.1879873 3039909
-0.028343339 -0.17587778 1.1887161 3105701
-0.019941751 -0.17777559 1.1901671 3105443
-0.0098498296 -0.18226448 1.1913332 3040163
0.02070138 -0.17844841 1.1907841 3105960
0.03194353 -0.17626177 1.1905967 3105958
0.040840704 -0.17388275 1.1896603 3237545
0.051068671 -0.17182371 1.188396 3237547
0.0610255 -0.17055383 1.187712 3237544
0.071023367 -0.16937831 1.1876152 3237545
0.079428047 -0.16656272 1.1864793 3303339
-0.048326895 -0.16755125 1.1883886 3172009
-0.039596755 -0.16994989 1.1905673 3105961
-0.030063044 -0.17130336 1.1919489 3171752
0.053755544 -0.16477773 1.1903687 3303337
0.060563777 -0.16413143 1.1902425 3303593
0.07052207 -0.1622048 1.1900764 3303594
0.07941547 -0.15870878 1.1887107 3303596
0.086008258 -0.15651068 1.1858668 3238062
-0.056479745 -0.15976727 1.1886998 3434409
-0.05054155 -0.16103236 1.1913801 3237547
-0.041994039 -0.16262637 1.1923536 3237805
0.079711184 -0.15137382 1.1900924 3238318
0.088666402 -0.14755507 1.1888616 3238572
0.098689459 -0.14635354 1.1869999 3434926
0.10507882 -0.14511548 1.1856928 3369134
-0.059634805 -0.15102132 1.1901588 3435179
-0.053482316 -0.15250434 1.1923318 3369388
0.092673875 -0.14047539 1.1900331 3500977
0.097916313 -0.13640289 1.1890025 3435186
0.10329019 -0.13585252 1.1859026 3500720
-0.069126606 -0.14112897 1.1903059 3566511
-0.063145794 -0.14348704 1.1918076 3566767
-0.055696011 -0.14540076 1.1929543 3500977
0.098665394 -0.1286763 1.1896321 3501234
0.10623231 -0.12544899 1.1867878 3501490
-0.079936922 -0.12890334 1.189754 3566770
-0.072723724 -0.13287532 1.1921341 3632306
-0.065631904 -0.13718489 1.1933099 3632563
0.10724771 -0.11668915 1.1887701 3699127
0.1144929 -0.11466499 1.1865424 3633076
-0.081645496 -0.12347366 1.1908907 3566770
-0.075522728 -0.12385681 1.1937603 3763892
0.10731157 -0.10760157 1.1903511 3633335
0.11370175 -0.10474067 1.1878296 3764407
-0.082688771 -0.11348628 1.1928995 3698868
-0.078282833 -0.11370723 1.1940063 3699126
0.10675249 -0.095633365 1.1905866 3962811
0.11324657 -0.095081612 1.1892979 3830969
0.12089916 -0.094515614 1.1863186 3830714
-0.084831975 -0.10365225 1.1912495 3699126
-0.079476677 -0.10377102 1.1942166 3830712
0.11301841 -0.085131973 1.1900556 4028606
0.12108306 -0.084391646 1.1865044 3962300
-0.085133299 -0.094168574 1.1921103 3830970
-0.080236286 -0.093430154 1.1944256 3962813
0.1124486 -0.076101057 1.1908364 4291522
0.12018128 -0.074877486 1.1870645 4094399
-0.086378656 -0.084176958 1.1924369 3962044
-0.081449375 -0.084059134 1.1946256 4093630
0.11300871 -0.065251701 1.1907613 4554438
0.11782662 -0.065465793 1.1869248 4357059
-0.086710654 -0.074113823 1.192251 4093886
-0.082167335 -0.073005557 1.1948471 4291009
0.11017968 -0.054917585 1.1903898 4686026
0.11612643 -0.054379631 1.1871668 4685769
-0.085817643 -0.066703424 1.1910377 4159935
-0.081013277 -0.063827172 1.1938522 4225985
0.10203214 -0.045706593 1.1916169 5015248
0.10815706 -0.04634998 1.1888129 5014991
-0.078950107 -0.053755682 1.193259 4292037
-0.073356114 -0.055486545 1.194996 4619977
-0.051305696 -0.046524048 1.194716 5279449
-0.043362763 -0.045770042 1.1945688 5016538
-0.030773725 -0.045719873 1.194314 4950743
-0.021137826 -0.04648881 1.1941038 4950488
-0.012097174 -0.04547346 1.1939392 5147351
-0.0017851107 -0.043540481 1.193766 5278422
0.0089346133 -0.044829004 1.1926349 5212886
0.01816324 -0.043269694 1.1916152 5278423
0.02802136 -0.041503236 1.1919483 5147094
0.038936056 -0.040901564 1.1929884 4885460
0.048222877 -0.038494468 1.1921172 4950741
0.057257921 -0.037134234 1.1926868 5016279
0.099593468 -0.036013477 1.1904473 5212370
0.10701128 -0.036417462 1.1876882 5212369
-0.07753589 -0.04662177 1.1932461 4423370
-0.07578098 -0.043238189 1.1928736 4554187
-0.051319271 -0.041475713 1.194544 5147610
-0.041610312 -0.039785866 1.1926444 5081818
-0.032332346 -0.041189633 1.1924297 5016538
-0.021365587 -0.038708538 1.1923867 5278938
-0.012358667 -0.037244458 1.1922313 5344730
-0.0018760618 -0.03710958 1.1909539 5673948
0.0084922975 -0.038352799 1.1896529 5805277
0.017539604 -0.037493955 1.1894852 5541848
0.027610898 -0.035396837 1.18932 5475544
0.037575267 -0.032168828 1.189178 5213397
0.048253708 -0.031795427 1.1896743 5082070
0.057860661 -0.030133374 1.1912049 5016536
0.066585734 -0.027155101 1.1926841 5213915
0.077192433 -0.025166914 1.1925058 5279453
0.088128492 -0.024586715 1.1922946 5213659
0.097764298 -0.026571304 1.1904612 5212628
0.10429914 -0.025834873 1.1879413 5146833
-0.076050654 -0.03724983 1.1913906 4554443
-0.051115453 -0.033057086 1.1909627 5016281
-0.043792076 -0.03327474 1.1908098 5147611
-0.012719518 -0.03123793 1.1902169 5411294
0.057346381 -0.020022504 1.1890037 5148123
0.066032946 -0.019206613 1.1890427 5213915
0.076075323 -0.018515863 1.1903913 5213917
0.086787418 -0.01744476 1.1907707 5213659
0.094878741 -0.018375903 1.1886058 5212887
0.086862527 -0.010374233 1.1885849 5279708
0.091386184 -0.0099448115 1.188501 5411037
-0.004071245 -0.18256517 1.1962121 3106213
0.0016259812 -0.18202434 1.1961066 3105959
0.01291921 -0.18160926 1.1958849 3105706
0.023275431 -0.17996921 1.1957053 3105960
