# .PCD v0.7 - Point Cloud Data file format
VERSION 0.7
FIELDS x y z rgba
SIZE 4 4 4 4
TYPE F F F U
COUNT 1 1 1 1
WIDTH 174
HEIGHT 1
VIEWPOINT 0 0 0 1 0 0 0
POINTS 174
DATA ascii
0.0091546383 -0.0020235553 1.0687064 5134174
0.015570487 -0.0028772727 1.0662264 5134176
0.0093777003 5.4098666e-005 1.0729214 4871515
-0.0012248487 -0.015916564 1.0574738 4936281
0.0086998381 -0.017264247 1.0535821 5199967
0.013517761 -0.01736977 1.0528127 5397348
-0.0083404174 -0.0125001 1.0645822 4673880
-0.00088219554 -0.011179812 1.0620559 4870232
0.008603448 -0.011996545 1.0609311 5068382
0.018375332 -0.01253251 1.059955 5068384
0.026390305 -0.012875102 1.0605066 4476504
-0.0073768673 -0.0070873648 1.0724089 4607822
-0.0004560668 -0.0060356483 1.0707254 4673623
0.010283556 -0.0066045076 1.0683296 5134174
0.020720249 -0.0064347759 1.0674762 4739419
0.02844408 -0.0078628361 1.0665994 4081746
-0.006211401 -0.0048772916 1.0805787 4410445
0.0020466363 -0.0018926561 1.0788937 4213839
0.01230877 -0.0018893629 1.0777206 4345429
0.022196528 -0.0022897795 1.0757666 4016211
0.030243976 -0.0036537424 1.0746833 3621193
0.003474649 0.00049828738 1.0836096 3884109
0.012895441 0.00072897226 1.0829973 3752784
0.023180716 0.00047356635 1.0812935 3621192
0.030216381 -0.00016578287 1.0791796 3686459
-0.010830375 -0.030469395 1.0526081 4673626
-0.0030884377 -0.028500758 1.0492721 4870741
0.0057900287 -0.029379986 1.0468767 5265754
0.015858289 -0.02952265 1.0460361 5397604
0.024855316 -0.031152695 1.0484111 4608350
-0.010643647 -0.022941202 1.0590115 4673629
-0.0027200032 -0.021859519 1.0553774 4870744
0.005370426 -0.022436254 1.0525115 5134174
0.017895611 -0.022406049 1.0526173 5397606
0.026409645 -0.025974877 1.0538352 4476760
0.033316255 -0.026280634 1.0573825 4015442
-0.016019765 -0.02317322 1.069397 3883351
-0.01284163 -0.018578954 1.0665746 4475995
0.019766374 -0.018959425 1.0579526 5068641
0.029406074 -0.019590378 1.0602279 4082513
0.035690751 -0.023202986 1.0622531 3752531
-0.012578313 -0.013060994 1.0750757 4079443
0.032724775 -0.015113927 1.0677253 3621705
0.036987111 -0.019039489 1.066278 3751503
0.032218825 -0.010384239 1.0740234 3490378
-0.0016566224 -0.049175546 1.0397069 5002588
0.0014994319 -0.049253918 1.0391841 5528419
-0.010666705 -0.044674657 1.0499294 4739163
-0.0041136267 -0.043480419 1.0449127 5002333
0.0052038678 -0.043798342 1.043066 5397092
0.0146775 -0.044345073 1.0439495 5332066
0.020893566 -0.04545838 1.0447012 4740695
-0.011713002 -0.038173515 1.0513711 4082256
-0.0051250411 -0.037283659 1.0484474 5068120
0.017658334 -0.039404206 1.0460513 5200736
0.026397109 -0.040036522 1.0486178 4345175
0.03381576 -0.041413218 1.0501715 4278096
0.030371731 -0.032971345 1.0551186 4147028
0.035255849 -0.03695979 1.0557107 3819087
0.036062416 -0.030275963 1.060746 3687502
0.0041130171 -0.06448409 1.0328317 5528423
0.0084470967 -0.06435176 1.0326034 5397348
-0.0050924132 -0.055973761 1.0391226 4804702
0.0042008413 -0.055776667 1.0371372 5462626
0.013709567 -0.058037754 1.0372998 5003105
0.022296093 -0.057504039 1.039526 4804440
-0.012481843 -0.052499413 1.0500978 3817824
-0.0073866975 -0.050711062 1.044059 4673622
0.0084357494 -0.051103972 1.041438 5660265
0.015968319 -0.050597921 1.0416048 5069150
0.025424138 -0.051370293 1.0434928 4475986
0.031467769 -0.049609251 1.0463923 4014924
0.029104885 -0.046852134 1.0477397 4606547
0.03516975 -0.046366513 1.0491716 3620428
-0.0030659235 -0.073617205 1.0309461 4079956
0.0031769136 -0.072164267 1.0279922 5266270
0.0091413865 -0.074161783 1.0284312 5002845
-0.0050345669 -0.069028169 1.0359874 4079963
0.0019649002 -0.068567872 1.0315707 5330781
0.012779723 -0.069321543 1.0325373 5002331
0.016889995 -0.06528154 1.0365623 5001816
0.021517359 -0.065200761 1.0389261 4540755
0.026940128 -0.061200507 1.0437365 4213074
0.0017987909 -0.089232676 1.0258243 5265766
0.0010818252 -0.084661059 1.0287354 5068639
0.009905111 -0.083715677 1.0285667 4214103
-0.0062560346 -0.077076353 1.0333558 1580089
0.014963593 -0.077384815 1.0318037 4145996
0.018540286 -0.074300095 1.0361714 4212054
-0.0045516295 -0.092230588 1.0272626 3618132
0.00069068931 -0.092850015 1.0253956 5199718
0.0073614558 -0.092526421 1.0252891 4214875
-0.0027807008 -0.1332881 0.979671 528927
0.0021651865 -0.13370854 0.97824419 1517876
0.0003439649 -0.14882174 0.97491616 4419983
-0.013601475 -0.14364353 0.98253685 1651559
-0.0082666157 -0.14061886 0.98094457 1782104
0.0031732237 -0.1401352 0.97582126 4154236
0.0089885313 -0.14218444 0.97966665 3028033
-0.0040119924 -0.14219899 0.98893428 2369321
0.0035025319 -0.13920663 0.98598516 2040105
-0.0011102434 -0.13013893 1.0041126 4146252
-0.013575151 -0.15479478 0.98253107 5077683
-0.0073253624 -0.1549059 0.97855145 4617364
0.0019120974 -0.15530346 0.97667795 4549258
0.0078503145 -0.15066072 0.9794026 6582660
-0.012990876 -0.14612064 0.99106526 7695014
-0.0047779987 -0.14525577 0.99340343 2040625
0.0033730967 -0.1443146 0.99287009 2172202
0.0092704203 -0.14667344 0.98737758 2760198
-0.009568491 -0.16729441 0.97476423 4683677
-0.0039468063 -0.16743401 0.97383296 3831442
-0.016065944 -0.16303927 0.98159534 3299734
-0.0095316423 -0.16292906 0.97787708 4683420
-0.0011080822 -0.16420844 0.97644895 3960460
-0.027169008 -0.21094969 0.9172703 3829135
-0.019075386 -0.21093598 0.91636777 4223637
-0.013005718 -0.21128675 0.91495401 3960467
-0.026498172 -0.20678785 0.92568767 3498881
-0.018136147 -0.20643333 0.92453963 3895695
-0.010162065 -0.20639646 0.92460835 3631246
-0.024778983 -0.19915947 0.93423265 3499128
-0.017758049 -0.19969121 0.9323402 4025235
-0.0088313604 -0.20115077 0.93256122 3499655
-0.02280537 -0.19323817 0.94153994 3826560
-0.016140776 -0.19387163 0.94061863 4156303
-0.0082436223 -0.19655168 0.93992996 3630985
-0.020919515 -0.19173244 0.95122361 3893387
-0.01444175 -0.1903601 0.94973981 4157333
-0.0070076613 -0.19216099 0.94988734 3762828
-0.017810196 -0.18982354 0.95931375 3762325
-0.011971449 -0.18554071 0.95903957 4420507
-0.0057488577 -0.18785965 0.95890111 3828877
-0.016771628 -0.18368821 0.97171682 4222878
-0.010168373 -0.18132734 0.96728021 4552347
-0.0039784722 -0.18429354 0.96718991 3631755
-0.017535498 -0.1751281 0.97653198 3627913
-0.0093827313 -0.17424333 0.9726972 4683676
-0.0019686816 -0.17648634 0.97395611 3892613
4.4289278e-005 -0.17008984 0.97933221 3563127
-0.030028742 -0.22012517 0.9112258 3033484
-0.021846924 -0.22291514 0.91004097 2897991
-0.011810268 -0.22236767 0.90888894 3891064
-0.0041633705 -0.22371426 0.90905422 2638186
-0.032643784 -0.21472999 0.91928715 666715
-0.022245675 -0.21598902 0.91552192 4813457
-0.008383383 -0.2150197 0.91590667 3499654
-0.001103746 -0.21844819 0.91645634 3561592
-0.031502787 -0.20968068 0.92946184 6722
-0.0070126383 -0.21080396 0.92435354 3694979
-0.00039302232 -0.21264729 0.92438167 3233144
-0.0038209634 -0.20624709 0.93328738 3104639
0.00095955236 -0.20921078 0.9339298 2640231
-0.0029775391 -0.20194101 0.94197935 2907007
0.001531045 -0.20617959 0.94315416 3099492
-0.023171734 -0.19597921 0.95646936 4089741
-0.0018450536 -0.19801852 0.95066786 3496061
0.0028186811 -0.20179388 0.95299202 4278874
-0.019618113 -0.19246158 0.96324039 2972810
-0.00081821764 -0.19433418 0.96036023 3757171
0.0029519151 -0.19817647 0.96035999 3748927
-0.017568514 -0.18993686 0.96815783 3630740
0.00085818116 -0.18987933 0.96615678 3953004
-0.023197023 -0.23029929 0.90690511 984897
-0.012247511 -0.22884139 0.90862191 4350584
0.0017190357 -0.21909046 0.92843544 4674411
0.0031156805 -0.21741933 0.93699592 6974583
0.003131568 -0.21247789 0.94707978 3815753
-0.026673056 -0.20426583 0.96044022 5799072
0.0053089145 -0.20557898 0.95408309 5064001
0.0015129263 -0.23279479 0.92855573 7039097
0.0022028245 -0.23113021 0.93414962 7565430
0.0028656663 -0.22698596 0.94177341 8223350
0.0036521077 -0.21914294 0.94707084 9076613
