# .PCD v0.7 - Point Cloud Data file format
VERSION 0.7
FIELDS x y z rgba
SIZE 4 4 4 4
TYPE F F F U
COUNT 1 1 1 1
WIDTH 1130
HEIGHT 1
VIEWPOINT 0 0 0 1 0 0 0
POINTS 1130
DATA ascii
0.15534563 -0.095049739 1.1101488 3697839
0.15570275 -0.095302388 1.1131564 3763633
-0.12990308 -0.080034152 1.1075146 3368355
0.15645622 -0.084058039 1.112864 3436468
0.17081927 -0.080664925 1.1134108 10992842
-0.12739582 -0.069655821 1.1075423 3697068
0.15444364 -0.071074679 1.1170893 3765679
0.15769285 -0.073634833 1.1123354 3830452
0.17053396 -0.076408327 1.1133977 11387079
-0.12613095 -0.061902817 1.1053512 3631022
-0.12389416 -0.05872982 1.104887 3500456
0.15397343 -0.064153984 1.1141784 3830449
0.16072619 -0.064760402 1.1118252 5207985
0.16715419 -0.065869495 1.1159827 10334913
-0.12621234 -0.049872968 1.1073996 3434161
0.15326296 -0.055210445 1.1138948 3893939
0.16036257 -0.055810414 1.1132263 8428221
-0.12637204 -0.039833561 1.1109502 6194370
-0.12180564 -0.037803508 1.1118888 4421311
0.15127695 -0.043347776 1.1158885 5734064
0.15749824 -0.047120966 1.1171023 10203587
-0.12036473 -0.031159274 1.1119033 6852289
0.14992739 -0.03740675 1.1137431 8955077
0.021661721 0.094293796 1.1143161 9737616
-0.088187516 -0.20701407 1.1211588 7635861
-0.084861375 -0.20755653 1.1238887 8100012
-0.09833236 -0.19692495 1.1236187 10535920
-0.091306411 -0.19971924 1.1214012 5996227
-0.084803216 -0.20396653 1.1238832 6394567
-0.10801128 -0.18574399 1.1154168 8431615
-0.10110495 -0.18829574 1.1183196 1526185
-0.095038347 -0.19078094 1.1225257 1262491
0.12866209 -0.1916185 1.1278322 11717846
-0.11642627 -0.17705062 1.1152443 7571711
-0.10950997 -0.17942947 1.1169331 1917611
-0.10264494 -0.18205611 1.1208441 2379673
-0.095986813 -0.18511277 1.1236407 2644619
0.130363 -0.18477193 1.1278514 5010097
0.13777205 -0.18193129 1.1248406 10599906
0.14490871 -0.18083736 1.1241142 14081762
-0.10948163 -0.17059404 1.1195729 2709143
0.13157734 -0.17418972 1.1278546 2909858
0.13830476 -0.17382921 1.1241603 4026283
0.14596575 -0.17415106 1.1206208 12307424
-0.11609711 -0.15673235 1.1152132 2775446
-0.11183779 -0.1610111 1.1182098 2775442
0.13968521 -0.16490141 1.1249878 3105445
0.14473532 -0.16415946 1.1200796 2578854
-0.11805262 -0.14949702 1.1173178 2775449
-0.11396003 -0.15196246 1.1219121 2906778
0.14214751 -0.15513714 1.1264161 3564451
0.14559026 -0.15422091 1.1224778 3433893
-0.12178533 -0.14075556 1.1183728 2840984
0.14374663 -0.14697568 1.1280311 3565217
0.14766105 -0.14493003 1.1227659 3499430
-0.12633869 -0.12875549 1.1149714 2841497
-0.12349658 -0.13057062 1.1210287 2907290
0.15006536 -0.13434127 1.1251251 3237547
-0.12639503 -0.11929435 1.1165533 2973083
-0.12375237 -0.11981271 1.1210042 3038877
0.15329209 -0.12470421 1.1263494 3827369
0.15608564 -0.12369584 1.1202167 3564710
-0.12731461 -0.10930713 1.1177753 3039391
-0.12477691 -0.11125687 1.1216363 3170977
0.15372762 -0.11462165 1.1261573 3565735
0.15622424 -0.11514078 1.1202036 3500198
-0.12734796 -0.10111009 1.119903 3170977
0.15415365 -0.10560966 1.125482 3631790
0.15516035 -0.10730081 1.1281708 3434923
-0.12731338 -0.090557247 1.1188841 3302823
0.15399995 -0.094152734 1.1256248 3566513
-0.12709557 -0.080559708 1.1175363 3368614
0.1532445 -0.084882699 1.1256323 3632560
-0.12649192 -0.072860137 1.1188669 3565995
0.15223478 -0.074698411 1.1243228 3895728
-0.12334329 -0.057857614 1.1204984 3697842
0.15008542 -0.064706892 1.1227976 4158132
-0.1215242 -0.049583606 1.1192805 3502262
0.14910521 -0.054019246 1.12396 4027837
-0.11871424 -0.040114008 1.1187295 3698611
0.14436226 -0.042489234 1.1278514 4619197
0.15021935 -0.045692611 1.1224267 4946612
-0.12479682 -0.033580482 1.1148258 7180220
-0.1172965 -0.030692093 1.1221614 4815032
0.14439459 -0.036008034 1.1271733 5209534
0.14928287 -0.034345411 1.1199266 8425655
0.022658447 0.090255089 1.1173426 9474444
-0.061623849 -0.21778794 1.131341 8300241
-0.079634175 -0.20930612 1.1273534 7642055
-0.072193615 -0.21008065 1.1296301 4815810
-0.06552007 -0.21363688 1.131261 5210825
-0.088571049 -0.19724682 1.1268015 932767
-0.081690252 -0.20079997 1.1286204 2382238
-0.073166639 -0.20397447 1.131101 2251168
0.11035528 -0.20369048 1.1345149 6518691
0.11623435 -0.2027615 1.1331939 11319227
-0.090223782 -0.19047478 1.1286253 2447513
-0.084926911 -0.19402874 1.130864 2513045
0.11820427 -0.1945692 1.1335914 4617903
0.12530111 -0.19470474 1.1307759 10929103
-0.099491984 -0.17929703 1.1280202 2971544
-0.093652569 -0.18315634 1.1286814 2774929
0.12043786 -0.18533719 1.1330019 2909086
0.12540142 -0.18447231 1.130759 3105187
-0.10678385 -0.16598828 1.1264054 2709911
-0.10228934 -0.17111775 1.1288517 2644371
0.12706715 -0.1746814 1.1313876 3368356
-0.1090409 -0.15933308 1.1281697 2775444
-0.10415517 -0.16353495 1.1291169 2709910
0.13162725 -0.16488606 1.1324393 3368613
0.13591062 -0.16199204 1.1309134 3499683
-0.11210884 -0.15071267 1.1277785 2841497
0.13350208 -0.15745497 1.1348609 3237027
0.13832366 -0.15482715 1.1322787 3302821
-0.11783318 -0.13902919 1.126722 2645144
-0.11442421 -0.14080697 1.1293287 2775964
0.1415877 -0.14494306 1.13317 3237542
0.14574863 -0.1414315 1.1323923 3106215
-0.11954376 -0.13060008 1.127558 2907291
0.14310651 -0.13541326 1.1336657 3499683
0.14626803 -0.13348578 1.1321969 3303338
-0.12038578 -0.12065783 1.1284697 3039134
0.14801487 -0.12502114 1.1324829 3499947
-0.12525576 -0.10628185 1.1259524 3236770
-0.12322858 -0.11060025 1.1293318 3236770
0.14990863 -0.11454228 1.1329055 3500458
-0.1251508 -0.09980271 1.1259425 3237027
-0.12350588 -0.10018514 1.1299745 3302821
0.15243684 -0.1040322 1.1334008 3632048
-0.12499335 -0.090084001 1.1259276 3302824
-0.12335664 -0.090973981 1.1299603 3302569
0.1508555 -0.095116585 1.1332512 3632047
-0.12527829 -0.081006214 1.1259058 3434408
-0.12253815 -0.078676641 1.129953 3434665
0.14764933 -0.084016934 1.1328075 4026292
-0.12467846 -0.070646569 1.1258979 3631531
-0.12301432 -0.069842495 1.129928 3631531
0.14791101 -0.076043904 1.1314238 4157366
-0.1245735 -0.064167425 1.125888 4025255
-0.12138353 -0.059092134 1.1282241 3632304
0.14757371 -0.064247966 1.1309514 4289211
-0.11776762 -0.050158203 1.1277035 3568048
0.14458047 -0.053428888 1.1315427 4094399
0.14681533 -0.057850868 1.132926 4224702
-0.11632934 -0.044138137 1.1260047 3764911
-0.11286652 -0.039874986 1.1285617 3895729
0.1421463 -0.044965871 1.13227 4487616
-0.1173058 -0.026009694 1.1289538 6458567
-0.11242141 -0.029862858 1.1284517 3895996
0.14227439 -0.033930697 1.1311975 5735616
0.14919569 -0.03078986 1.1309204 9477559
-0.11684203 -0.023332462 1.1299577 6852289
-0.1135916 -0.023385026 1.1300184 5933254
0.054801825 0.075510226 1.1289696 9474701
-0.025263183 -0.22881013 1.1440399 7248329
0.007563923 -0.23093405 1.1438544 5801654
0.01561281 -0.2299355 1.1434689 5210039
0.028369419 -0.23077285 1.1450413 6328255
0.036033753 -0.2308968 1.1451842 7379645
0.047593061 -0.23096204 1.1453993 8430007
0.055645302 -0.22932458 1.1415454 8625323
-0.062877893 -0.22008729 1.1353227 9678537
-0.052176937 -0.22025216 1.1420496 4422071
-0.04288001 -0.22107662 1.143698 2778029
-0.033149112 -0.22304919 1.1438826 2513574
-0.025580846 -0.22588396 1.1440287 2315684
0.0043347301 -0.22709799 1.1445874 2120102
0.016378686 -0.22729278 1.1448119 2185635
0.029535286 -0.22641015 1.1450551 2186146
0.034992069 -0.22759378 1.1451588 2316696
0.050356224 -0.22565147 1.1454411 4486314
0.05795816 -0.22538248 1.1435816 5997746
0.069136329 -0.22260195 1.1446418 6063288
0.07780692 -0.22127575 1.1459438 6589614
0.085905656 -0.22162578 1.146095 8757678
-0.068120539 -0.20803714 1.1352031 1855898
-0.061501734 -0.21064831 1.1385697 2249885
-0.05393289 -0.21307497 1.1427503 2381985
-0.045853488 -0.21533257 1.1436322 3039902
0.071875408 -0.2155934 1.145823 2841504
0.077906258 -0.21514323 1.1459343 3302564
0.087531343 -0.21304509 1.144776 4420011
0.097426757 -0.21237853 1.1405771 6984117
0.10695048 -0.20978059 1.1384635 6254993
-0.079108663 -0.19733685 1.1357791 2710418
-0.07150396 -0.20071882 1.1395085 2775447
-0.064870819 -0.20305137 1.1424557 2906776
0.090089276 -0.20519097 1.1457428 3171492
0.098672278 -0.20396015 1.1430997 3237285
0.10710537 -0.20288855 1.1390253 3629215
-0.081957258 -0.19033483 1.1397141 2775191
-0.073926531 -0.19395308 1.142404 2906012
0.10074998 -0.19478488 1.1446551 3040421
0.10778237 -0.19322056 1.1413965 3105703
0.11373848 -0.19357395 1.1385601 2777257
-0.096966423 -0.17602561 1.1346078 2710677
-0.090330206 -0.18001285 1.1382686 2709909
-0.084218591 -0.18371689 1.1408601 2709910
0.10900306 -0.18485439 1.1449835 3368100
0.11669517 -0.18315023 1.1407297 3302561
-0.098146267 -0.16945659 1.1376854 2710421
-0.09348467 -0.17237824 1.1418672 2644886
0.1111589 -0.17712361 1.1464834 3040936
0.11928884 -0.1741589 1.1445419 3237031
0.12579326 -0.17136712 1.1417443 3368615
-0.10752219 -0.15627523 1.1343752 2776209
-0.10225265 -0.16083518 1.1392325 2841240
0.12141968 -0.16570285 1.1466534 3237287
0.12800631 -0.16359042 1.1416283 3302822
-0.10849909 -0.14959919 1.1388789 2710683
-0.10391006 -0.152962 1.141771 2841499
0.13035735 -0.15520614 1.1442118 3237541
0.13544314 -0.15257888 1.1404891 3237798
-0.11050008 -0.14100906 1.1394356 2907293
0.1321357 -0.14646357 1.1468176 3237797
0.13700248 -0.14400627 1.1419027 3303334
-0.11654259 -0.12921853 1.135301 2907805
-0.11448345 -0.13087903 1.1414005 2907805
0.13894673 -0.13466935 1.1444778 3434407
-0.11691912 -0.11990158 1.136801 3039392
-0.11441943 -0.12111643 1.142184 3039391
0.14104736 -0.12512952 1.1443725 3500202
0.1453453 -0.12229294 1.1390177 3631274
-0.11995418 -0.11068079 1.1385946 3170979
0.14312562 -0.1148911 1.1465197 3631791
0.14663383 -0.1143877 1.1408052 3566510
-0.12021254 -0.10032342 1.139752 3105957
0.14250627 -0.10376733 1.1452653 3632305
0.14783761 -0.10495969 1.1393657 3501227
-0.120389 -0.090296917 1.1374443 3237546
0.14221217 -0.094691478 1.1443644 3698099
0.14691612 -0.095154971 1.1393973 3698094
-0.11961254 -0.080559544 1.137679 3434923
0.14358829 -0.085437715 1.1449186 3895479
0.14590906 -0.087493733 1.1389644 3895477
-0.11907578 -0.070108503 1.138289 3566256
0.14400539 -0.074138261 1.1462392 4027579
0.14656994 -0.073608875 1.142952 4157882
-0.11792287 -0.061217181 1.1375377 3567024
0.14213018 -0.064569592 1.1456769 4159422
0.14653836 -0.064794444 1.141335 4289724
-0.11540863 -0.051422868 1.1353701 3567791
-0.11237395 -0.049529564 1.1407574 3764403
0.14061122 -0.054508395 1.1441398 4356797
-0.11037486 -0.040634461 1.1346821 3830196
0.13812187 -0.044885464 1.1431423 4619718
-0.10876916 -0.029753864 1.13703 3896507
0.13421571 -0.032927141 1.1435367 4817095
0.13879263 -0.033583418 1.1404003 4948420
-0.116247 -0.020456336 1.137965 6916535
-0.10876285 -0.021108188 1.1377977 5210049
0.13343367 -0.02651912 1.1456219 5013440
0.13794342 -0.02617842 1.1433715 5998788
0.034415692 0.049161367 1.1394975 5859448
0.042646822 0.049102835 1.1377933 6122362
0.048151407 0.049146987 1.1408962 6319482
0.059206519 0.05024115 1.1451006 5330522
0.035097849 0.053595848 1.1379781 5792108
0.042944852 0.054313414 1.1375893 5527648
0.048222125 0.053512119 1.1408895 5067354
-0.019576073 -0.22887 1.1471462 4354997
-0.012272567 -0.23001269 1.1492846 4684224
-0.0023458162 -0.22988105 1.1480021 4289976
0.0086774826 -0.22775799 1.1476699 2054307
0.019097319 -0.22847563 1.1478651 2777510
0.02456834 -0.22966233 1.147969 4026798
0.041034751 -0.22992861 1.1482759 5604271
0.044903595 -0.22834384 1.1483449 4881326
-0.03838395 -0.21821102 1.1467768 3039902
-0.030460779 -0.21925637 1.1474262 2710943
-0.022077437 -0.22129697 1.1503907 2645152
-0.01231091 -0.22430831 1.1539409 2514339
-0.0023608105 -0.2243664 1.1535927 2514851
0.0076235672 -0.22202423 1.1522406 2842787
0.017554175 -0.22176445 1.1502244 2908579
0.027220255 -0.221525 1.1508929 3039651
0.03737966 -0.22239077 1.1521947 2908578
0.046746053 -0.2216706 1.1521177 2778020
0.056845408 -0.22017574 1.149981 2646433
0.066401839 -0.22301728 1.1487352 5012145
0.077907577 -0.22448462 1.1489519 8955830
-0.051280625 -0.20958164 1.1468068 2841242
-0.041511994 -0.21180955 1.1490407 2775960
-0.032562442 -0.21322677 1.1511434 2841500
-0.023261867 -0.21554393 1.1550547 2907551
0.0084375711 -0.21531934 1.1556441 3105184
0.017655024 -0.21509978 1.1558151 3170722
0.027603425 -0.21526065 1.1560005 3302053
0.03774501 -0.21487173 1.1561885 3170723
0.048261032 -0.21412024 1.1563828 3105188
0.057635311 -0.21348085 1.1548414 3170467
0.067315206 -0.21343368 1.1511351 3236258
0.077550128 -0.21015948 1.1493635 3171236
-0.067703336 -0.1979686 1.1461942 2906776
-0.061231926 -0.20030813 1.147462 2907033
-0.052868865 -0.20142296 1.1513108 2841497
-0.043740366 -0.20562866 1.1546556 2775704
0.05867938 -0.20802219 1.1565654 3105443
0.067522407 -0.2081652 1.1567302 3105443
0.078397967 -0.20462468 1.1556627 3105956
0.086874552 -0.20189583 1.1522779 3105956
-0.078503072 -0.18681157 1.1459728 2644884
-0.071549319 -0.19048831 1.1491096 2775705
-0.063276567 -0.19349095 1.1519361 2841497
0.082071416 -0.19734192 1.1569811 3172006
0.089784376 -0.19508563 1.1561203 3040421
0.095730491 -0.19283541 1.1537263 2974628
-0.087142862 -0.17788595 1.1457958 2645144
-0.080587424 -0.17975582 1.1489806 2710425
-0.075357877 -0.18255994 1.1505959 2776216
0.099332474 -0.18425226 1.1540277 3171493
0.1044049 -0.18210819 1.1509676 3237026
-0.090099111 -0.16981557 1.1483147 2710424
-0.083840817 -0.17212045 1.1523933 2710937
0.10229061 -0.17776346 1.1573215 3302823
0.10874514 -0.17378682 1.1542758 3172005
0.114606 -0.17074177 1.153537 3172006
-0.098538078 -0.15829948 1.145548 2841498
-0.094276771 -0.16088176 1.150556 2907290
0.11131274 -0.16685079 1.1574693 3303592
0.11763889 -0.16357246 1.1562475 3237544
0.12398301 -0.15933549 1.1496899 3303337
-0.10019766 -0.14981133 1.1472162 2973342
-0.09577547 -0.15299615 1.153591 3038879
0.121383 -0.15586717 1.1569698 3237544
0.12587608 -0.15291697 1.1525139 3303336
-0.10802085 -0.13813122 1.1463348 2973342
-0.10209207 -0.14138527 1.1509519 2973600
0.12941001 -0.14384547 1.1537632 3368872
-0.10949655 -0.13024125 1.1476461 3039392
-0.10418774 -0.13113791 1.1533946 3236259
0.13083096 -0.13442431 1.1555227 3500460
0.13540529 -0.13206427 1.1498525 3434923
-0.11045016 -0.12058074 1.1481467 3170978
0.13200009 -0.1255115 1.156445 3500719
0.13679594 -0.12309335 1.1531959 3500718
-0.11677739 -0.10931599 1.145119 3237029
-0.11309956 -0.11073695 1.151191 3237286
0.13722558 -0.1142379 1.1559601 3697329
-0.11663508 -0.10053239 1.1451055 3237543
-0.11420928 -0.10012486 1.1526512 3172263
0.1386005 -0.10514826 1.1554636 3697843
-0.11683755 -0.090886146 1.1480846 3303340
-0.1148386 -0.089838296 1.1531208 3303852
0.13853659 -0.094699457 1.1558434 3764149
-0.11668679 -0.081129357 1.145069 3500716
-0.1140967 -0.079792261 1.1531162 3501229
0.14167279 -0.084314197 1.1544539 3764661
-0.1161904 -0.073083639 1.1450635 3566512
-0.11304587 -0.0697053 1.1494802 3632306
0.13885924 -0.074058987 1.154282 3896764
-0.11228846 -0.060095523 1.1494768 3698357
0.1329979 -0.063919008 1.1563507 4291265
0.1369144 -0.065159753 1.1509011 4225217
-0.11052522 -0.051115572 1.1491294 3764408
0.13394816 -0.054330982 1.1556841 4554434
0.13666818 -0.054109827 1.1497333 4488640
-0.10741173 -0.040450979 1.149968 3895997
-0.10329954 -0.037312362 1.1532393 4027323
0.13375013 -0.043530051 1.1546605 4817354
-0.10565013 -0.03094954 1.1465161 3962044
-0.10176449 -0.029798001 1.152454 4093118
0.12456951 -0.031044692 1.1574674 5014224
0.1299919 -0.033871092 1.1535727 4751563
-0.10435902 -0.020559579 1.1451875 4290235
-0.099560991 -0.020502031 1.1498108 4158908
-0.093409143 -0.01830411 1.1533885 4028609
0.12305318 -0.023983553 1.1556481 4817874
0.12983707 -0.023816288 1.1505508 5145287
-0.097030215 -0.013897352 1.1477121 4487616
-0.091687657 -0.011313714 1.1520742 4356800
0.11440855 -0.011327557 1.1552418 5276623
0.12076852 -0.014448449 1.1516509 5604813
0.13017604 -0.01582022 1.1504314 6720449
-0.089497693 -0.0043598339 1.1534357 5671109
0.11261337 -0.0057301745 1.1566271 5802961
0.11904272 -0.0066094473 1.1526523 6787017
0.03680196 0.0112914 1.155757 12972031
-0.018236779 0.022093028 1.1527128 5869264
0.01405898 0.017925717 1.1553216 7515376
0.021545015 0.017436028 1.1554618 8764660
0.031142361 0.016838498 1.1556414 10146554
0.037757903 0.015699364 1.1557666 10870005
-0.075701214 0.031326286 1.1456257 8028800
-0.070572406 0.031609438 1.1457206 7305855
-0.013866316 0.023169369 1.1547925 5671370
-0.010550183 0.023115739 1.1548543 5869265
0.012662755 0.022740349 1.1552869 6988787
0.017084267 0.022668839 1.1553693 7185904
0.10344703 0.030119069 1.1569624 6314850
-0.069271639 0.036591463 1.1457357 8028802
0.10040928 0.033706941 1.1568993 6117979
0.076776601 0.044601865 1.1484382 5593178
0.078972131 0.044566356 1.1484792 5658970
-0.017910745 -0.21859044 1.1591606 2973083
-0.012382784 -0.21978951 1.1592656 2973595
-0.002962037 -0.21951047 1.1601071 2973598
-0.037696376 -0.20717381 1.1587715 2842012
-0.03134102 -0.20866367 1.1588925 2776219
-0.02207106 -0.21129207 1.1605939 2907806
-0.012531615 -0.21282332 1.1624085 2907807
-0.0019884324 -0.21353421 1.1627815 2973599
0.006976997 -0.21134362 1.1602771 3039136
0.017721176 -0.21052608 1.1611423 3170723
0.027711205 -0.21056926 1.1606615 3236770
0.037527237 -0.21026823 1.1601768 3170979
0.046574827 -0.21020113 1.160345 3170980
0.053256903 -0.20864469 1.1604664 3171236
-0.048644468 -0.1981194 1.1585513 2842012
-0.042001083 -0.20049053 1.1601341 2842011
-0.032444987 -0.20290276 1.1613234 2842012
-0.024211451 -0.20448324 1.1630182 2907805
0.022233527 -0.20662618 1.1638862 3302309
0.028283939 -0.20556889 1.1628538 3302308
0.036962222 -0.20559019 1.1616579 3171236
0.047746915 -0.20633623 1.1603597 3171236
0.058361121 -0.20513168 1.1622219 3105443
0.068224415 -0.20336911 1.1617354 3171492
0.07482098 -0.20159562 1.1608547 3040420
-0.069539279 -0.18668485 1.1581416 2841497
-0.060820095 -0.1895746 1.1588426 2907291
-0.052452147 -0.19235897 1.1603526 2907549
-0.045837779 -0.19364825 1.162596 2907551
0.071385629 -0.19628628 1.1647818 3040420
0.07846541 -0.19456193 1.1630152 3106213
0.086365581 -0.19209123 1.1610521 3106214
-0.070974529 -0.18017092 1.1601033 2907290
-0.064463928 -0.18315369 1.1617302 2973340
0.082659848 -0.18756078 1.1649755 3302823
0.088787004 -0.18527828 1.162685 3237030
0.094977118 -0.18197086 1.1629719 3237031
-0.08807195 -0.16641112 1.1577597 2841497
-0.07974346 -0.17002518 1.1584547 2842012
-0.073707379 -0.1723555 1.1610383 2907547
0.10030139 -0.1743727 1.1622022 3368361
0.10545411 -0.17120527 1.1613691 3237285
-0.089455016 -0.16047052 1.1577231 2973085
-0.082730718 -0.16079992 1.1605861 3039135
0.10274404 -0.1672776 1.1613114 3368615
0.10930716 -0.1640518 1.162155 3237799
0.11394375 -0.16080073 1.161508 3303337
-0.096639924 -0.1474082 1.1575655 2973857
-0.09129858 -0.1510227 1.1592274 3039137
-0.085426837 -0.15199494 1.1617832 3104930
0.1113935 -0.15658253 1.1634531 3172264
0.11768624 -0.15379539 1.1622316 3238059
-0.097716711 -0.13918582 1.1585306 3039650
-0.093850836 -0.14283954 1.1616096 3105700
0.12105428 -0.14410262 1.1637639 3369132
0.12530518 -0.14433944 1.1616892 3434410
-0.10034678 -0.13057788 1.1591803 3171236
0.12305755 -0.13601005 1.1648327 3500719
0.12648851 -0.13376294 1.1636922 3435183
-0.10726451 -0.11838502 1.1573147 3302823
-0.10269629 -0.12043469 1.1600705 3171495
0.12741719 -0.12367938 1.1635091 3566514
-0.10889798 -0.10971985 1.1587232 3368873
-0.10527123 -0.11095253 1.1605387 3368875
0.13029996 -0.11453314 1.1625277 3697588
-0.10967749 -0.10063788 1.1599045 3303850
0.13197377 -0.10495514 1.1651703 3763892
0.13527294 -0.10433067 1.1618015 3698099
-0.11083566 -0.090413712 1.1587973 3435181
-0.1050344 -0.090993315 1.1613067 3435438
0.13314646 -0.094845116 1.1657451 3829942
0.13605443 -0.094347604 1.1629407 3764149
-0.10965062 -0.080757551 1.1592017 3501229
0.13336286 -0.081486888 1.1657248 3896505
0.13775145 -0.084444165 1.1636297 3830455
-0.10888422 -0.070908204 1.1587363 3632563
-0.10465568 -0.067616418 1.161271 3567542
0.13116805 -0.074295759 1.1630988 4027837
0.13636619 -0.077938259 1.1617734 3896505
-0.10795867 -0.060863454 1.15853 3829940
-0.10454748 -0.060937293 1.1612607 3699127
0.12979959 -0.064656749 1.164294 4291009
-0.10736602 -0.050731294 1.1579891 3895737
-0.10373371 -0.049974747 1.1612558 4027576
0.13027069 -0.054625038 1.1636177 4422849
-0.10606037 -0.044056762 1.1572011 4158911
-0.10155121 -0.040426914 1.1592786 4093372
0.13038164 -0.044881813 1.1631018 4817355
-0.097642981 -0.031090379 1.1588726 4093630
-0.092876509 -0.027721711 1.1614171 4094397
0.12309168 -0.034013458 1.1636686 5080014
0.12759408 -0.037293527 1.1615359 4883149
-0.095372483 -0.023515806 1.1573623 4028348
-0.090854444 -0.021028794 1.158942 4028864
0.11876524 -0.024299115 1.1631259 4949202
-0.087143242 -0.011494175 1.1593119 4029123
-0.082929991 -0.0093246102 1.1615684 3963586
0.11282507 -0.014335431 1.1638861 5146069
0.11624418 -0.018800467 1.1612908 5080276
-0.086175494 -0.0036905184 1.1574972 5342665
-0.079094708 -0.0016493872 1.1616257 4882633
-0.015592969 0.0010923743 1.1628022 6070261
-0.0089150006 0.00098437816 1.1629267 6528744
-0.0022370322 0.00087638199 1.1630511 8827627
0.013344892 0.00062439591 1.1633414 10340848
0.022079544 -0.00015313178 1.1635053 8895736
0.029572973 -0.00097420067 1.1636463 6266608
0.10397404 -0.0013995022 1.1640311 5475287
0.10842877 -0.0049924925 1.1624537 5475028
-0.07548818 0.0042810738 1.1596817 5999306
-0.068811283 0.0052827671 1.1598041 5540557
-0.060178883 0.0084774941 1.1592921 5803727
-0.04748622 0.010021083 1.1621925 4950220
-0.038544275 0.0087517798 1.1623611 5016280
-0.028823804 0.0079827756 1.1621433 5411294
-0.01874458 0.0078034103 1.1604909 5806569
-0.0087888585 0.0076577142 1.1623167 7120874
0.00079817884 0.0082504824 1.163094 12379901
0.011428512 0.0075503588 1.1607664 13891069
0.021250237 0.0071518123 1.1602761 12969723
0.031190086 0.0072294995 1.1613452 9946095
0.041248061 0.0068358481 1.1619358 10013177
0.051016945 0.0085583329 1.1618736 7449069
0.057662003 0.010300167 1.1641482 5411552
0.10115488 0.0025333464 1.1624713 6526426
-0.045427416 0.014936581 1.1622218 6264275
-0.037775207 0.015612684 1.1598625 5803990
-0.028162312 0.016085096 1.1585402 5345755
-0.018137455 0.01718495 1.1587248 5412839
-0.0085492777 0.017623834 1.1594024 5676266
0.00042723026 0.016560815 1.1619289 7253489
0.010288771 0.016216971 1.1602556 8436213
0.020248193 0.013822652 1.159445 12051453
0.034739502 0.018026978 1.159707 10082302
0.04256577 0.017160647 1.1598542 10607102
0.051034715 0.016178228 1.1600136 7515119
0.058036741 0.015453234 1.1614786 6068200
-0.0062285019 0.023128174 1.1589354 6001365
-0.0017917575 0.023056425 1.1590182 6396124
0.11077319 0.027006336 1.1611052 6447199
-0.0090752495 -0.20905699 1.1673089 3039391
-0.0015526069 -0.20860413 1.1689483 3039135
0.0099104028 -0.20936403 1.1676627 3104930
-0.037931174 -0.19741747 1.1667508 2776478
-0.031607915 -0.19841251 1.1688706 2842271
-0.02177472 -0.20020789 1.171239 2907807
-0.012589634 -0.20221528 1.1719275 2908063
-0.0026077712 -0.2032249 1.1732196 2973600
0.0077352081 -0.20241027 1.1729438 3105187
0.017683817 -0.20222133 1.1722088 3236773
0.02742086 -0.20104024 1.1717073 3237029
0.038362999 -0.20130274 1.171978 3171237
0.04803966 -0.20241261 1.1698596 3171236
0.057593815 -0.20100817 1.1694578 3105444
0.066480868 -0.19966465 1.1686975 3171493
-0.050037973 -0.18834516 1.1697094 2841758
-0.041992486 -0.1907818 1.1706637 2907551
-0.033154834 -0.1920272 1.1736544 2842271
-0.022512719 -0.19338641 1.1750317 2908064
-0.01578442 -0.19462013 1.1751591 2973857
0.0055795573 -0.19496562 1.1755573 3105444
0.018464111 -0.19417405 1.1757954 3237030
0.028519973 -0.19475374 1.1751834 3302823
0.038194209 -0.19412884 1.1752392 3171495
0.047585413 -0.19287185 1.1749433 3105703
0.057292655 -0.19328783 1.1749159 3105703
0.067140669 -0.19295166 1.1731982 3105702
0.075565062 -0.19058739 1.1705644 3105958
-0.061160795 -0.18046838 1.1679349 2973598
-0.053276256 -0.18231046 1.1724386 2907551
-0.043454401 -0.18432972 1.1746254 2908065
0.068991542 -0.18456897 1.176718 3237288
0.077866755 -0.1840024 1.1744372 3302823
0.086617194 -0.18210533 1.1716118 3237287
-0.070403017 -0.16904694 1.1689523 3105183
-0.063057117 -0.17253552 1.1723565 2974112
-0.054829389 -0.17486526 1.1743965 2842786
0.07942269 -0.17726134 1.1768986 3171750
0.088133618 -0.17379358 1.1757208 3172008
0.096307017 -0.1721766 1.1715357 3303081
-0.078328423 -0.15923797 1.1665961 3104930
-0.072252549 -0.16164863 1.1727146 3170978
0.090732031 -0.16548806 1.1770875 3303337
0.098574668 -0.16409826 1.1749804 3368873
0.10559552 -0.16290995 1.1719037 3237543
-0.087989777 -0.14628877 1.1683929 3040164
-0.081350192 -0.15015189 1.1696465 3105701
-0.075121894 -0.15466373 1.173982 3302822
0.10025152 -0.15510002 1.1772456 3303597
0.10777343 -0.15280047 1.1730169 3238059
0.1149251 -0.14985988 1.171508 3303852
-0.090348892 -0.13991328 1.1694487 3106213
-0.08269719 -0.1420735 1.173818 3172007
0.10874276 -0.14373881 1.1771828 3369387
0.11675376 -0.14363472 1.1735309 3435181
-0.097289152 -0.12956557 1.1668557 3237030
-0.090809204 -0.13033763 1.1713119 3237800
-0.084532842 -0.13388823 1.1737689 3303594
0.11065551 -0.13771971 1.1774074 3500972
0.1191925 -0.13358364 1.1743081 3500976
0.12401038 -0.1307645 1.1696417 3500977
-0.098311402 -0.12028754 1.1685978 3237545
-0.093750499 -0.1220208 1.1726866 3303852
0.12107375 -0.12408932 1.1775762 3566772
0.12446431 -0.1244811 1.1736393 3566515
-0.10066833 -0.1105381 1.1686751 3369389
0.12208488 -0.11457074 1.1775776 3763639
0.12555371 -0.11369847 1.1727508 3763639
-0.10719144 -0.096596092 1.1666112 3435181
-0.10194044 -0.10036416 1.1699544 3435438
0.12290698 -0.10349566 1.1775726 3895737
0.12798858 -0.10346568 1.1724898 3764149
-0.1066062 -0.090126388 1.167677 3435438
-0.10132191 -0.090837188 1.1718389 3501231
0.12299807 -0.097872593 1.177564 3961530
0.12853634 -0.09398894 1.1724826 3961528
0.13582987 -0.090733297 1.1697882 3895735
-0.10618615 -0.080879346 1.168268 3501489
-0.10196944 -0.080720998 1.1712291 3501490
0.12328958 -0.079878785 1.1775365 4159679
0.12901127 -0.084655605 1.1729236 3962041
0.13586606 -0.088499308 1.1697849 3895735
-0.10651755 -0.073533133 1.1672482 3501747
-0.10170821 -0.070416264 1.1699991 3567541
0.12264321 -0.073493853 1.1775128 4225473
0.12640199 -0.074063048 1.173583 4159424
-0.099750325 -0.060296297 1.1689502 3764919
0.12253707 -0.064617865 1.1774946 4422597
0.12656541 -0.063975804 1.1735675 4357059
-0.09909635 -0.050533269 1.1687731 3896505
-0.09442883 -0.050485019 1.173432 3962298
0.1225842 -0.053994503 1.177476 4685767
0.12672883 -0.053888571 1.1735522 4422851
-0.097453713 -0.041435391 1.1669581 4027836
-0.092511259 -0.039742533 1.172357 4028094
0.12092075 -0.043375686 1.1753076 4948684
0.12687811 -0.045375898 1.1705389 4751818
-0.095596582 -0.033360913 1.1653776 4093632
-0.090079427 -0.029990926 1.1713213 4094399
0.11430374 -0.032862321 1.1772833 5080784
0.11868729 -0.034007855 1.1725661 5211343
-0.086667545 -0.02160462 1.1698866 4094402
-0.080140471 -0.018641867 1.1726394 4226244
-0.073642708 -0.017073937 1.1737576 4620744
-0.019652333 -0.016822144 1.1747617 5412064
0.0028360635 -0.017185815 1.1751807 6463211
0.010843269 -0.021153249 1.175337 6397929
0.02053828 -0.020669207 1.1755165 6397929
0.029801317 -0.01890751 1.1756855 6003432
0.11149736 -0.023540467 1.1747135 5081042
0.11675886 -0.026739486 1.1693163 5081041
-0.078558885 -0.010862254 1.1675203 4160963
-0.070567444 -0.010047048 1.1729447 4752075
-0.055488013 -0.0072433576 1.1740774 4949201
-0.048750609 -0.0079147741 1.174204 5016022
-0.039177828 -0.0091904178 1.1737176 5213659
-0.029354233 -0.01025442 1.1733381 5411552
-0.019531783 -0.011194676 1.1739534 5740773
-0.0094414642 -0.011362739 1.1749417 6003172
0.00068466645 -0.011524059 1.1747303 6331366
0.010828659 -0.011666551 1.1723187 6989552
0.020920172 -0.011833325 1.1729069 6792432
0.031015791 -0.011990048 1.1724448 5937640
0.039474279 -0.011208378 1.1748512 5806054
0.050189227 -0.01007726 1.1760488 5674725
0.056953967 -0.0090617463 1.1761727 5674983
0.10273308 -0.012333117 1.1770304 5146841
0.10882235 -0.014502659 1.1714324 5080789
-0.074987449 -0.0024101436 1.1657044 4554184
-0.071584009 -0.0016340539 1.1687667 4751049
-0.056387015 -0.0016073361 1.17205 4818129
-0.048931509 -0.0017268434 1.1713887 5015507
-0.039330371 -0.0018735901 1.168167 5147609
-0.029201187 -0.0020349249 1.1670556 5346018
-0.019618038 -0.0025682375 1.1698464 5937898
-0.0091881333 -0.0034831092 1.1702644 6462952
0.0012938417 -0.0029061511 1.1695693 8303605
0.010682369 -0.0031625628 1.1687284 8501495
0.020536229 -0.0043012872 1.1681005 7252467
0.031835113 -0.0039399117 1.1691494 6069484
0.040982436 -0.0029987544 1.1701792 6135528
0.051027924 -0.0035402551 1.1734636 5741031
0.060388375 -0.003493309 1.1752262 5543655
0.069867164 -0.0023480579 1.1764007 5477092
0.07995078 -0.0011843145 1.1765862 5739747
0.091315858 -0.0016180947 1.1767983 5280481
0.10055976 -0.0043988526 1.1732825 5015513
0.10605815 -0.006463632 1.1710805 4949463
-0.068178058 0.0041834712 1.1658189 4818122
-0.058731183 0.0050238296 1.1659932 5147606
-0.050032876 0.0056280121 1.1661539 4818639
-0.041374788 0.0037500113 1.1663184 5344472
0.0033063879 0.0035860837 1.16715 12971007
0.0077645532 0.0029553398 1.1672341 12905215
0.032334216 0.0025580004 1.1676919 5807584
0.045735855 0.0023412779 1.1679417 6004710
0.051814016 0.0032006577 1.1680533 5807083
0.060603779 0.0055380687 1.1703461 5477863
0.069051139 0.0049698576 1.1730381 5542628
0.080748968 0.0018025264 1.1765956 5673698
0.091374442 0.003587462 1.1752896 5804766
0.097108796 0.001510486 1.1688991 5147865
0.063785657 0.013222262 1.1682576 5412324
-0.0091824559 -0.19764113 1.1792881 3039650
-0.0027458845 -0.19839019 1.1794093 3039650
-0.029362597 -0.18941377 1.1788976 2842271
-0.02259323 -0.18952325 1.1790237 2973857
-0.012312231 -0.19077918 1.1804807 2973857
-0.002614907 -0.19268715 1.1819279 3039395
0.0080870772 -0.19092652 1.1813751 3171237
0.017426923 -0.18966024 1.1808354 3237030
0.027769722 -0.18927625 1.181499 3302569
0.036107861 -0.18955261 1.1814494 3237546
-0.048856251 -0.17861757 1.1785152 2908065
-0.041296676 -0.1797073 1.1786578 2973857
-0.032664362 -0.18160945 1.1798221 2973857
-0.02297239 -0.18366587 1.181124 2973858
-0.014730644 -0.18462551 1.1831617 3105444
0.016966375 -0.18513811 1.1837524 3237030
0.028688541 -0.18381763 1.1839681 3302825
0.037630688 -0.18350752 1.1838261 3171754
0.04750821 -0.18418825 1.1823186 3171752
0.057866622 -0.18393311 1.1819224 3171753
0.066360049 -0.18095291 1.1816632 3237546
0.074635476 -0.1786797 1.1808128 3303592
-0.059877872 -0.1689796 1.1782924 2908579
-0.051758908 -0.17127812 1.1804481 2908579
-0.041967858 -0.17290525 1.1815424 3105444
-0.033368371 -0.17481089 1.182797 3105443
0.061262533 -0.17679423 1.1845613 3303339
0.06935522 -0.17465338 1.1833743 3303082
0.077822641 -0.1726847 1.1814327 3237545
0.083807558 -0.16979828 1.1809672 3303850
-0.0687209 -0.15754941 1.178107 3302822
-0.062221989 -0.16195722 1.1804863 3040165
-0.055190474 -0.16585076 1.1823746 3040167
0.07272964 -0.16791946 1.1847583 3303598
0.078872763 -0.16402456 1.1839242 3238061
0.087504558 -0.16210437 1.1821332 3303596
0.095254362 -0.15982494 1.1811619 3369131
-0.078328237 -0.14685935 1.1779087 3171751
-0.071989655 -0.15059333 1.1794454 3368615
-0.065195382 -0.15436369 1.1821674 3171751
0.097147167 -0.15327717 1.1826854 3369134
-0.080188386 -0.13977477 1.1778611 3369130
-0.074158832 -0.14182803 1.1809775 3434922
0.098400518 -0.14362827 1.1842389 3435183
-0.081798702 -0.13114697 1.1791489 3434923
0.10126404 -0.13657841 1.1844317 3501232
0.10808471 -0.13355674 1.1839412 3435694
0.11489126 -0.13192455 1.1814762 3501232
-0.089832194 -0.11987227 1.1786454 3369646
-0.08420717 -0.1237153 1.180424 3435182
0.11193424 -0.12438489 1.185408 3567282
0.1160877 -0.12392069 1.1833023 3567027
-0.097996533 -0.10703616 1.1774698 3501231
-0.093527734 -0.11103544 1.1803107 3435439
0.11206264 -0.11645927 1.185396 3829686
0.11724427 -0.11373262 1.1837093 3829431
-0.097941689 -0.10365089 1.1774647 3501231
-0.093534872 -0.10047887 1.1792078 3567024
0.11969474 -0.10439014 1.1841823 3830201
-0.09771318 -0.089545615 1.1774431 3632818
-0.094533511 -0.090314545 1.179504 3698612
0.12199603 -0.093816213 1.1835389 3896507
-0.097557791 -0.079954028 1.1774285 3633333
-0.093769275 -0.080206841 1.1802999 3764919
0.12200627 -0.083607249 1.1830204 4093886
-0.09786649 -0.071145043 1.1774065 3633334
-0.093874224 -0.07027106 1.1806798 3830201
0.11914589 -0.073933765 1.1836718 4291523
-0.093255587 -0.059979886 1.1791389 3896506
0.11883779 -0.06344372 1.1830245 4619975
-0.089822531 -0.050483003 1.179233 4028348
0.11310815 -0.051922102 1.1852973 5146320
0.11751801 -0.054216184 1.1843833 4883148
-0.087926164 -0.041099399 1.1778222 3962814
-0.082972802 -0.039816346 1.1804839 3963072
0.1122872 -0.043082599 1.1837655 5146577
0.11606031 -0.044769268 1.1818385 5080527
-0.086399332 -0.032051101 1.1775483 4028607
-0.080233805 -0.03040053 1.1797937 4291526
-0.030330315 -0.029216953 1.1825869 5147865
-0.022855204 -0.029111333 1.1827259 5344731
-0.0065392079 -0.02846916 1.1830282 5345501
0.0002530124 -0.028579004 1.1831548 5739743
0.010418566 -0.030977473 1.1820148 5936862
0.019464716 -0.031131513 1.1825167 5871068
0.029667616 -0.030187212 1.183705 5739228
0.047798544 -0.029347897 1.1840408 5213656
0.11055708 -0.034171656 1.183617 4949970
-0.078296334 -0.022983097 1.1776825 4422856
-0.069823086 -0.01835423 1.1796502 4686797
-0.059441216 -0.017393485 1.1800234 4884690
-0.049099155 -0.018996954 1.1817189 4950486
-0.038643561 -0.019926488 1.1810818 5213659
-0.030060705 -0.021239839 1.1793768 5279707
-0.019928705 -0.022540562 1.1799678 5345244
-0.009738435 -0.021072976 1.1800659 5411808
0.00010378938 -0.022346407 1.1800492 5806052
0.0094035976 -0.025624134 1.179319 6068964
0.021431936 -0.026194893 1.1795439 6068963
0.031487349 -0.023975044 1.1806501 6003173
0.039953128 -0.022391893 1.1816818 5608417
0.050139211 -0.022564985 1.1824716 5411038
0.056964893 -0.022700965 1.1841992 5279709
0.10168923 -0.02166865 1.1841061 5212630
0.1073079 -0.025353387 1.1824735 5015248
-0.065998785 -0.012741327 1.1778926 4949712
-0.059229411 -0.012850799 1.1780187 4949713
-0.049075358 -0.013015009 1.1782079 5016279
-0.039679557 -0.013543196 1.1783837 5213659
-0.031041995 -0.014435351 1.1785461 5345501
0.041737858 -0.015047975 1.1799012 5871590
0.05020871 -0.01462061 1.180058 5871847
0.060461823 -0.012550421 1.1822454 5543139
0.067758173 -0.011538707 1.182665 5280225
0.092241451 -0.011946179 1.1848358 5411294
0.098125845 -0.013458923 1.1824021 5279196
0.070089802 -0.006476745 1.180413 5411556
0.079707175 -0.004939191 1.1805891 5412066
0.090989463 -0.0051216483 1.1807994 5477344
0.097722262 -0.0074879676 1.1809289 5213404
-0.0016484866 -0.18810728 1.1874123 3105189
-0.021894794 -0.17931159 1.1880196 3039906
-0.012239239 -0.18160188 1.1886321 3039908
-0.0027617449 -0.18291345 1.1907159 3105447
0.0079049766 -0.18231302 1.1883295 3105702
0.017020207 -0.18121237 1.187747 3171750
0.026010402 -0.18094453 1.1879137 3237289
0.037502222 -0.17927092 1.1881244 3237548
0.047724828 -0.17943624 1.1883149 3171752
0.05681159 -0.17958319 1.1884843 3171752
-0.049334176 -0.16741231 1.1864872 3039909
-0.041515294 -0.16826874 1.1875232 3105701
-0.033435032 -0.17104706 1.1893355 3105443
-0.023952983 -0.17659265 1.1909769 3040163
0.0068324264 -0.17617838 1.1915488 3105960
0.018247014 -0.17524816 1.1917595 3105958
0.027381513 -0.17388548 1.1911268 3237545
0.037814237 -0.17299473 1.1902244 3237547
0.04786884 -0.17284516 1.1899059 3237544
0.057932176 -0.1727805 1.1901772 3237545
0.066633314 -0.17093429 1.1893179 3303339
-0.060426287 -0.15780133 1.1862632 3172009
-0.052101992 -0.16109698 1.1888245 3105961
-0.042834435 -0.16346064 1.1906015 3171752
0.041191906 -0.16624469 1.1921699 3303337
0.048029829 -0.16635527 1.1922973 3303593
0.05813973 -0.1655415 1.1924839 3303594
0.067410149 -0.16307822 1.1914017 3303596
0.074305989 -0.16168469 1.188777 3238062
-0.067671247 -0.14916164 1.1861125 3434409
-0.062012441 -0.15101203 1.1890452 3237547
-0.053736039 -0.15351535 1.1903805 3237805
0.068466783 -0.15579101 1.1926582 3238318
0.07782945 -0.1530108 1.1917071 3238572
0.087985463 -0.15296312 1.1902157 3434926
0.094516367 -0.1524663 1.1891361 3369134
-0.06988807 -0.14009057 1.1872857 3435179
-0.064021982 -0.14219262 1.1897238 3369388
0.082551815 -0.14639089 1.192903 3500977
0.088247932 -0.14294502 1.1920025 3435186
0.093759827 -0.14306033 1.1891048 3500720
-0.078222901 -0.12921214 1.1868799 3566511
-0.072599761 -0.13217998 1.1886569 3566767
-0.065455377 -0.13487615 1.1901283 3500977
0.089825876 -0.13533568 1.1925181 3501234
0.097803354 -0.13302681 1.1899118 3501490
-0.08758273 -0.11588584 1.1856812 3566770
-0.080946907 -0.1205732 1.1884136 3632306
-0.074424885 -0.12560992 1.1899445 3632563
0.09971077 -0.12438944 1.1917701 3699127
0.10721264 -0.12322666 1.1897895 3633076
-0.088719018 -0.11027664 1.1866499 3566770
-0.082786016 -0.11126672 1.1897626 3763892
0.10072424 -0.1153307 1.1931843 3633335
0.10748054 -0.11324897 1.1908613 3764407
-0.088720985 -0.10019217 1.1884317 3698868
-0.084410362 -0.10087193 1.1897134 3699126
0.10148796 -0.10337149 1.1931766 3962811
0.10804608 -0.10356776 1.1921321 3830969
0.11581837 -0.1039158 1.1894436 3830714
-0.089698061 -0.090221845 1.1865181 3699126
-0.084501527 -0.09086249 1.1896933 3830712
0.10889536 -0.093638934 1.1926966 4028606
0.11711725 -0.0938721 1.1894493 3962300
-0.088976905 -0.080745623 1.1871912 3830970
-0.084116504 -0.0804988 1.1896815 3962813
0.10930258 -0.08458484 1.1932876 4291522
0.11725648 -0.08430627 1.1897981 4094399
-0.089117356 -0.07067281 1.1872845 3962044
-0.084289111 -0.071049072 1.189661 4093630
0.11106513 -0.073867701 1.1930341 4554438
0.11596711 -0.074698091 1.1893929 4357059
-0.088323951 -0.060641162 1.1868998 4093886
-0.083784118 -0.05998151 1.1896502 4291009
0.10941546 -0.063295953 1.1923617 4686026
0.11549946 -0.063489482 1.1893636 4685769
-0.086570501 -0.053403635 1.1855856 4159935
-0.081583284 -0.051011022 1.1885316 4225985
0.10230047 -0.053218137 1.1931 5015248
0.10841498 -0.054595649 1.1905491 5014991
-0.078395262 -0.041244116 1.1878334 4292037
-0.073095344 -0.043540794 1.189819 4619977
-0.050191484 -0.037070304 1.1902332 5279449
-0.042213906 -0.037199315 1.1903819 5016538
-0.029696185 -0.038541894 1.1906172 4950743
-0.020203877 -0.040372096 1.1907972 4950488
-0.011106475 -0.040362723 1.1909665 5147351
-0.00064426474 -0.039581791 1.1911597 5278422
0.0099006128 -0.042068534 1.1904714 5212886
0.019276423 -0.041558739 1.1897836 5278423
0.029250748 -0.04088179 1.1904681 5147094
0.040119253 -0.041462597 1.1919215 4885460
0.049641453 -0.040113438 1.1913688 4950741
0.058744598 -0.039744113 1.1922649 5016279
0.10099668 -0.043344401 1.1916573 5212370
0.10842014 -0.044625428 1.1891974 5212369
-0.076198891 -0.034311518 1.187744 4423370
-0.074067004 -0.031151153 1.1873778 4554187
-0.049638644 -0.032056406 1.1899676 5147610
-0.039739013 -0.031489745 1.1884172 5081818
-0.030672435 -0.033911422 1.1885903 5016538
-0.019503996 -0.032655016 1.1889291 5278938
-0.010390653 -0.032195851 1.1890979 5344730
8.1999227e-005 -0.033245414 1.1882278 5673948
0.010289178 -0.03565228 1.1873553 5805277
0.019375937 -0.035799228 1.1875246 5541848
0.029616944 -0.034828492 1.1877134 5475544
0.039876353 -0.03272175 1.1879003 5213397
0.05050486 -0.033515662 1.1888056 5082070
0.060174193 -0.032887638 1.1906787 5016536
0.069115587 -0.030855782 1.1924416 5213915
0.079876721 -0.03005255 1.1926403 5279453
0.090809993 -0.03068541 1.1928449 5213659
0.10022695 -0.033760332 1.1914254 5212628
0.10689121 -0.033805504 1.1891491 5146833
-0.073616102 -0.025204688 1.185775 4554443
-0.048370905 -0.023794807 1.1862421 5016281
-0.041116223 -0.024821199 1.186379 5147611
-0.010008796 -0.02623333 1.1869603 5411294
0.060865816 -0.022834159 1.1882727 5148123
0.069581956 -0.022979379 1.1886352 5213915
0.079582676 -0.023368567 1.1903614 5213917
0.090326294 -0.02347558 1.1911383 5213659
0.098338366 -0.025341138 1.1893079 5212887
0.09126544 -0.01650773 1.1888268 5279708
0.095808819 -0.016581208 1.1889114 5411037
-0.018426407 -0.17741734 1.196082 3106213
-0.012704336 -0.17750987 1.1961887 3105959
-0.0014342861 -0.17834637 1.1963998 3105706
0.0090395231 -0.17786151 1.1965939 3105960
-0.02918708 -0.17037386 1.195869 3105700
-0.021794014 -0.17174289 1.1967591 3105957
-0.01263395 -0.17189103 1.1969298 3106216
-0.0023441901 -0.17217711 1.1979719 3106217
0.0083059575 -0.17183417 1.197998 3171752
0.016215801 -0.17146839 1.1978068 3303337
0.027498487 -0.16900073 1.1969211 3369130
0.034364965 -0.16911177 1.197049 3369132
-0.041610356 -0.15895796 1.1959503 3171753
-0.032022014 -0.16152543 1.1985204 3171752
-0.021775555 -0.16197136 1.2007923 3172010
-0.012631419 -0.16339806 1.2019153 3172012
-0.0026043681 -0.1631439 1.202897 3237802
0.0080822036 -0.16261508 1.2025492 3303338
0.017279418 -0.1627917 1.2029207 3369133
0.027627282 -0.16272637 1.2013928 3369388
0.037777882 -0.16255522 1.2008907 3303853
0.047117949 -0.16153242 1.1990228 3369643
0.057264097 -0.16089216 1.1976954 3303851
-0.059143178 -0.14699121 1.1952688 3303598
-0.051113978 -0.14994818 1.1971382 3303341
-0.042644013 -0.15182546 1.2007284 3303340
-0.033378363 -0.15341546 1.2037613 3369132
-0.025239959 -0.15543303 1.2039164 3303600
0.0081689199 -0.1559733 1.2045389 3303598
0.020841256 -0.15617824 1.2047751 3435186
0.028329452 -0.15629934 1.2049147 3369391
0.038121708 -0.15645769 1.2050972 3369392
0.047990598 -0.15370151 1.2046602 3369390
0.057640679 -0.15278842 1.2012529 3435184
0.067121394 -0.15132295 1.1976259 3369392
-0.059996717 -0.13997145 1.1960402 3369646
-0.052994452 -0.14240566 1.2009758 3303853
-0.045827184 -0.14587985 1.2035159 3173034
0.050051618 -0.14558633 1.2052993 3566773
0.058268785 -0.1444096 1.2047832 3566516
0.068162613 -0.14268661 1.2020303 3500977
0.078116886 -0.14350075 1.1995007 3500975
-0.069953062 -0.12784359 1.1950326 3632562
-0.061182797 -0.13106076 1.1982023 3501236
-0.053758554 -0.13135886 1.2028972 3501494
0.070468552 -0.13364205 1.2056572 3698612
0.078071669 -0.13410404 1.2034354 3567283
0.087021172 -0.13180633 1.2008942 3567283
0.094542027 -0.12886819 1.198095 3501747
-0.076990224 -0.11807983 1.1948838 3895478
-0.071497232 -0.12070754 1.1974913 3698613
-0.062704049 -0.12180601 1.2018243 3633080
0.072015911 -0.12704004 1.2056739 3699128
0.078625329 -0.12395531 1.2057912 3830713
0.088132128 -0.12372147 1.2047675 3699126
0.095103636 -0.12246576 1.1980937 3633333
-0.078168333 -0.1100464 1.1948472 3961271
-0.071523741 -0.11061027 1.1999727 3896247
-0.064889044 -0.11330074 1.2031016 3764921
0.07863155 -0.11700476 1.2057786 3962300
0.08954113 -0.11466886 1.2055067 3896506
0.097214513 -0.1129 1.2001158 3764920
-0.079407535 -0.10070477 1.1963073 3830712
-0.072640046 -0.10038657 1.2016002 4093627
0.092672452 -0.10386247 1.2060158 4028352
0.098173685 -0.10334923 1.2007829 3962812
-0.079649679 -0.090382285 1.196784 3962556
-0.073336907 -0.091615342 1.2024603 4028606
0.09231434 -0.093450978 1.2059901 4357317
0.098795809 -0.093748674 1.2021105 4225985
0.10432779 -0.090099484 1.1982061 4225985
-0.079012215 -0.081382722 1.1967794 4028606
-0.07436309 -0.081645034 1.2028674 4094655
0.092971116 -0.085426815 1.2059876 4554695
0.09892571 -0.083369106 1.2014939 4554182
0.10522671 -0.081718005 1.1982074 4619462
-0.079493493 -0.070722349 1.1952212 4159424
-0.071622357 -0.069856837 1.2016659 4160448
-0.065313086 -0.068345204 1.2030114 4554440
0.093648449 -0.072068423 1.2059758 4620747
0.099244058 -0.073179156 1.2038316 4686026
0.10573182 -0.074093439 1.1982028 4619977
-0.078708306 -0.061070733 1.1947474 4291265
-0.070744947 -0.061203033 1.2001469 4357573
-0.065201081 -0.061431829 1.2030009 4751563
0.0089564333 -0.059941847 1.2043779 4818903
0.01664908 -0.059297901 1.2045197 4819160
0.091943339 -0.063512117 1.2059283 4752590
0.099390723 -0.063978419 1.2038174 4817869
0.1047172 -0.066062659 1.1981692 4752076
-0.076566033 -0.051518328 1.1947699 4291778
-0.070629984 -0.05090804 1.1984588 4554440
-0.065070421 -0.053366233 1.2029885 4883149
-0.0462966 -0.046600752 1.1993248 5674209
-0.040555488 -0.046693597 1.1994318 5082331
-0.029275723 -0.049712889 1.2015141 4950745
-0.019941296 -0.051603708 1.1992241 4884953
-0.010752414 -0.05174347 1.1991954 4753366
-0.00043097232 -0.050811656 1.2005858 4884692
0.010142576 -0.052606873 1.1999413 4884692
0.018899674 -0.05202505 1.2007582 4884692
0.029067807 -0.050995119 1.203402 4950484
0.040021412 -0.052125365 1.2018299 4950488
0.048784368 -0.052005578 1.2029864 4950489
0.059392281 -0.050727852 1.2042325 5411037
0.068356432 -0.050625723 1.2054659 5542623
0.082501471 -0.048837543 1.2057258 5213404
0.090231016 -0.051843878 1.2058752 5081558
0.098545641 -0.054222859 1.2036338 5015248
-0.071164899 -0.041137923 1.1948514 4685772
-0.048957236 -0.041031409 1.1963555 5542365
-0.039993502 -0.041356701 1.1965748 4951002
-0.031226493 -0.042527247 1.1955969 4884951
-0.021997485 -0.044549987 1.1957724 4753366
-0.0082459813 -0.043627467 1.1960266 4950484
0.00061858818 -0.044057045 1.1961923 5015763
0.030645542 -0.045401316 1.1967534 5015764
0.037512019 -0.04551236 1.1968813 4885461
0.04946252 -0.044724271 1.1971022 4884950
0.060231656 -0.043831851 1.1991475 5082072
0.069568798 -0.042839274 1.2022737 5542624
0.079082809 -0.04414745 1.2048535 5279197
0.089304015 -0.043068107 1.2022412 5213144
0.096652433 -0.04570549 1.197982 5212627
0.063981883 -0.03678114 1.1973578 5016538
0.069731764 -0.035156764 1.1974618 5213917
0.079308718 -0.032830998 1.1976357 5345245
0.08960624 -0.035306651 1.1984986 5213917
0.18061073 -0.038898844 1.207533 13158081
-0.01272216 -0.1584602 1.2081556 3303598
-7.933937e-006 -0.15866581 1.2083925 3303850
-0.040983498 -0.14736483 1.2076095 3303853
-0.031248383 -0.14911805 1.2081511 3304111
-0.021747489 -0.15138821 1.2100804 3303857
-0.012689303 -0.15185852 1.2108946 3303856
-0.0022690641 -0.15205808 1.2113389 3369903
0.008214036 -0.15070438 1.2085309 3435441
0.017263461 -0.15176363 1.2087013 3435187
0.027748756 -0.1512956 1.2088954 3500978
0.038265847 -0.15119037 1.2090909 3369649
0.044995926 -0.14968033 1.2092134 3435441
-0.049030319 -0.13975704 1.2074459 3370159
-0.042493049 -0.14063364 1.2075691 3370416
-0.032186598 -0.14105977 1.2100121 3436469
-0.021871373 -0.14154527 1.2129554 3502005
-0.01258658 -0.14169542 1.2131283 3501749
-0.0021976018 -0.14534673 1.2133284 3501493
0.0083191786 -0.1418854 1.2122674 3567542
0.017591257 -0.14214642 1.2133781 3567541
0.028025204 -0.14217588 1.2123846 3633333
0.038426839 -0.14204797 1.2100148 3567541
0.047050089 -0.14145908 1.2092366 3633079
0.057119705 -0.1394363 1.2094202 3632566
-0.049278259 -0.13127318 1.2074257 3501750
-0.042474449 -0.13165027 1.2100534 3567798
-0.034134749 -0.13232607 1.2127103 3633848
-0.020616751 -0.13576005 1.2129681 3633591
-0.013653153 -0.13587266 1.2130978 3699128
0.0084170392 -0.13506848 1.2135069 3830714
0.018862434 -0.1352374 1.2137016 3764921
0.028373633 -0.13444121 1.2138771 3830712
0.038948145 -0.13369803 1.2137153 3830713
0.047666736 -0.1335393 1.2135676 3830458
0.058033507 -0.13344374 1.2117951 3764409
0.066214249 -0.13204297 1.2101315 3764407
-0.058117755 -0.12026064 1.2072411 3698874
-0.05155728 -0.12104777 1.209615 3764923
-0.043063544 -0.12187361 1.212525 3765435
-0.036714692 -0.12621088 1.2126511 3699641
0.056906987 -0.12772492 1.2143956 3896252
0.067153975 -0.12342539 1.211959 3831226
0.074565053 -0.12286889 1.2097144 3830458
-0.060619205 -0.11077266 1.2079668 3896508
-0.051558018 -0.11087652 1.2123468 4028352
-0.043677229 -0.11170062 1.212495 4094143
0.068602785 -0.11354278 1.2110152 4159936
0.077971205 -0.11243982 1.2097588 4028352
0.086026445 -0.11120175 1.2099063 3962559
-0.068440586 -0.10089845 1.2070136 4093628
-0.061554834 -0.10107295 1.2078922 4028352
-0.051387668 -0.10156532 1.2120204 4094401
-0.044649772 -0.10007386 1.2124556 4225986
0.070175752 -0.10438892 1.213236 4357317
0.078476898 -0.10350581 1.2125648 4225732
0.087370239 -0.10318692 1.2099167 4159938
-0.069273449 -0.091138683 1.2069802 4028609
-0.061122201 -0.091340996 1.2084961 3963330
