# .PCD v0.7 - Point Cloud Data file format
VERSION 0.7
FIELDS x y z rgba
SIZE 4 4 4 4
TYPE F F F U
COUNT 1 1 1 1
WIDTH 1130
HEIGHT 1
VIEWPOINT 0 0 0 1 0 0 0
POINTS 1130
DATA ascii
-0.13160142 -0.14290264 1.0906887 2114980
-0.13718852 -0.13178724 1.0892336 1063065
-0.13267727 -0.13452491 1.0902295 2447769
-0.13681939 -0.12422302 1.0890576 2578847
-0.13434404 -0.12367384 1.0920626 2907546
0.16341993 -0.11850573 1.0924864 6851775
0.16901083 -0.11800133 1.0910124 13029078
-0.136269 -0.11410765 1.0895728 3104917
-0.13451022 -0.11112989 1.0917652 3170462
0.16188478 -0.10773647 1.0922215 3040417
0.17165898 -0.11096513 1.0908644 13422807
0.17453724 -0.10779858 1.0908095 13619661
-0.13852175 -0.10161738 1.0892624 3104162
0.16054316 -0.099558048 1.0913762 2973607
-0.13796806 -0.09328039 1.0893193 3169952
0.16081005 -0.089397877 1.0932816 2843043
-0.13988875 -0.083650239 1.0882365 3301299
-0.12656747 -0.16126242 1.1020062 4750553
-0.12290801 -0.16339144 1.1040822 1196192
-0.12865658 -0.15410243 1.0986218 3036848
-0.1247637 -0.15620039 1.1038997 1789334
0.15931541 -0.14841376 1.1031673 12898004
-0.12776048 -0.14316455 1.0997924 2776475
0.15970063 -0.13933723 1.1018553 9087435
0.16547187 -0.13470049 1.0983844 13488846
-0.13014837 -0.13246559 1.0993011 3038106
0.15941995 -0.12871635 1.1006023 4354994
0.16725519 -0.12670173 1.0982078 13752800
-0.13216069 -0.12275085 1.1005027 2973083
0.15925649 -0.11892704 1.1012781 2121388
-0.1371465 -0.10937552 1.0957068 3301280
-0.1337243 -0.1141944 1.0994816 3039132
0.1598928 -0.11090916 1.0989513 2646946
0.17604004 -0.10540378 1.1007663 13817039
-0.1372299 -0.1030807 1.0955577 3366820
-0.13471265 -0.10339506 1.1005839 3105183
0.15807821 -0.098603874 1.1021829 3631271
0.17706442 -0.10328569 1.1007233 13817037
-0.13737816 -0.091889903 1.0952923 3499424
-0.13469908 -0.092783056 1.0991331 3302563
0.15761316 -0.088378318 1.1011791 3369127
-0.13478629 -0.083291151 1.0986083 3434147
0.1593947 -0.078748681 1.1019322 2908578
0.16512716 -0.076089017 1.0999991 8233160
-0.1395492 -0.072266065 1.0956715 3365295
-0.13423315 -0.073335417 1.0987233 3499689
0.16006145 -0.069169633 1.1014485 4024485
0.16501567 -0.067673065 1.0997996 11192030
-0.1381478 -0.06331902 1.0976135 2181536
-0.13293082 -0.063078776 1.0988439 3433908
0.15920107 -0.063691266 1.1036669 2708114
-0.13666721 -0.054985005 1.1014282 8233201
-0.13281408 -0.05609268 1.0997659 3564980
0.0073852609 0.11870471 1.0943158 9935247
0.013085607 0.11968296 1.0943319 9934992
-0.11723097 -0.17202078 1.1130199 929696
-0.11305843 -0.1722635 1.1153626 1984411
0.14925587 -0.16448177 1.1169816 13424882
-0.11835428 -0.16252893 1.1104951 2512540
-0.11372937 -0.16428784 1.1138361 2906513
0.15051787 -0.15860075 1.1144062 8955594
0.15617912 -0.1572659 1.110857 14080986
-0.1256979 -0.14853227 1.1107143 2381461
-0.12252925 -0.15362433 1.1127944 2776212
0.15061873 -0.14902933 1.1129451 3697834
-0.12622897 -0.14259951 1.1114042 2841752
-0.12406294 -0.1468159 1.1146863 2906774
0.1523381 -0.13907987 1.1132021 2646183
-0.12826474 -0.13204284 1.1121651 2907034
-0.1242042 -0.13615315 1.1144335 2775704
0.15279192 -0.13031466 1.1140985 3696546
0.15479006 -0.1257658 1.1134381 3761571
-0.12939894 -0.12264149 1.1105222 2973083
0.15639241 -0.11966097 1.1126381 3368880
-0.1306245 -0.11246435 1.1097288 3039134
0.15653771 -0.10806214 1.1119711 3500454
-0.13093796 -0.10202774 1.1091802 3171232
0.15534757 -0.099616967 1.1127769 3631529
-0.13160656 -0.093285829 1.108269 3302564
0.15373343 -0.089348666 1.1082363 3697839
0.15413325 -0.089523599 1.1112441 3763633
-0.13184477 -0.082717225 1.1088181 3368355
0.1545521 -0.078271396 1.1106955 3436468
0.16881453 -0.074449673 1.1109891 10992842
-0.12964375 -0.072272182 1.1085865 3697068
0.15220833 -0.06526114 1.1146592 3765679
0.15547524 -0.067830965 1.1099228 3830452
0.168404 -0.070204549 1.1108861 11387079
-0.12863344 -0.064536452 1.1062101 3631022
-0.12649657 -0.06131075 1.1056485 3500456
0.15150048 -0.058423791 1.1116031 3830449
0.15823998 -0.058885477 1.1091801 5207985
0.16474633 -0.05971365 1.1132807 10334913
-0.12904458 -0.052471362 1.1079946 3434161
0.15052392 -0.049513329 1.111132 3893939
0.15762974 -0.049920853 1.1103886 8428221
-0.1294577 -0.04236412 1.1113255 6194370
-0.12494226 -0.040181376 1.1121624 4421311
0.1482134 -0.037672047 1.1128891 5734064
0.15455687 -0.041234247 1.114108 10203587
-0.12369736 -0.0334993 1.1120132 6852289
0.14666447 -0.031822257 1.1106306 8955077
0.01459548 0.096063234 1.1099044 9737616
-0.086253852 -0.20809093 1.1247288 7635861
-0.082881264 -0.20847513 1.1274284 8100012
-0.096661441 -0.19824943 1.1270922 10535920
-0.089582928 -0.20088652 1.1248496 5996227
-0.082928814 -0.20488599 1.1273434 6394567
-0.10676103 -0.18754125 1.1187676 8431615
-0.099748909 -0.18982515 1.1216398 1526185
-0.093562692 -0.19203794 1.1258237 1262491
0.13011253 -0.18623546 1.1283671 11717846
-0.11542957 -0.17910288 1.1185088 7571711
-0.10842687 -0.18124083 1.1201634 1917611
-0.10144196 -0.18357828 1.1240456 2379673
-0.094664305 -0.18637636 1.1268257 2644619
0.13161139 -0.17934346 1.1282146 5010097
0.13889769 -0.17635596 1.1250504 10599906
0.14599003 -0.17507097 1.1242114 14081762
-0.10862738 -0.1723516 1.1226079 2709143
0.13251385 -0.16873294 1.1279703 2909858
0.13918377 -0.16825902 1.1241857 4026283
0.14680868 -0.16843635 1.1205592 12307424
-0.11569868 -0.15878943 1.1180273 2775446
-0.11128033 -0.16287422 1.1210642 2775442
0.14031062 -0.15927851 1.1247997 3105445
0.14527857 -0.15849942 1.1198139 2578854
-0.11784127 -0.15156898 1.1199967 2775449
-0.1136241 -0.1538109 1.1245928 2906778
0.14250125 -0.14941718 1.1259824 3564451
0.14586893 -0.14848912 1.1219825 3433893
-0.12181684 -0.14291869 1.1209056 2840984
0.14387847 -0.14117856 1.1273978 3565217
0.14766875 -0.1391377 1.1220407 3499430
-0.12676099 -0.13113537 1.1172984 2841497
-0.1237956 -0.13273121 1.1233582 2907290
0.14978813 -0.12843335 1.1241366 3237547
-0.12707703 -0.12164694 1.1186726 2973083
-0.12436804 -0.12198856 1.1231006 3038877
0.15274414 -0.11868139 1.1251088 3827369
0.1554344 -0.11772915 1.1189212 3564710
-0.12827557 -0.11166597 1.1196862 3039391
-0.12563632 -0.11345425 1.1235573 3170977
0.15288059 -0.10859722 1.1246898 3565735
0.15532109 -0.10917611 1.1187184 3500198
-0.128525 -0.10342795 1.1216335 3170977
0.15303333 -0.09959396 1.1238115 3631790
0.15412094 -0.1011946 1.1265241 3434923
-0.12881288 -0.092903957 1.1203828 3302823
0.15254433 -0.088146053 1.1237044 3566513
-0.12890518 -0.082936898 1.118813 3368614
0.15151663 -0.078904122 1.1235176 3632560
-0.12851268 -0.075195216 1.1199667 3565995
0.15019238 -0.068785362 1.1219975 3895728
-0.12578775 -0.060074609 1.1212289 3697842
0.14773218 -0.058897279 1.12028 4158132
-0.12422732 -0.051780336 1.1198071 3502262
0.14645174 -0.048219468 1.1212194 4027837
-0.12170385 -0.042247504 1.1190133 3698611
0.1414178 -0.036748629 1.1249151 4619197
0.14730234 -0.039900191 1.1194899 4946612
-0.12802157 -0.035982829 1.115043 7180220
-0.12052359 -0.032714013 1.1222196 4815032
0.14125147 -0.030285992 1.1240946 5209534
0.14600305 -0.02864375 1.1167529 8425655
0.015746167 0.092123859 1.1130062 9474444
-0.059266627 -0.2178559 1.1348143 8300241
-0.077564403 -0.20999382 1.1308655 7642055
-0.070077978 -0.21050012 1.1330659 4815810
-0.063283958 -0.21382302 1.1346915 5210825
-0.086858071 -0.1982155 1.1301597 932767
-0.079854779 -0.20152509 1.1319708 2382238
-0.071212836 -0.2043936 1.1344143 2251168
0.11224877 -0.1986838 1.1355402 6518691
0.11808199 -0.19761354 1.1341262 11319227
-0.088687718 -0.19145548 1.1318548 2447513
-0.083262578 -0.19480267 1.1341051 2513045
0.1198146 -0.18936045 1.1343192 4617903
0.12687871 -0.18935187 1.1314193 10929103
-0.098287232 -0.18056896 1.1311196 2971544
-0.092329428 -0.1842407 1.1317928 2774929
0.12176854 -0.18008271 1.1334994 2909086
0.12667774 -0.17912379 1.1311765 3105187
-0.10598598 -0.16751778 1.1293036 2709911
-0.10131401 -0.17245817 1.1318059 2644371
0.12806201 -0.16927691 1.131569 3368356
-0.1084169 -0.16089348 1.1309491 2775444
-0.10339885 -0.16492897 1.1319276 2709910
0.13234404 -0.15933174 1.1323485 3368613
0.13652214 -0.1563489 1.1307064 3499683
-0.11174153 -0.15237704 1.1304069 2841497
0.13402784 -0.15179697 1.1345829 3237027
0.13873926 -0.14908801 1.1318839 3302821
-0.11781913 -0.14089191 1.1291652 2645144
-0.11432889 -0.14251092 1.1317677 2775964
0.14172137 -0.13909553 1.1325172 3237542
0.14576775 -0.1354824 1.131611 3106215
-0.119767 -0.13249968 1.1298369 2907291
0.1429649 -0.12951681 1.1327846 3499683
0.14605081 -0.12753126 1.1312346 3303338
-0.12089033 -0.12256834 1.1305405 3039134
0.14755115 -0.11901504 1.1313128 3499947
-0.12621045 -0.10840021 1.1277688 3236770
-0.12401742 -0.11258116 1.1312168 3236770
0.14914066 -0.10847859 1.1314815 3500458
-0.12629627 -0.10192259 1.1276152 3237027
-0.12459341 -0.10216681 1.1316338 3302821
0.15136424 -0.097890854 1.1317145 3632048
-0.12642498 -0.092206173 1.1273849 3302824
-0.12471542 -0.092957824 1.1314155 3302569
0.14951964 -0.089030683 1.1313887 3632047
-0.1269771 -0.083143309 1.1271671 3434408
-0.12425919 -0.080645084 1.131128 3434665
0.14598332 -0.078041881 1.1307411 4026292
-0.12668243 -0.072773337 1.1269243 3631531
-0.12499529 -0.071831331 1.1309148 3631531
0.14599399 -0.070097484 1.1291796 4157366
-0.12676825 -0.066295728 1.1267707 4025255
-0.12370168 -0.061078712 1.128955 3632304
0.14530428 -0.05832988 1.1284524 4289211
-0.12035653 -0.052057024 1.1281934 3568048
0.14200126 -0.047592144 1.1288429 4094399
0.14438134 -0.05191512 1.1302952 4224702
-0.11911611 -0.046037011 1.1263449 3764911
-0.11575031 -0.041618716 1.1287645 3895729
0.13932785 -0.039189562 1.1294143 4487616
-0.12059064 -0.027883425 1.1289071 6458567
-0.11560127 -0.031602815 1.1284291 3895996
0.13911863 -0.028182037 1.1280981 5735616
0.14594077 -0.024847738 1.1276662 9477559
-0.12019403 -0.02517207 1.1298461 6852289
-0.11694297 -0.025128499 1.1298674 5933254
0.048444122 0.078585498 1.124554 9474701
-0.022450406 -0.22752726 1.1472994 7248329
0.010420516 -0.22869697 1.1467526 5801654
0.018431442 -0.22747305 1.1462452 5210039
0.031224798 -0.22790286 1.1476771 6328255
0.038890611 -0.22780013 1.1477274 7379645
0.050448567 -0.22752354 1.1478002 8430007
0.058403201 -0.2257385 1.1438115 8625323
-0.060405508 -0.22010139 1.1388608 9678537
-0.049625851 -0.21980405 1.1454561 4422071
-0.040289924 -0.22032017 1.1470066 2778029
-0.030503705 -0.22200361 1.1471136 2513574
-0.022854123 -0.22461259 1.1472278 2315684
0.0070887264 -0.22494125 1.1474413 2120102
0.019135006 -0.22477981 1.1475203 2185635
0.032261897 -0.22350883 1.1475805 2186146
0.03775198 -0.22453028 1.1476424 2316696
0.053054605 -0.2221351 1.1476909 4486314
0.060622908 -0.22168621 1.1457317 5997746
0.071726158 -0.21855801 1.1465915 6063288
0.080368705 -0.21695089 1.1477562 6589614
0.088475451 -0.21706124 1.1478145 8757678
-0.066001438 -0.20821486 1.1385417 1855898
-0.05926948 -0.21055618 1.1418823 2249885
-0.051583812 -0.21266724 1.1460208 2381985
-0.043431666 -0.21466812 1.1468515 3039902
0.074271582 -0.21144798 1.1475844 2841504
0.080287471 -0.21081983 1.1476109 3302564
0.089832351 -0.20846836 1.1462872 4420011
0.099653736 -0.20760754 1.1419522 6984117
0.10907136 -0.20478091 1.1396637 6254993
-0.07729204 -0.19782925 1.1390191 2710418
-0.06954775 -0.200904 1.1427269 2775447
-0.062814593 -0.20297584 1.145642 2906776
0.092169322 -0.20052341 1.1470493 3171492
0.10068068 -0.19910222 1.1442734 3237285
0.10903002 -0.19787645 1.140072 3629215
-0.080298848 -0.19082713 1.1428343 2775191
-0.072134033 -0.19414881 1.1455029 2906012
0.10250573 -0.18983784 1.145601 3040421
0.10945018 -0.18814233 1.1422217 3105703
0.11538029 -0.18838516 1.1393199 2777257
-0.09578158 -0.17707908 1.1376019 2710677
-0.088988282 -0.18078847 1.1412666 2709909
-0.08274024 -0.18425401 1.1438627 2709910
0.11046638 -0.17966613 1.1456085 3368100
0.1180544 -0.17783384 1.1412232 3302561
-0.097117841 -0.17048019 1.1405488 2710421
-0.092323378 -0.17317063 1.1447355 2644886
0.11241138 -0.17184424 1.1469114 3040936
0.12042716 -0.16868788 1.1448044 3237031
0.12681323 -0.16577083 1.1418654 3368615
-0.10691582 -0.15765491 1.1370667 2776209
-0.10145757 -0.16194978 1.141957 2841240
0.12233303 -0.16012828 1.146703 3237287
0.12879503 -0.15793744 1.1415513 3302822
-0.10803559 -0.15091133 1.1414344 2710683
-0.10331587 -0.15407354 1.1443424 2841499
0.13092867 -0.1494326 1.1439204 3237541
0.13589075 -0.14674194 1.1400781 3237798
-0.11028174 -0.14237291 1.1418271 2907293
0.13247961 -0.14058593 1.1463113 3237797
0.13721377 -0.13809812 1.1412835 3303334
-0.11671676 -0.13085875 1.1375098 2907805
-0.11453797 -0.13232195 1.1436183 2907805
0.13891268 -0.12865335 1.1436285 3434407
-0.11734955 -0.12152557 1.1388094 3039392
-0.11475196 -0.12254658 1.1441864 3039391
0.14073037 -0.11906106 1.1432875 3500202
0.14487964 -0.11622062 1.1378188 3631274
-0.12063321 -0.11235944 1.1404376 3170979
0.14253166 -0.10872102 1.1451834 3631791
0.14595601 -0.10824326 1.1394161 3566510
-0.12118252 -0.10199075 1.1413703 3105957
0.1415706 -0.097650804 1.1436929 3632305
0.14686485 -0.098818637 1.1377549 3501227
-0.12168103 -0.092027664 1.1388453 3237546
0.14099903 -0.088609762 1.1425964 3698099
0.14565575 -0.089046694 1.1375827 3698094
-0.12118866 -0.082268983 1.1388564 3434923
0.14210874 -0.079309754 1.14293 3895479
0.14441873 -0.081429638 1.1369941 3895477
-0.12095244 -0.071795732 1.13923 3566256
0.14220877 -0.067976281 1.1439968 4027579
0.14471777 -0.067445874 1.1406672 4157882
-0.12007055 -0.062893555 1.1382693 3567024
0.1400464 -0.05848128 1.1432478 4159422
0.14440782 -0.058674391 1.1388575 4289724
-0.11787122 -0.053080939 1.135856 3567791
-0.11483032 -0.050980199 1.1411623 3764403
0.1382141 -0.048505452 1.1415091 4356797
-0.11316548 -0.042168427 1.1348685 3830196
0.13543117 -0.038983844 1.1403315 4619718
-0.11185302 -0.031195946 1.1369568 3896507
0.13117981 -0.027138658 1.1405116 4817095
0.13573679 -0.027731068 1.1373338 4948420
-0.11958961 -0.022101805 1.1377802 6916535
-0.11209202 -0.022538781 1.1375343 5210049
0.13023421 -0.020711198 1.1424651 5013440
0.13470516 -0.020289503 1.1401519 5998788
0.028967388 0.051895119 1.1359107 5859448
0.037176032 0.052038513 1.134106 6122362
0.042713098 0.052312352 1.1371385 6319482
0.053779986 0.053821899 1.1411803 5330522
0.029500846 0.056312554 1.1342858 5792108
0.037318218 0.057249732 1.1337839 5527648
0.042655282 0.056676455 1.1370351 5067354
-0.016727798 -0.22735199 1.1503353 4354997
-0.0093691573 -0.22823325 1.1524074 4684224
0.00053363014 -0.22784099 1.1509991 4289976
0.01148502 -0.22540542 1.1504833 2054307
0.021923034 -0.22581446 1.1505647 2777510
0.027427442 -0.22683859 1.1506267 4026798
0.043897033 -0.22661784 1.1507347 5604271
0.047718126 -0.2249198 1.1507208 4881326
-0.035844158 -0.2172567 1.1499656 3039902
-0.027886562 -0.21805587 1.1505394 2710943
-0.019412484 -0.21978453 1.1534436 2645152
-0.0095204543 -0.2224299 1.1569374 2514339
0.00042225607 -0.2222057 1.156467 2514851
0.010316789 -0.21960422 1.1549398 2842787
0.02021102 -0.21910012 1.1527952 2908579
0.029873071 -0.21856415 1.153338 3039651
0.040068179 -0.21910411 1.1545322 2908578
0.049407773 -0.21811312 1.1543229 2778020
0.059432913 -0.21637258 1.1520286 2646433
0.069053471 -0.21896142 1.1507268 5012145
0.080599144 -0.22008753 1.1508327 8955830
-0.048987873 -0.2090084 1.1499664 2841242
-0.03913229 -0.2109002 1.152127 2775960
-0.030120771 -0.21200863 1.1541491 2841500
-0.020710636 -0.2139658 1.1579944 2907551
0.010973219 -0.21280414 1.1581846 3105184
0.020181598 -0.21231222 1.1582364 3170722
0.030131921 -0.21217884 1.1583016 3302053
0.040259182 -0.21149036 1.1583549 3170723
0.050750099 -0.21042848 1.158402 3105188
0.060082708 -0.20955066 1.1567305 3170467
0.069712706 -0.20930408 1.152904 3236258
0.079825297 -0.20577328 1.150934 3171236
-0.065751195 -0.19789562 1.149303 2906776
-0.059199274 -0.20001662 1.1505413 2907033
-0.050762288 -0.200801 1.1543094 2841497
-0.041475251 -0.20466308 1.157632 2775704
0.060985971 -0.20402676 1.1583211 3105443
0.069830701 -0.20390822 1.1583791 3105443
0.080584072 -0.20007688 1.157099 3105956
0.088936262 -0.19717833 1.15355 3105956
-0.076876342 -0.18706587 1.1489708 2644884
-0.069780961 -0.1904674 1.1521008 2775705
-0.061390743 -0.19316377 1.1548896 2841497
0.084056959 -0.19266251 1.1582114 3172006
0.091689527 -0.19020213 1.1572055 3040421
0.097538255 -0.18783352 1.154689 2974628
-0.085776463 -0.17840207 1.1487051 2645144
-0.079131782 -0.1800085 1.1518484 2710425
-0.07380335 -0.18262222 1.1534599 2776216
0.10088947 -0.17914444 1.1547569 3171493
0.10586023 -0.17692225 1.1515876 3237026
-0.088938966 -0.17036709 1.1510826 2710424
-0.082567975 -0.17239694 1.1551328 2710937
0.10369403 -0.17250025 1.1578703 3302823
0.10999245 -0.16840613 1.1546581 3172005
0.11575209 -0.16520877 1.1537797 3172006
-0.097745083 -0.15916651 1.1481687 2841498
-0.093350947 -0.16151105 1.1531788 2907290
0.11239234 -0.16132864 1.1576662 3303592
0.11860447 -0.15789539 1.1562941 3237544
0.12474351 -0.1536227 1.1495668 3303337
-0.09963388 -0.15069523 1.1496705 2973342
-0.095045134 -0.1536067 1.1560583 3038879
0.12212851 -0.15007003 1.1568005 3237544
0.12648007 -0.14709032 1.1522253 3303336
-0.10780715 -0.13927072 1.14863 2973342
-0.10173124 -0.14224669 1.1532434 2973600
0.12976009 -0.13789402 1.153231 3368872
-0.10949878 -0.13139981 1.149786 3039392
-0.10409854 -0.13201281 1.1554863 3236259
0.13092387 -0.12839851 1.1547654 3500460
0.13535967 -0.12603328 1.1489882 3434923
-0.1107302 -0.12176245 1.150086 3170978
0.13184106 -0.11943704 1.155477 3500719
0.13652509 -0.11695325 1.1521163 3500718
-0.11742133 -0.11075733 1.1468904 3237029
-0.11363202 -0.11193457 1.1529461 3237286
0.13672657 -0.10802954 1.1546797 3697329
-0.11753766 -0.1019758 1.1466823 3237543
-0.11503619 -0.10132939 1.1541865 3172263
0.13782755 -0.09891703 1.1539667 3697843
-0.11798871 -0.092275456 1.1494511 3303340
-0.11596227 -0.091057636 1.1544378 3303852
0.13746074 -0.088468656 1.1541176 3764149
-0.11816058 -0.082588166 1.1462202 3500716
-0.11551633 -0.080996841 1.1542033 3501229
0.1402735 -0.078029998 1.1524614 3764661
-0.11790122 -0.07453353 1.1460319 3566512
-0.11480561 -0.070967212 1.1503339 3632306
0.13715762 -0.067867547 1.1520993 3896764
-0.11433135 -0.061341919 1.1501099 3698357
0.13102528 -0.057859097 1.1540176 4291265
0.13491213 -0.059106469 1.1485481 4225217
-0.11283726 -0.052324377 1.1495435 3764408
0.13168514 -0.048264712 1.1531286 4554434
0.1343272 -0.048097245 1.147141 4488640
-0.11002919 -0.041557491 1.1501088 3895997
-0.10597286 -0.038228098 1.153259 4027323
0.1311574 -0.037499681 1.1518706 4817354
-0.10858865 -0.032088161 1.1464274 3962044
-0.10466889 -0.030691586 1.1522899 4093118
0.12164714 -0.025227711 1.1545163 5014224
0.1271041 -0.02798108 1.1506176 4751563
-0.1076195 -0.021697223 1.144855 4290235
-0.10277112 -0.021396637 1.149416 4158908
-0.096644886 -0.018941015 1.1528678 4028609
0.11990242 -0.018256143 1.1525614 4817874
0.12661794 -0.018005013 1.1473778 5145287
-0.10046064 -0.014769495 1.1471413 4487616
-0.095145382 -0.011934489 1.1513789 4356800
0.11088502 -0.0058697537 1.1519847 5276623
0.11729133 -0.0088832825 1.1483845 5604813
0.1267201 -0.010007121 1.1470785 6720449
-0.093145058 -0.0048910603 1.1525601 5671109
0.1089424 -0.00029755384 1.1532688 5802961
0.11534757 -0.0010775328 1.1492348 6787017
0.032658055 0.014483169 1.1529672 12972031
-0.022706665 0.023605123 1.1503707 5869264
0.0097261956 0.020440325 1.152669 7515376
0.017224528 0.020172305 1.1527268 8764660
0.026836749 0.019858964 1.1528002 10146554
0.03348396 0.018916242 1.1528682 10870005
-0.080497354 0.030998833 1.1437972 8028800
-0.075378329 0.031433411 1.1438221 7305855
-0.018345568 0.024854578 1.1523718 5671370
-0.015028795 0.024899036 1.1523935 5869265
0.0081886202 0.025210232 1.1525457 6988787
0.012610986 0.025269493 1.1525747 7185904
0.098729968 0.035267808 1.1529305 6314850
-0.074224614 0.036450334 1.1437116 8028802
0.095587455 0.038763292 1.1528263 6117979
0.071546465 0.048773088 1.1444223 5593178
0.073742412 0.048802517 1.1444367 5658970
-0.015224213 -0.21676263 1.1620994 2973083
-0.0096625164 -0.2177974 1.1621621 2973595
-0.00024479628 -0.21722515 1.1628801 2973598
-0.035340358 -0.20593914 1.1617056 2842012
-0.028942939 -0.20724005 1.1617802 2776219
-0.019580271 -0.20955846 1.1634237 2907806
-0.0099791922 -0.21077009 1.1651528 2907807
0.00058400165 -0.21116483 1.1654102 2973599
0.009450987 -0.20877028 1.1627471 3039136
0.020175908 -0.20762077 1.1634605 3170723
0.030156529 -0.20738345 1.1628567 3236770
0.03995306 -0.20680729 1.1622435 3170979
0.048996113 -0.20647274 1.1622977 3170980
0.055630475 -0.20471984 1.162302 3171236
-0.046551909 -0.1972149 1.1614225 2842012
-0.039823465 -0.19935545 1.1629742 2842011
-0.030187197 -0.20146094 1.1640975 2842012
-0.021891341 -0.20276251 1.1657242 2907805
0.024603583 -0.20353073 1.1660619 3302309
0.030607691 -0.20232081 1.1649313 3302308
0.039268151 -0.2021158 1.1636285 3171236
0.050054088 -0.20257595 1.162213 3171236
0.060649458 -0.20102122 1.1639162 3105443
0.070450217 -0.19898319 1.1632687 3171492
0.076980926 -0.19703825 1.1622673 3040420
-0.067777447 -0.18640628 1.1610215 2841497
-0.058969378 -0.1890243 1.1616774 2907291
-0.050505929 -0.19152915 1.163144 2907549
-0.043830533 -0.19257466 1.1653328 2907551
0.073437348 -0.19174497 1.1661191 3040420
0.080442056 -0.18985483 1.1642274 3106213
0.088242441 -0.18719932 1.1621124 3106214
-0.069380499 -0.17989483 1.1628573 2907290
-0.062766254 -0.18264949 1.1644682 2973340
0.084451497 -0.18269238 1.1659811 3302823
0.090481453 -0.18028393 1.1635649 3237030
0.096574537 -0.17679191 1.1637022 3237031
-0.086901732 -0.166695 1.1604246 2841497
-0.078462929 -0.17004834 1.1610953 2842012
-0.072330885 -0.17214346 1.1636543 2907547
0.10166354 -0.16906083 1.1626997 3368361
0.10671068 -0.16576393 1.1617332 3237285
-0.088459298 -0.16079955 1.1602747 2973085
-0.081694961 -0.16086881 1.1630605 3039135
0.10388574 -0.16191921 1.161623 3368615
0.1103606 -0.15848541 1.1623139 3237799
0.1148916 -0.15511581 1.161538 3303337
-0.096026741 -0.14795901 1.1599195 2973857
-0.09056218 -0.15137827 1.1615938 3039137
-0.084634669 -0.15212163 1.1640973 3104930
0.11224144 -0.1509314 1.1634216 3172264
0.11843464 -0.14798996 1.162061 3238059
-0.097333521 -0.13975202 1.1607171 3039650
-0.093325816 -0.14322186 1.1638274 3105700
0.12153388 -0.13817134 1.1633381 3369132
0.12576519 -0.1383304 1.1612164 3434410
-0.10020785 -0.13121204 1.1612102 3171236
0.12331068 -0.13000198 1.1642038 3500719
0.12666035 -0.12768182 1.1629717 3435183
-0.10750277 -0.1192707 1.1591634 3302823
-0.10284409 -0.12112431 1.1619065 3171495
0.12728977 -0.11758207 1.1625557 3566514
-0.10937376 -0.11062755 1.1604013 3368873
-0.10569117 -0.11171316 1.1621983 3368875
0.12989046 -0.10837988 1.1613379 3697588
-0.11040615 -0.10154806 1.1613923 3303850
0.13131279 -0.098700553 1.1637484 3763892
0.13455224 -0.098055519 1.1603259 3698099
-0.11187755 -0.091389269 1.1600754 3435181
-0.1060326 -0.091743357 1.1625246 3435438
0.13219424 -0.088550329 1.1640863 3829942
0.13505307 -0.088030979 1.1612358 3764149
-0.11097242 -0.081696041 1.1602528 3501229
0.1320173 -0.075195253 1.1637698 3896505
0.136466 -0.078069374 1.1616858 3830455
-0.11050164 -0.071841381 1.1595618 3632563
-0.10634222 -0.068371974 1.1619706 3567542
0.12958111 -0.068131566 1.1610141 4027837
0.13486817 -0.071649656 1.1597046 3896505
-0.1098745 -0.06178103 1.1591233 3829940
-0.10643068 -0.061694428 1.1618124 3699127
0.12794383 -0.058512263 1.1620142 4291009
-0.10958658 -0.051650502 1.1583526 3895737
-0.10593988 -0.050715663 1.1615566 4027576
0.12811162 -0.04848868 1.1611118 4422849
-0.10848723 -0.044960003 1.157402 4158911
-0.10406265 -0.041154776 1.1593431 4093372
0.12792981 -0.038760304 1.1603807 4817355
-0.10043584 -0.031719677 1.1586837 4093630
-0.095740899 -0.028157532 1.161094 4094397
0.12033045 -0.028099142 1.1607993 5080014
0.12490197 -0.031293355 1.1586832 4883149
-0.098407112 -0.024117738 1.1569791 4028348
-0.093945898 -0.021465428 1.1584476 4028864
0.11571399 -0.018529579 1.160097 4949202
-0.0905127 -0.011820808 1.1585617 4029123
-0.086338818 -0.0094795004 1.1607176 3963586
0.10949264 -0.0087288022 1.160712 5146069
0.11301083 -0.013149098 1.1581731 5080276
-0.089796379 -0.0040347055 1.1565641 5342665
-0.082730576 -0.001696378 1.1605586 4882633
-0.019327533 0.0029209182 1.1608853 6070261
-0.012648277 0.0030104443 1.1609291 6528744
-0.0059690196 0.0030999705 1.160973 8827627
0.0096159112 0.003308855 1.1610751 10340848
0.018370982 0.0027901307 1.1611475 8895736
0.025886461 0.0021912009 1.1612133 6266608
0.10026721 0.0039436221 1.1606828 5475287
0.10480681 0.00044770539 1.1591294 5475028
-0.079323225 0.004291825 1.1584401 5999306
-0.072677702 0.0054902062 1.1584575 5540557
-0.06414967 0.0089230016 1.1577681 5803727
-0.051474623 0.010900289 1.160476 4950220
-0.042497844 0.0098962635 1.1605614 5016280
-0.032762196 0.009406276 1.1602398 5411294
-0.022702217 0.0094839633 1.1584666 5806569
-0.012725703 0.0096693411 1.1601712 7120874
-0.0031517632 0.010558531 1.1608162 12379901
0.0074664098 0.010116808 1.1583725 13891069
0.017289152 0.0099938884 1.1577691 12969723
0.027234316 0.010385141 1.1587126 9946095
0.037305776 0.010298148 1.1591867 10013177
0.047018353 0.012302853 1.1589652 7449069
0.053635612 0.014287993 1.1611184 5411552
0.097315393 0.0077568218 1.159072 6526426
-0.049561113 0.015873142 1.1603718 6264275
-0.041960429 0.016719192 1.1579033 5803990
-0.032381836 0.017441988 1.1564516 5345755
-0.022392195 0.018837444 1.1564873 5412839
-0.012813762 0.019570671 1.1570359 5676266
-0.0037807319 0.01882644 1.1594734 7253489
0.0060662623 0.018732943 1.1576856 8436213
0.016081573 0.016612478 1.1568042 12051453
0.030445002 0.021242253 1.1567936 10082302
0.038294561 0.020607919 1.1568625 10607102
0.046790026 0.019876599 1.1569382 7515119
0.053827129 0.019388914 1.1583318 6068200
-0.010661585 0.025128521 1.1564194 6001365
-0.0062239841 0.025187999 1.1564485 6396124
0.1061928 0.0324632 1.1570493 6447199
-0.0065776445 -0.20679617 1.1699259 3039391
0.00094720535 -0.20608774 1.1714613 3039135
0.012411672 -0.20654164 1.1700504 3104930
-0.035768073 -0.19601813 1.1694708 2776478
-0.029393747 -0.19678085 1.1715332 2842271
-0.019484777 -0.19823551 1.1738181 2907807
-0.010237141 -0.19995841 1.1744363 2908063
-0.00021537114 -0.20064753 1.1756262 2973600
0.010095199 -0.19953811 1.175204 3105187
0.020024596 -0.1990757 1.1743416 3236773
0.029716095 -0.19762276 1.1736932 3237029
0.040663648 -0.19756006 1.1738336 3171237
0.050343152 -0.19843438 1.1716201 3171236
0.059846461 -0.19676134 1.1710688 3105444
0.068680562 -0.19517663 1.1701688 3171493
-0.04810084 -0.18723881 1.1723797 2841758
-0.039976474 -0.18941796 1.1732873 2907551
-0.031071395 -0.19033813 1.1761945 2842271
-0.020378418 -0.19135547 1.1774689 2908064
-0.013615701 -0.19238937 1.1775398 2973857
0.0077523985 -0.19210297 1.1776799 3105444
0.020610001 -0.19093104 1.1777406 3237030
0.03067066 -0.19123086 1.1770166 3302823
0.040322311 -0.19032314 1.1769383 3171495
0.049668327 -0.18879983 1.1764982 3105703
0.05938261 -0.18893316 1.1763594 3105703
0.069195561 -0.1883485 1.1745124 3105702
0.07751514 -0.185799 1.1717229 3105958
-0.059470698 -0.17973121 1.170571 2973598
-0.051482894 -0.18124166 1.1750158 2907551
-0.041580804 -0.18292442 1.1771241 2908065
0.070840351 -0.1798389 1.1778239 3237288
0.079667576 -0.17906493 1.1754211 3302823
0.088324532 -0.17697711 1.1724463 3237287
-0.069032297 -0.16856416 1.171452 3105183
-0.061547376 -0.17176026 1.1748405 2974112
-0.05323121 -0.17380306 1.1768287 2842786
0.081053406 -0.1722281 1.1777143 3171750
0.08964406 -0.16853505 1.1763525 3172008
0.097716503 -0.1667743 1.1720316 3303081
-0.077270053 -0.15904543 1.1689795 3104930
-0.07105425 -0.16114077 1.1750735 3170978
0.092012942 -0.16012889 1.1775041 3303337
0.099785924 -0.15855843 1.1752696 3368873
0.10673206 -0.15723494 1.1720806 3237543
-0.087286346 -0.14634648 1.1706114 3040164
-0.08052168 -0.14998548 1.171867 3105701
-0.074112706 -0.15421593 1.1762228 3302822
0.1012239 -0.14946681 1.1773156 3303597
0.10862456 -0.14704394 1.1729442 3238059
0.11566837 -0.14393052 1.1712823 3303852
-0.089819394 -0.14002049 1.1715561 3106213
-0.082056522 -0.14185868 1.1758764 3172007
0.10937589 -0.13786715 1.1768976 3369387
0.11733679 -0.13761111 1.1731452 3435181
-0.097091138 -0.12993994 1.1688229 3237030
-0.090539239 -0.13042313 1.1732141 3237800
-0.084132634 -0.13373354 1.1756703 3303594
0.11111327 -0.13179132 1.1769662 3500972
0.11948777 -0.12747836 1.1736709 3500976
0.12416534 -0.12462484 1.1688843 3500977
-0.098365292 -0.1206591 1.1703733 3237545
-0.093707554 -0.12216697 1.1744422 3303852
0.12112727 -0.11786266 1.1767061 3566772
0.12448128 -0.11824321 1.1727369 3566515
-0.10100695 -0.11098322 1.1702657 3369389
0.12185787 -0.10832099 1.1764859 3763639
0.12524247 -0.10745592 1.1715983 3763639
-0.10796124 -0.097286828 1.1679772 3435181
-0.10256266 -0.10082465 1.171337 3435438
0.1223537 -0.097229525 1.1762273 3895737
0.127372 -0.097164884 1.1710823 3764149
-0.10755409 -0.090780638 1.1688935 3435438
-0.10220252 -0.09124402 1.1730039 3501231
0.12227922 -0.091607787 1.1760942 3961530
0.1276406 -0.08767873 1.1708602 3961528
0.13480294 -0.084272802 1.1680046 3895735
-0.10739933 -0.081514396 1.1692759 3501489
-0.10315452 -0.081167139 1.1721801 3501490
0.12204089 -0.073618226 1.1756678 4159679
0.12784591 -0.078327999 1.1710901 3962041
0.13477336 -0.082039349 1.1679516 3895735
-0.10795868 -0.074205562 1.1680992 3501747
-0.10321106 -0.07088919 1.1707209 3567541
0.12120673 -0.067256972 1.1755118 4225473
0.12493408 -0.067803919 1.1715491 4159424
-0.10156423 -0.060742389 1.1694257 3764919
0.12083931 -0.058390461 1.1752999 4422597
0.12480048 -0.057719067 1.1713101 4357059
-0.10119989 -0.050970834 1.169026 3896505
-0.096481249 -0.050682556 1.1736245 3962298
0.12057367 -0.047773302 1.1750474 4685767
0.12466688 -0.047634214 1.1710711 4422851
-0.099847101 -0.041871712 1.1669914 4027836
-0.094893336 -0.039915416 1.1722898 4028094
0.11857311 -0.037258539 1.1726671 4948684
0.12453017 -0.039190188 1.1678698 4751818
-0.098247059 -0.033783823 1.165211 4093632
-0.092761815 -0.030122608 1.1710101 4094399
0.11167341 -0.026901044 1.1744934 5080784
0.11603291 -0.028023325 1.1697484 5211343
-0.089615256 -0.021674529 1.1693492 4094402
-0.083146192 -0.018462047 1.171955 4226244
-0.076684646 -0.016680799 1.1729577 4620744
-0.022716977 -0.014832906 1.1732849 5412064
-0.0002242364 -0.014531419 1.1734324 6463211
0.0078975055 -0.018259279 1.1735762 6397929
0.017575521 -0.017488927 1.1736245 6397929
0.026784072 -0.015454628 1.1736398 6003432
0.10856394 -0.017724656 1.1717546 5081042
0.11385333 -0.020888612 1.1663641 5081041
-0.081854567 -0.010755852 1.1666471 4160963
-0.073827229 -0.0095871612 1.1719525 4752075
-0.058824517 -0.006320484 1.1728358 4949201
-0.052069247 -0.0067922249 1.1728934 5016022
-0.042469472 -0.0077988133 1.1723162 5213659
-0.032623984 -0.0085842013 1.1718382 5411552
-0.022771556 -0.0092237666 1.1723518 5740773
-0.012669723 -0.0090755075 1.173218 6003172
-0.0025464222 -0.0089462548 1.1728845 6331366
0.0075682653 -0.0088467672 1.1703508 6989552
0.017666545 -0.0087061301 1.170817 6792432
0.027756263 -0.0085787699 1.1702331 5937640
0.036215845 -0.0074973404 1.1725165 5806054
0.04690624 -0.0060279071 1.1735555 5674725
0.053639166 -0.0048131049 1.1735731 5674983
0.099501647 -0.0067286268 1.1739335 5146841
0.10558573 -0.0088441595 1.1683092 5080789
-0.078554966 -0.0022458434 1.1646016 4554184
-0.075139992 -0.0013027191 1.1676036 4751049
-0.059912756 -0.00075974315 1.1706964 4818129
-0.05246526 -0.00067658722 1.1699454 5015507
-0.042902574 -0.00061526895 1.1666086 5147609
-0.03278682 -0.00050602853 1.1653752 5346018
-0.023159921 -0.00069732219 1.1680577 5937898
-0.012703419 -0.0012982115 1.1683661 6462952
-0.0022518691 -0.00043160468 1.1675283 8303605
0.0071295826 -0.00043292344 1.1665766 8501495
0.017004598 -0.0012976378 1.1658515 7252467
0.028299531 -0.00058373064 1.1667516 6069484
0.037426699 0.00064643472 1.1676468 6135528
0.047521755 0.00047144294 1.1708173 5741031
0.056896888 0.00083056092 1.1724619 5543655
0.066351056 0.0022775754 1.173493 5477092
0.076397568 0.0037386194 1.1735276 5739747
0.087772191 0.0036411658 1.1736081 5280481
0.097051844 0.0010532811 1.1700394 5015513
0.10258228 -0.00089898705 1.1678152 4949463
-0.071941622 0.0045443699 1.1644866 4818122
-0.062522165 0.0056634322 1.164525 5147606
-0.053844102 0.0065243617 1.1645644 4818639
-0.045133177 0.0049036965 1.1646625 5344472
-0.00045982189 0.0060609281 1.1649421 12971007
0.0040156506 0.0055624396 1.1649847 12905215
0.028590057 0.0058918223 1.1651458 5807584
0.041994281 0.0060714856 1.1652336 6004710
0.048045415 0.0071099624 1.1652507 5807083
0.056789014 0.0097531974 1.1673824 5477863
0.065280557 0.0094917044 1.169981 5542628
0.077107586 0.006746918 1.1734614 5673698
0.087659828 0.0088112429 1.1719847 5804766
0.093377128 0.00676018 1.1655705 5147865
0.059718635 0.017478347 1.1650862 5412324
-0.0068795439 -0.19512373 1.1816518 3039650
-0.00042274408 -0.19568196 1.1817094 3039650
-0.027296189 -0.18749891 1.1813315 2842271
-0.020525515 -0.18740818 1.1813759 2973857
-0.010195572 -0.18833104 1.1827322 2973857
-0.00042994414 -0.18992274 1.1841004 3039395
0.01020836 -0.18786365 1.1833762 3171237
0.019499904 -0.18633801 1.1826926 3237030
0.029834028 -0.18563795 1.1832191 3302569
0.038175523 -0.18567216 1.183072 3237546
-0.047102176 -0.17728679 1.1809542 2908065
-0.039512653 -0.17815222 1.1810268 2973857
-0.030815005 -0.17977548 1.1821252 2973857
-0.021052074 -0.18151891 1.1833515 2973858
-0.01276223 -0.18219218 1.1853073 3105444
0.018940909 -0.18176724 1.185515 3237030
0.03062088 -0.18010114 1.1855561 3302825
0.039547741 -0.17953372 1.1852962 3171754
0.04942257 -0.17995968 1.1836812 3171752
0.059763607 -0.17941162 1.183151 3171753
0.068162039 -0.17619164 1.1827208 3237546
0.076356426 -0.17369771 1.181718 3303592
-0.058404431 -0.16798156 1.1806569 2908579
-0.050196528 -0.16999376 1.1827614 2908579
-0.040349633 -0.17130993 1.1837695 3105444
-0.031683628 -0.17293561 1.1849587 3105443
0.062978879 -0.17211968 1.1855899 3303339
0.070990533 -0.16977084 1.1842558 3303082
0.07937292 -0.16760001 1.1821663 3237545
0.085264429 -0.16455147 1.1815633 3303850
-0.067581452 -0.15682101 1.1803303 3302822
-0.060928106 -0.16098328 1.182725 3040165
-0.053763337 -0.16462708 1.1846107 3040167
0.07418146 -0.16291219 1.1854495 3303598
0.080197088 -0.15885946 1.1844537 3238061
0.088746972 -0.15672892 1.1825138 3303596
0.096414372 -0.15424681 1.1813965 3369131
-0.077500805 -0.14642264 1.1800166 3171751
-0.071037441 -0.14993502 1.1815561 3368615
-0.064103603 -0.15344402 1.1842756 3171751
0.098131545 -0.14761427 1.1827521 3369134
-0.07956899 -0.13939813 1.1798365 3369130
-0.073445357 -0.14120467 1.1829221 3434922
0.09911871 -0.13790067 1.1840776 3435183
-0.081417151 -0.13079433 1.1809545 3434923
0.10177567 -0.13076776 1.1840799 3501232
0.10849823 -0.12756026 1.1834384 3435694
0.11522431 -0.12578578 1.1808538 3501232
-0.089784235 -0.11977267 1.1803032 3369646
-0.084028021 -0.12340942 1.1820959 3435182
0.11209328 -0.11824964 1.1846555 3567282
0.11620619 -0.11771169 1.1824886 3567027
-0.098335929 -0.10720944 1.1789476 3501231
-0.093718268 -0.11101234 1.1818199 3435439
0.11198831 -0.11032589 1.1844677 3829686
0.11706726 -0.10748767 1.1826572 3829431
-0.098380767 -0.10382497 1.1788673 3501231
-0.094048947 -0.10048772 1.1804855 3567024
0.11924722 -0.098069504 1.1828945 3830201
-0.09856759 -0.089723028 1.1785331 3632818
-0.095342614 -0.090352751 1.1805707 3698612
0.12122871 -0.087449975 1.1819905 3896507
-0.09869463 -0.080133706 1.1783057 3633333
-0.094866753 -0.080211818 1.1811348 3764919
0.1209325 -0.077259175 1.1812477 4093886
-0.099262588 -0.071340144 1.1780943 3633334
-0.095259473 -0.070277311 1.1812977 3830201
0.11779664 -0.067661062 1.1817219 4291523
-0.094962038 -0.060009435 1.1795235 3896506
0.11717246 -0.057201512 1.1808482 4619975
-0.091809005 -0.050416782 1.1793662 4028348
0.11113353 -0.04580396 1.1829383 5146320
0.11559789 -0.047988344 1.1820203 4883148
-0.090206251 -0.041015711 1.1777263 3962814
-0.085261777 -0.039529718 1.1802974 3963072
0.1100349 -0.037028536 1.1812232 5146577
0.11383303 -0.038647093 1.179287 5080527
-0.088949606 -0.031935126 1.1772348 4028607
-0.082809292 -0.030055799 1.1793665 4291526
-0.032932781 -0.027355954 1.1815127 5147865
-0.025462899 -0.02702941 1.1815563 5344731
-0.0091704261 -0.025905296 1.1816418 5345501
-0.0023768954 -0.025814235 1.1816863 5739743
0.0078406874 -0.027940206 1.180473 5936862
0.016892737 -0.027819239 1.1808658 5871068
0.027076729 -0.026551619 1.1819061 5739228
0.045177814 -0.025176845 1.1819981 5213656
0.10804174 -0.028177358 1.1809005 4949970
-0.081115872 -0.022634029 1.1770689 4422856
-0.072759874 -0.017717361 1.178829 4686797
-0.062407099 -0.016446292 1.179052 4884690
-0.052003078 -0.01770936 1.1806538 4950486
-0.0415329 -0.018347688 1.1799072 5213659
-0.032935798 -0.01944802 1.178125 5279707
-0.022763658 -0.020439312 1.1786186 5345244
-0.012620525 -0.01867348 1.1785576 5411808
-0.0027459785 -0.019659512 1.1784467 5806052
0.006636986 -0.02268023 1.1776731 6068964
0.018678723 -0.022894949 1.177761 6068963
0.028676808 -0.020358786 1.1786931 6003173
0.037103917 -0.018506885 1.1795845 5608417
0.047299277 -0.018365309 1.1802514 5411038
0.054145876 -0.018263653 1.1818964 5279709
0.09881629 -0.015930362 1.1812251 5212630
0.1045213 -0.01948528 1.1796041 5015248
-0.069123328 -0.012035996 1.1769011 4949712
-0.062352657 -0.011945248 1.1769456 4949713
-0.052196637 -0.011809126 1.1770121 5016279
-0.042787943 -0.01205913 1.1770827 5213659
-0.034126557 -0.012695268 1.1771572 5345501
0.038650729 -0.011155643 1.177621 5871590
0.047106601 -0.010478131 1.1776631 5871847
0.057319418 -0.0080616251 1.1796768 5543139
0.06458728 -0.0068285391 1.1799835 5280225
0.089095816 -0.0064735711 1.1818583 5411294
0.0949931 -0.0078680813 1.1793855 5279196
0.066742308 -0.0017522797 1.177592 5411556
0.076311685 6.852299e-005 1.1776148 5412066
0.087596148 0.00021976978 1.1776888 5477344
0.094396703 -0.0019458011 1.1777867 5213404
0.00046585221 -0.18519534 1.1894703 3105189
-0.020021893 -0.17698222 1.190136 3039906
-0.010296596 -0.17897585 1.1906785 3039908
-0.00076073129 -0.17996374 1.1926727 3105447
0.0098548606 -0.17910603 1.1901413 3105702
0.01892627 -0.1777534 1.1894215 3171750
0.027906034 -0.17721996 1.1894706 3237289
0.039345331 -0.17520778 1.1895016 3237548
0.049569909 -0.17507073 1.1895688 3171752
0.058658417 -0.17494892 1.1896284 3171752
-0.047815606 -0.16592506 1.1886835 3039909
-0.039963249 -0.16652986 1.1896409 3105701
-0.031783968 -0.16903031 1.1914132 3105443
-0.022124205 -0.17425913 1.193058 3040163
0.008640293 -0.17293495 1.1932381 3105960
0.020024262 -0.1716679 1.1932865 3105958
0.029106636 -0.17005397 1.1925106 3237545
0.039497286 -0.16887987 1.1914592 3237547
0.049538683 -0.16844437 1.1910125 3237544
0.059598256 -0.16808036 1.1911573 3237545
0.068230599 -0.16600093 1.1901497 3303339
-0.059187524 -0.1566489 1.1883863 3172009
-0.050740294 -0.15964249 1.1909158 3105961
-0.041386925 -0.16169475 1.192629 3171752
0.042697594 -0.16199246 1.1932138 3303337
0.049536835 -0.1619008 1.1932586 3303593
0.059619915 -0.1607887 1.1933017 3303594
0.068800464 -0.158081 1.1920506 3303596
0.075620934 -0.15654597 1.1893103 3238062
-0.066684797 -0.1482296 1.1881361 3434409
-0.060939856 -0.14984833 1.1910381 3237547
-0.052578233 -0.1520789 1.192325 3237805
0.069656983 -0.15073986 1.1931335 3238318
0.078921951 -0.14770982 1.1920053 3238572
0.089053899 -0.1473994 1.190387 3434926
0.095554195 -0.14673664 1.1892158 3369134
-0.069153547 -0.13920309 1.1891371 3435179
-0.063199848 -0.14107829 1.1915478 3369388
0.083461277 -0.14093003 1.1929967 3500977
0.089042559 -0.13734053 1.19195 3435186
0.094520956 -0.13735977 1.1889873 3500720
-0.077808991 -0.12858401 1.188596 3566511
-0.072080441 -0.13134626 1.1903678 3566767
-0.064842999 -0.13379951 1.1918092 3500977
0.090401918 -0.12967882 1.1922786 3501234
0.098276779 -0.12719712 1.1895233 3501490
-0.087570295 -0.1155663 1.1872213 3566770
-0.080767728 -0.11999606 1.1899734 3632306
-0.074082769 -0.12480509 1.1915333 3632563
0.099951021 -0.11846849 1.1911675 3699127
0.10739159 -0.11713202 1.1890688 3633076
-0.08885961 -0.10997238 1.1880807 3566770
-0.082863808 -0.11071935 1.1911404 3763892
0.10071413 -0.10935475 1.1923697 3633335
0.10737845 -0.10712934 1.1899178 3764407
-0.089137271 -0.099854991 1.1896404 3698868
-0.084793717 -0.10038003 1.1908829 3699126
0.10112557 -0.097381517 1.1920898 3962811
0.10767385 -0.0974098 1.1909685 3830969
0.11542083 -0.09759105 1.1881919 3830714
-0.090429716 -0.089962587 1.1875205 3699126
-0.085179545 -0.090380445 1.1906443 3830712
0.10823728 -0.087450303 1.1913041 4028606
0.11642364 -0.087516122 1.1879609 3962300
-0.089979768 -0.080456711 1.1879762 3830970
-0.085099734 -0.080012783 1.1904 3962813
0.10838488 -0.078377254 1.191691 4291522
0.11628549 -0.077944897 1.1880977 4094399
-0.090415388 -0.070392698 1.1878499 3962044
-0.085550502 -0.070574909 1.190174 4093630
0.10982827 -0.067621619 1.1911802 4554438
0.11470933 -0.068389826 1.1874975 4357059
-0.089922033 -0.060353272 1.1872352 4093886
-0.085371479 -0.059500333 1.1899137 4291009
0.10786051 -0.057120096 1.1902964 4686026
0.11391183 -0.057203066 1.1872278 4685769
-0.088397861 -0.053098843 1.1857407 4159935
-0.083448835 -0.050496701 1.1885712 4225985
0.1004613 -0.047240004 1.1909014 5015248
0.10658322 -0.048495289 1.1883056 5014991
-0.080557972 -0.040659036 1.1876191 4292037
-0.075169757 -0.04275535 1.1895885 4619977
-0.052462876 -0.035612307 1.1895759 5279449
-0.044483762 -0.035505362 1.1896282 5016538
-0.031930059 -0.03647688 1.1897374 4950743
-0.022386555 -0.038025126 1.1898396 4950488
-0.013292005 -0.037746783 1.1898955 5147351
-0.0028557479 -0.036657084 1.1899415 5278422
0.0077488837 -0.038850121 1.189177 5212886
0.017096888 -0.038082711 1.1883618 5278423
0.027054349 -0.037100181 1.1889071 5147094
0.0379516 -0.037331324 1.1902379 4885460
0.047422819 -0.035717838 1.1895373 4950741
0.05652108 -0.035063393 1.1903119 5016279
0.098850697 -0.037443135 1.1892586 5212370
0.10627914 -0.038561802 1.1867353 5212369
-0.078567713 -0.033669084 1.18735 4423370
-0.076534174 -0.030456863 1.1868881 4554187
-0.052060954 -0.0305916 1.1891934 5147610
-0.042201221 -0.029771358 1.187508 5081818
-0.033065915 -0.031923242 1.1876215 5016538
-0.021936055 -0.030334547 1.1877939 5278938
-0.012838813 -0.02960626 1.1878392 5344730
-0.0023507923 -0.030369245 1.1868623 5673948
0.007911793 -0.032496426 1.1859161 5805277
0.017000306 -0.032374609 1.1859757 5541848
0.027209837 -0.031101778 1.1860157 5475544
0.037404314 -0.028693207 1.186029 5213397
0.048061498 -0.029156551 1.1868192 5082070
0.057729568 -0.028205283 1.1885579 5016536
0.066627458 -0.025874786 1.1901644 5213915
0.077361889 -0.024753973 1.1902117 5279453
0.088310704 -0.025063127 1.1902943 5213659
0.097796671 -0.027893148 1.1888258 5212628
0.10443211 -0.027794816 1.1864684 5146833
-0.076277323 -0.024537049 1.1851496 4554443
-0.051080778 -0.022381775 1.1852719 5016281
-0.043797929 -0.023192935 1.185341 5147611
-0.012657735 -0.023684338 1.1855667 5411294
0.05809674 -0.018192112 1.1859232 5148123
0.066817045 -0.018075056 1.1861805 5213915
0.076844521 -0.018133938 1.1877903 5213917
0.087595038 -0.017910346 1.1884358 5213659
0.095636413 -0.019581944 1.1865474 5212887
0.088301502 -0.01097142 1.1859603 5279708
0.092845768 -0.010910511 1.1859901 5411037
-0.016516013 -0.17480817 1.1981111 3106213
-0.010792838 -0.17473146 1.1981486 3105959
0.00049864966 -0.17523415 1.198238 3105706
0.010955218 -0.17443997 1.1982912 3105960
-0.027481001 -0.16808788 1.197877 3105700
-0.020040892 -0.16922063 1.1987051 3105957
-0.010879058 -0.16909783 1.1987652 3106216
-0.00057377387 -0.1690605 1.1996853 3106217
0.010061242 -0.16840675 1.1995716 3171752
0.0179541 -0.1678149 1.1992741 3303337
0.029148091 -0.16503978 1.1981943 3369130
0.036015894 -0.16494772 1.1982392 3369132
-0.040232923 -0.15704003 1.1978619 3171753
-0.030543599 -0.15926889 1.2003685 3171752
-0.020262402 -0.15936512 1.2025222 3172010
-0.011067661 -0.16049922 1.2035624 3172012
-0.0010415614 -0.15993103 1.2044135 3237802
0.0096199913 -0.1590988 1.2039216 3303338
0.018822156 -0.15899891 1.2041825 3369133
0.029144909 -0.15866607 1.2025251 3369388
0.039279457 -0.15821034 1.2018932 3303853
0.048562743 -0.15695766 1.1998874 3369643
0.058669329 -0.15605171 1.1984203 3303851
-0.058117017 -0.14560765 1.1971357 3303598
-0.049982846 -0.14828685 1.1989696 3303341
-0.041419614 -0.1498358 1.2024947 3303340
-0.032076117 -0.15108694 1.2054465 3369132
-0.023880623 -0.15286244 1.2055447 3303600
0.0095347054 -0.15241456 1.2057637 3303598
0.022209488 -0.15224469 1.2058468 3435186
0.029699128 -0.1521443 1.2058959 3369391
0.039493278 -0.15201303 1.2059602 3369392
0.04927098 -0.14898078 1.2053401 3369390
0.058849219 -0.14786303 1.2017939 3435184
0.068239339 -0.14620315 1.1980181 3369392
-0.059167556 -0.13860029 1.1977633 3369646
-0.052039057 -0.14071856 1.2026638 3303853
-0.044743266 -0.14392477 1.2051903 3173034
0.051099747 -0.14079671 1.2057751 3566773
0.059272096 -0.13939275 1.2051313 3566516
0.069077834 -0.13744396 1.2022184 3500977
0.079021268 -0.13802384 1.1995838 3500975
-0.069487557 -0.12679332 1.1966133 3632562
-0.060589723 -0.12968193 1.1997436 3501236
-0.053105131 -0.12965861 1.2043514 3501494
0.071159258 -0.12825733 1.2056168 3698612
0.078745984 -0.12854697 1.2033116 3567283
0.087593459 -0.12604664 1.2006094 3567283
0.094991133 -0.12295371 1.1976529 3501747
-0.076810174 -0.11724461 1.1963376 3895478
-0.071211919 -0.11965223 1.1989336 3698613
-0.062339805 -0.12039691 1.2031801 3633080
0.072511822 -0.12161429 1.2054694 3699128
0.079028547 -0.11833635 1.2054367 3830713
0.088511631 -0.11784838 1.20429 3699126
0.095364094 -0.11653927 1.197504 3633333
-0.078224458 -0.10925176 1.1961391 3961271
-0.071506247 -0.10950714 1.2011929 3896247
-0.064758867 -0.11193255 1.2042973 3764921
0.078830138 -0.11139058 1.2052714 3962300
0.089662306 -0.10874431 1.2048125 3896506
0.097216308 -0.10687329 1.1992892 3764920
-0.079720661 -0.099919952 1.1974089 3830712
-0.072903581 -0.099286556 1.2026091 4093627
0.092480145 -0.097842559 1.2050452 4028352
0.097901888 -0.097286105 1.1997344 3962812
-0.080260739 -0.089600854 1.1976618 3962556
-0.073848009 -0.090522356 1.2032849 4028606
0.091815613 -0.087449096 1.2047952 4357317
0.098256893 -0.087644249 1.200843 4225985
0.10363276 -0.083923407 1.1967908 4225985
-0.079888411 -0.080588877 1.1974515 4028606
-0.075162195 -0.080579594 1.2034856 4094655
0.092235975 -0.079411261 1.2046084 4554695
0.098074108 -0.077281661 1.1999968 4554182
0.10428467 -0.07552135 1.1965969 4619462
-0.080701418 -0.069984511 1.1956657 4159424
-0.072783791 -0.068746269 1.2019914 4160448
-0.066506304 -0.067021705 1.2032249 4554440
0.092519835 -0.066042386 1.2042947 4620747
0.098120056 -0.06703712 1.202106 4686026
0.10456517 -0.067887306 1.1964186 4619977
-0.080206141 -0.060327087 1.1949703 4291265
-0.072179288 -0.060106631 1.2002718 4357573
-0.066597871 -0.060109966 1.2030611 4751563
0.0074947863 -0.0564285 1.2034833 4818903
0.015166297 -0.055557571 1.2035155 4819160
0.090563305 -0.057542615 1.2040806 4752590
0.097995818 -0.057838637 1.201888 4817869
0.10331439 -0.059892271 1.1962212 4752076
-0.078345709 -0.05071817 1.1947562 4291778
-0.072387137 -0.049852911 1.1983567 4554440
-0.066704698 -0.052046269 1.20287 4883149
-0.048182491 -0.044819858 1.1988255 5674209
-0.042440273 -0.044742893 1.1988631 5082331
-0.03105282 -0.047384858 1.200871 4950745
-0.021694429 -0.049053412 1.1985073 4884953
-0.01250639 -0.048925858 1.1983674 4753366
-0.002201166 -0.04766275 1.1996087 4884692
0.0084122913 -0.049162921 1.1988723 4884692
0.017157497 -0.048307978 1.1995674 4884692
0.027321361 -0.046923321 1.2020615 4950484
0.038284201 -0.047768597 1.2003784 4950488
0.047052849 -0.047367629 1.201423 4950489
0.057632521 -0.045753714 1.2025089 5411037
0.066603705 -0.045362808 1.2036283 5542623
0.08069209 -0.043157697 1.2036731 5213404
0.08850795 -0.045933351 1.2037923 5081558
