# .PCD v0.7 - Point Cloud Data file format
VERSION 0.7
FIELDS x y z rgba
SIZE 4 4 4 4
TYPE F F F U
COUNT 1 1 1 1
WIDTH 1131
HEIGHT 1
VIEWPOINT 0 0 0 1 0 0 0
POINTS 1131
DATA ascii
-0.045247316 0.032268524 1.016366 5466498
-0.035151392 0.035707951 1.0144757 5466240
-0.024699414 0.03713882 1.0148937 5334655
-0.01440995 0.038146272 1.0126718 5138044
-0.0054302979 0.039581344 1.0126392 5072252
0.0041627511 0.040209725 1.0112798 5072247
0.013782335 0.040481508 1.0102375 5137530
0.024262559 0.040703163 1.0131685 5137788
0.033339262 0.038174734 1.0100031 5268347
0.1055695 0.00059360266 1.0115755 7374502
-0.10950339 -0.011635721 1.0306203 9214113
-0.10119421 -0.0070138946 1.0281277 6978442
0.10152879 0.0022036359 1.0118306 7112109
0.10566732 0.0067805722 1.0121189 8686741
-0.099788353 -0.0010923222 1.0285677 7636109
-0.094880074 0.0034357086 1.0272686 7437970
0.10499009 0.014885336 1.0114235 9277068
0.069528639 0.028177999 1.014676 5992060
0.076406583 0.02671472 1.0168142 6451580
0.083268374 0.026127316 1.0150993 6516347
-0.071796551 0.021311998 1.0244458 6254982
-0.068206564 0.026082106 1.0301507 6648965
-0.05271779 0.026168771 1.0220717 5270660
0.050151631 0.037036598 1.017889 5662844
0.056108654 0.036177322 1.0175928 5794679
0.064824358 0.034117803 1.0159209 5926261
0.073463745 0.031245857 1.0183752 6253428
-0.062867917 0.031237632 1.024453 7043204
-0.053857729 0.032685712 1.0242343 6188928
-0.043740258 0.036662966 1.0244238 5991293
-0.034208536 0.039638147 1.0238314 5794427
-0.02453238 0.040427521 1.0223563 5597052
-0.016425105 0.040672541 1.0205948 5399930
-0.0072361864 0.041792333 1.0187477 5203324
0.0034163743 0.042703375 1.018006 5269365
0.016102832 0.043836072 1.0181245 5334394
0.025447875 0.04364419 1.019492 5466234
0.032173634 0.042403892 1.0198834 5597049
0.049900331 0.039957166 1.017867 5991033
0.054655559 0.040317461 1.0198278 6055795
-0.032438971 0.041741282 1.0234815 6056827
-0.023338946 0.043677658 1.026341 5859449
-0.015101397 0.044522971 1.0246629 5728377
-0.0058309026 0.0447779 1.0256286 5532027
0.0048033129 0.045124784 1.0248957 5532021
-0.10645601 -0.0096609816 1.0362564 7306630
-0.10458459 -0.0085135624 1.0361129 7438985
-0.088296451 0.010794908 1.0407532 7044228
-0.084598728 0.011039801 1.0374894 6255491
0.078826174 0.029388435 1.0230449 6187632
0.084162354 0.030338489 1.0226668 6119529
-0.071570553 0.024523579 1.0334091 6780808
0.046159469 0.036962047 1.0251803 5465215
0.070482574 0.033942044 1.0285674 6056820
0.076498948 0.03374292 1.026454 5988198
-0.059957713 0.033810675 1.0324893 7108737
-0.053651169 0.037270904 1.0353191 7108222
-0.045626871 0.038985819 1.0314386 6582396
0.037172444 0.043376416 1.0279652 5859705
0.042568974 0.04196769 1.0263615 5728122
-0.041248485 0.04278028 1.0335939 6713719
-0.034853466 0.04425849 1.0345396 6450807
-0.026821112 0.045156091 1.0323235 6122104
-0.015142603 0.047143698 1.0314971 6122617
-0.00290378 0.048709542 1.0310557 6057083
0.0034638736 0.049105063 1.0315499 6057334
-0.09296298 0.0091866255 1.0441016 7832202
0.070127852 0.037363097 1.0325556 5792617
0.073087052 0.037616178 1.0323496 5724767
-0.052390501 0.040828452 1.0408989 7764863
-0.033002794 0.046470493 1.0394956 6384242
-0.02412519 0.047229737 1.0388775 6121843
0.16067459 -0.064745799 1.0467708 13950701
0.16368775 -0.064488098 1.0465611 13160147
0.16242348 -0.061553817 1.0466083 13423577
0.16305621 -0.074205376 1.0537516 12898285
0.16707137 -0.074847385 1.052984 12832198
0.16097958 -0.068416476 1.0519545 10136266
0.16775335 -0.068316512 1.0515968 13159885
0.16088201 -0.062108837 1.0532371 12175571
0.16586353 -0.060641319 1.0493677 13093836
-0.13760479 -0.12022731 1.0867863 1720740
-0.1389769 -0.11342531 1.0865767 3628972
-0.1404351 -0.10735627 1.0880104 4745397
0.16316499 -0.075917549 1.062789 6256041
0.16792753 -0.078201115 1.062694 12767188
0.16078293 -0.066989481 1.0648372 7312841
-0.13270001 -0.14401625 1.0979967 2903988
-0.12960164 -0.14375126 1.0977809 1324707
-0.13523534 -0.13216324 1.0972595 2904505
-0.13477266 -0.12334202 1.0957562 2644141
0.16588111 -0.095538437 1.0769002 5801403
0.17031737 -0.095506631 1.076596 11779799
-0.13554376 -0.11228679 1.0937561 3039906
0.16419481 -0.08655978 1.0758928 3630254
0.17040867 -0.086855948 1.0748817 11516624
0.17756194 -0.086196952 1.0759751 13685195
-0.13863644 -0.10353419 1.0962199 2708908
0.16319208 -0.078152724 1.0749717 3762605
0.16816624 -0.081539519 1.0735487 10465738
0.16248392 -0.071407795 1.0707946 6721740
-0.13768828 -0.086045422 1.0975608 1588628
-0.13458991 -0.085780442 1.0973451 3826867
-0.12445815 -0.15868655 1.1036437 3694011
-0.13009986 -0.15263 1.1019439 7178192
-0.12483573 -0.15191853 1.1027305 2114980
-0.13129061 -0.14121887 1.1018723 1063065
-0.12653381 -0.14363547 1.1024812 2447769
-0.13147232 -0.13364629 1.1017833 2578847
-0.12881847 -0.13295011 1.1045995 2907546
0.16698334 -0.10644591 1.0824844 6851775
0.17239472 -0.10552762 1.0805979 13029078
-0.13160115 -0.12352296 1.1024081 3104917
-0.12989424 -0.12044809 1.1045054 3170462
0.16467418 -0.095812395 1.0824999 3040417
0.17451909 -0.098318517 1.0803556 13422807
0.17715329 -0.094953328 1.0801302 13619661
-0.13474926 -0.11122398 1.1024587 3104162
0.1626962 -0.087743454 1.0818827 2973607
-0.13478421 -0.1028697 1.1025996 3169952
0.16238908 -0.077609211 1.0839159 2843043
-0.13745905 -0.093392052 1.1018115 3301299
-0.11766048 -0.16997865 1.113354 4750553
-0.11371087 -0.17185974 1.1151136 1196192
-0.12050489 -0.16295451 1.1102467 3036848
-0.1160793 -0.16481885 1.1151813 1789334
0.16583838 -0.13667318 1.0929925 12898004
-0.12029774 -0.15199235 1.1115111 2776475
0.16547839 -0.12758012 1.0917926 9087435
0.17062326 -0.1225081 1.0879639 13488846
-0.12346742 -0.14148793 1.1113646 3038106
0.1643514 -0.11699512 1.0907253 4354994
0.17181721 -0.11440071 1.0877734 13752800
-0.12606385 -0.13195461 1.1128625 2973083
0.16354802 -0.10724972 1.0915595 2121388
-0.13233739 -0.1189255 1.108662 3301280
-0.12830287 -0.12352285 1.1120926 3039132
0.1634347 -0.099184722 1.0893129 2646946
0.17924348 -0.092553347 1.0899792 13817039
-0.13287725 -0.11265172 1.1086148 3366820
-0.12996529 -0.11283335 1.1134301 3105183
0.16100757 -0.08707308 1.0928586 3631271
0.18010908 -0.090366937 1.0898906 13817037
-0.13383697 -0.10149833 1.108531 3499424
-0.13081424 -0.10223416 1.1121432 3302563
0.15974435 -0.076897971 1.0920479 3369127
-0.13161297 -0.092768319 1.1117702 3434147
0.16089259 -0.067173108 1.0928092 2908578
0.16625695 -0.064090624 1.0904868 8233160
-0.13735564 -0.082085297 1.1093708 3365295
-0.13175851 -0.082800128 1.1119934 3499689
0.16084068 -0.057566676 1.0924212 4024485
0.1655352 -0.055702798 1.0904236 11192030
-0.13644582 -0.073079996 1.1113358 2181536
-0.13117984 -0.072478145 1.1121701 3433908
0.15976781 -0.052185833 1.0947812 2708114
-0.13526995 -0.064698547 1.1151526 8233201
-0.13148728 -0.065510914 1.113186 3564980
-0.0048429985 0.11893515 1.0997485 9935247
0.00075817294 0.12031947 1.0993464 9934992
-0.10676751 -0.18014577 1.1234627 929696
-0.10242059 -0.18011129 1.1254778 1984411
0.15803237 -0.15355411 1.1072862 13424882
-0.10875036 -0.17073496 1.1211743 2512540
-0.10376955 -0.17218989 1.1241274 2906513
0.15867342 -0.14757308 1.1047118 8955594
0.16393651 -0.14580141 1.1007634 14080986
-0.11702739 -0.15730375 1.1221625 2381461
-0.11335592 -0.16217533 1.1239185 2776212
0.15798415 -0.13800539 1.1033921 3697834
-0.11792238 -0.15143129 1.1229804 2841752
-0.11521766 -0.15551303 1.1260241 2906774
0.15900981 -0.12796122 1.1036683 2646183
-0.12063558 -0.14105564 1.1240532 2907034
-0.1161321 -0.14488593 1.1259443 2775704
0.15890977 -0.1191951 1.1046603 3696546
0.16052432 -0.11450847 1.1039188 3761571
-0.12255509 -0.13174438 1.1226437 2973083
0.16162443 -0.108297 1.103092 3368880
-0.12455507 -0.12167415 1.1220998 3039134
0.16089693 -0.09671171 1.1025914 3500454
-0.1256475 -0.11128208 1.1217345 3171232
0.1591776 -0.088381819 1.1036129 3631529
-0.12700105 -0.10260221 1.1210091 3302564
0.15649679 -0.078212276 1.0993639 3697839
0.1571379 -0.078387171 1.1023297 3763633
-0.12794366 -0.092083707 1.1217345 3368355
0.15671605 -0.06712912 1.1019212 3436468
0.17065258 -0.062297441 1.1011884 10992842
-0.12651162 -0.081505969 1.1214945 3697068
0.15376902 -0.054359395 1.1062478 3765679
0.15683597 -0.05664238 1.1012385 3830452
0.16993599 -0.058091898 1.1011811 11387079
-0.12623681 -0.073695078 1.1191657 3631022
-0.12438305 -0.070319146 1.1184922 3500456
0.15234637 -0.047561172 1.1033581 3830449
0.15889548 -0.047514897 1.1004236 5207985
0.16573995 -0.047913965 1.1040051 10334913
-0.12736236 -0.061708353 1.1211584 3434161
0.15070842 -0.038739543 1.1030974 3893939
0.1577471 -0.038629223 1.1018105 8428221
-0.12823251 -0.051689457 1.1246637 6194370
-0.12383193 -0.049196716 1.1251881 4421311
0.14770763 -0.027111992 1.1052039 5734064
0.15436213 -0.03022173 1.1058835 10203587
-0.12307814 -0.042441431 1.1250459 6852289
0.1455797 -0.021366775 1.1031584 8955077
0.0051277708 0.09671931 1.1144001 9737616
-0.072507709 -0.21401316 1.1322378 7635861
-0.068918936 -0.2141806 1.1346674 8100012
-0.083373167 -0.20496669 1.1355336 10535920
-0.076319106 -0.20706753 1.1327201 5996227
-0.069226742 -0.21060345 1.1346405 6394567
-0.094814911 -0.19493032 1.128163 8431615
-0.087458834 -0.19673315 1.1304594 1526185
-0.080828398 -0.19853699 1.1341275 1262491
0.14140797 -0.17673373 1.1197623 11717846
-0.10405305 -0.18713322 1.1286911 7571711
-0.096810214 -0.18877938 1.1297765 1917611
-0.089399822 -0.19064733 1.1330811 2379673
-0.082247622 -0.19297893 1.1352957 2644619
0.14239922 -0.16975084 1.1196008 5010097
0.14919111 -0.16621804 1.1159378 10599906
0.15608926 -0.16441968 1.1145822 14081762
-0.097450837 -0.17995147 1.1323634 2709143
0.14252712 -0.15910107 1.1194493 2909858
0.14883621 -0.15811345 1.1151766 4026283
0.15615334 -0.15770842 1.1109792 12307424
-0.10579513 -0.16688766 1.1285388 2775446
-0.10087854 -0.17067426 1.1311691 2775442
0.1493686 -0.14908162 1.115839 3105445
0.15387112 -0.14790006 1.1105027 2578854
-0.10828564 -0.15985885 1.1307743 2775449
-0.10357971 -0.16183692 1.1350023 2906778
0.1509403 -0.13910046 1.1170009 3564451
0.15391654 -0.13789463 1.1127713 3433893
-0.11278173 -0.15152512 1.1321133 2840984
0.15183575 -0.13079837 1.1184322 3565217
0.15504923 -0.12843923 1.1128342 3499430
-0.11880983 -0.14009237 1.1290706 2841497
-0.1152821 -0.14152999 1.134863 2907290
0.1565606 -0.11763123 1.1149248 3237547
-0.11968999 -0.13066478 1.1306084 2973083
-0.11663139 -0.13085407 1.1348122 3038877
0.15888505 -0.10770224 1.1158171 3827369
0.16101775 -0.10649973 1.1094581 3564710
-0.12151037 -0.12080573 1.131861 3039391
-0.11846158 -0.12243749 1.1354929 3170977
0.15827495 -0.097630672 1.1155416 3565735
0.16028422 -0.097975276 1.109394 3500198
-0.12219176 -0.11262603 1.1339461 3170977
0.15772225 -0.08863157 1.1147904 3631790
0.15912563 -0.090176262 1.1173881 3434923
-0.12331888 -0.10213817 1.1328801 3302823
0.15641764 -0.077247709 1.1148942 3566513
-0.1242366 -0.092188671 1.1314729 3368614
0.15472719 -0.068101898 1.1149257 3632560
-0.12430543 -0.084450305 1.1327105 3565995
0.15257734 -0.058089931 1.1136638 3895728
-0.12256841 -0.069186129 1.1339906 3697842
0.14929892 -0.048387587 1.112288 4158132
-0.12171271 -0.060787942 1.13258 3502262
0.14734209 -0.037838683 1.1134834 4027837
-0.11993863 -0.051091462 1.1317413 3698611
0.14180793 -0.026794665 1.1177239 4619197
0.14746641 -0.029463492 1.1118203 4946612
-0.12697016 -0.045257866 1.1283575 7180220
-0.11919308 -0.041529339 1.1349925 4815032
0.14112213 -0.02035296 1.1170162 5209534
0.14516738 -0.01830326 1.1093606 8425655
0.0067892652 0.092842788 1.1173457 9474444
-0.044202164 -0.22191472 1.1400956 8300241
-0.063259616 -0.21534726 1.1376673 7642055
-0.055609234 -0.21533665 1.1392848 4815810
-0.048492342 -0.21817932 1.1403393 5210825
-0.073390119 -0.20425947 1.1378478 932767
-0.066051796 -0.20707566 1.1390713 2382238
-0.057066396 -0.20934054 1.1408079 2251168
0.125074 -0.19049989 1.1280825 6518691
0.13069092 -0.18900043 1.1262457 11319227
-0.075557895 -0.1976648 1.139779 2447513
-0.069752663 -0.20063588 1.1415598 2513045
0.13184486 -0.18064663 1.1264315 4617903
0.13864689 -0.18010341 1.123004 10929103
-0.085931756 -0.18748811 1.1399398 2971544
-0.079694986 -0.19072947 1.1401029 2774929
0.13306859 -0.17124514 1.1256061 2909086
0.13770458 -0.1699142 1.1229318 3105187
-0.094651468 -0.17500567 1.1389114 2709911
-0.089463189 -0.17962229 1.1409767 2644371
0.13841464 -0.15999766 1.1233671 3368356
-0.097411416 -0.168589 1.140837 2775444
-0.092060067 -0.1722635 1.1413703 2709910
0.14202937 -0.14977904 1.1239694 3368613
0.14584738 -0.14648849 1.1220601 3499683
-0.10136215 -0.16032806 1.1406777 2841497
0.14334247 -0.14216487 1.1261833 3237027
0.14762904 -0.13909903 1.1231755 3302821
-0.10831466 -0.14929686 1.140075 2645144
-0.10452896 -0.15068652 1.1423802 2775964
0.14993639 -0.12892503 1.1237315 3237542
0.15363532 -0.12502241 1.1225754 3106215
-0.1107941 -0.14107282 1.1410197 2907291
0.15051584 -0.11928483 1.1240486 3499683
0.15332527 -0.11706818 1.122299 3303338
-0.11256003 -0.13125488 1.1419567 3039134
0.15422077 -0.10846744 1.1223918 3499947
-0.11906661 -0.11747861 1.1398118 3236770
-0.11632477 -0.12152469 1.1430197 3236770
0.15506895 -0.097846262 1.1225988 3500458
-0.11962213 -0.11102265 1.1397632 3237027
-0.11760253 -0.11118298 1.1436367 3302821
0.15654904 -0.087129071 1.1228223 3632048
-0.12045541 -0.10133871 1.1396904 3302824
-0.1183923 -0.10200477 1.1435677 3302569
0.15406249 -0.078421265 1.1227716 3632047
-0.12166256 -0.092337079 1.1396523 3434408
-0.11883195 -0.089688808 1.1434326 3434665
0.14971818 -0.067708611 1.1225609 4026292
-0.12212197 -0.081970818 1.1395447 3631531
-0.12020411 -0.080948897 1.1434094 3631531
0.14904663 -0.059769165 1.1211233 4157366
-0.12267751 -0.07551486 1.1394962 4025255
-0.11982904 -0.070112735 1.1415199 3632304
0.1474721 -0.048074838 1.1206288 4289211
-0.11719914 -0.06086744 1.140643 3568048
0.14345731 -0.037605911 1.1214316 4094399
0.14624187 -0.04176091 1.1226332 4224702
-0.1165335 -0.054756369 1.138797 3764911
-0.11331287 -0.050131686 1.1410205 3895729
0.14024785 -0.029422596 1.1223314 4487616
-0.11908773 -0.036780909 1.1417381 6458567
-0.1138992 -0.040128112 1.1408262 3895996
0.13915969 -0.0184462 1.1212016 5735616
0.14567539 -0.014627226 1.1203033 9477559
-0.11881299 -0.034057297 1.1426852 6852289
-0.11558117 -0.033780895 1.1424602 5933254
0.041153669 0.081573099 1.1261704 9474701
-0.0059436504 -0.22904128 1.1496005 7248329
0.026788205 -0.22784531 1.1465411 5801654
0.03462971 -0.22604522 1.1454453 5210039
0.047493517 -0.22557031 1.1458946 6328255
0.055113979 -0.22491857 1.1453642 7379645
0.066594727 -0.22381456 1.1445631 8430007
0.074073039 -0.22142513 1.1400092 8625323
-0.04486499 -0.22427514 1.1441823 9678537
-0.033658572 -0.22326933 1.1499437 4422071
-0.024218066 -0.22312956 1.1507726 2778029
-0.014358038 -0.22410783 1.1501106 2513574
-0.0065569114 -0.22616249 1.1496038 2315684
0.023261793 -0.22434507 1.1475376 2120102
0.035236813 -0.22332092 1.1467038 2185635
0.048206575 -0.22111249 1.145786 2186146
0.05374366 -0.22173813 1.1454153 2316696
0.068796806 -0.21825229 1.1443378 4486314
0.076141395 -0.21724287 1.1418164 5997746
0.087028608 -0.21333495 1.1418777 6063288
0.095599644 -0.2111235 1.1424067 6589614
0.10367432 -0.21065277 1.1418475 8757678
-0.051295958 -0.212818 1.1444691 1855898
-0.044178471 -0.21470271 1.1472529 2249885
-0.036067463 -0.21629709 1.1507634 2381985
-0.027754491 -0.21771616 1.1509422 3039902
0.08913327 -0.2060706 1.1427817 2841504
0.095073834 -0.20501295 1.1423608 3302564
0.10429839 -0.20197034 1.1403517 4420011
0.11367202 -0.20036551 1.1352966 6984117
0.12266226 -0.19684875 1.1323426 6254993
-0.063223042 -0.20327391 1.1459597 2710418
-0.055018626 -0.2058211 1.1490217 2775447
-0.047951713 -0.20743284 1.1513854 2906776
0.10611892 -0.19388598 1.1410542 3171492
0.11426985 -0.19183129 1.1376616 3237285
0.12216394 -0.18996933 1.1328572 3629215
-0.066415735 -0.1965427 1.1500978 2775191
-0.057855487 -0.19929594 1.152088 2906012
0.11553134 -0.18247317 1.1389868 3040421
0.12205817 -0.18025139 1.1351159 3105703
0.12775004 -0.18004024 1.1317687 2777257
-0.083188683 -0.1838904 1.146265 2710677
-0.075888477 -0.18713832 1.1493467 2709909
-0.069229893 -0.19017184 1.1514081 2709910
0.12272924 -0.17175731 1.1385436 3368100
0.12980911 -0.16934323 1.1336228 3302561
-0.084758148 -0.17743312 1.1494046 2710421
-0.079477832 -0.17981319 1.1531738 2644886
0.12421019 -0.16382903 1.1398132 3040936
0.13179687 -0.16008574 1.1371514 3237031
0.13771576 -0.15668991 1.1337804 3368615
-0.095677651 -0.16531044 1.1468711 2776209
-0.089569576 -0.16924992 1.1512672 2841240
0.13323249 -0.15143025 1.139029 3237287
0.13910823 -0.14873192 1.1334351 3302822
-0.096932881 -0.15870708 1.1514128 2710683
-0.091791771 -0.16155066 1.1539057 2841499
0.14081042 -0.14011928 1.1357639 3237541
0.14525972 -0.13704267 1.1315969 3237798
-0.099740773 -0.15035594 1.1521041 2907293
0.14191055 -0.1312077 1.1381636 3237797
0.14605644 -0.12833828 1.132829 3303334
-0.10728712 -0.13929167 1.1484628 2907805
-0.10454732 -0.14065388 1.1543653 2907805
0.14725791 -0.11881911 1.1351808 3434407
-0.10847701 -0.13004091 1.1499476 3039392
-0.10540825 -0.13092498 1.1550957 3039391
0.14836067 -0.10911832 1.1348479 3500202
0.15186603 -0.10593487 1.1291234 3631274
-0.11226626 -0.12115005 1.1519591 3170979
0.14956608 -0.098694548 1.1367577 3631791
0.15249474 -0.097916678 1.1307549 3566510
-0.11347461 -0.11085696 1.1530876 3105957
0.14771239 -0.087707862 1.1355121 3632305
0.15260406 -0.088435523 1.1291723 3501227
-0.11486946 -0.10093131 1.1507587 3237546
0.14641991 -0.078720905 1.1345991 3698099
0.15069681 -0.078774236 1.1292402 3698094
-0.11506946 -0.091163009 1.1508801 3434923
0.14689112 -0.069368921 1.1349882 3895479
0.14888234 -0.071260169 1.1288626 3895477
-0.11554697 -0.080703884 1.1513931 3566256
0.14627054 -0.058068298 1.1362158 4027579
0.14847241 -0.057327148 1.1327136 4157882
-0.11537364 -0.071752511 1.150503 3567024
0.14339054 -0.04874602 1.1357769 4159422
0.14740445 -0.048583385 1.1310655 4289724
-0.11406617 -0.061784558 1.1480783 3567791
-0.11078283 -0.059522577 1.1531695 3764403
0.14072874 -0.038910929 1.1343335 4356797
-0.11023428 -0.050553635 1.1469016 3830196
0.13719676 -0.029602468 1.1335149 4619718
-0.10954498 -0.039535996 1.14905 3896507
0.13214432 -0.018094949 1.1341965 4817095
0.1364741 -0.018328272 1.1306732 4948420
-0.11781952 -0.031028479 1.150596 6916535
-0.11035091 -0.030924261 1.1497748 5210049
0.13089915 -0.011771053 1.1363133 5013440
0.13513803 -0.011007458 1.1336738 5998788
0.024544826 0.053446099 1.1385685 5859448
0.032559745 0.05419524 1.136148 6122362
0.038280148 0.054836124 1.138755 6319482
0.049490228 0.057096258 1.1419668 5330522
0.024637917 0.057905942 1.1369748 5792108
0.03230764 0.059406117 1.1358949 5527648
0.037905883 0.059185654 1.1387223 5067354
-3.1474978e-005 -0.22848544 1.1521955 4354997
0.0075084828 -0.22885671 1.1536889 4684224
0.017221121 -0.22774167 1.1515386 4289976
0.027900619 -0.22452216 1.1502295 2054307
0.03831673 -0.22418237 1.1495117 2777510
0.043868259 -0.22480965 1.1491399 4026798
0.060240425 -0.22340943 1.148 5604271
0.063919388 -0.22144167 1.1477216 4881326
-0.019786039 -0.21978395 1.1534314 3039902
-0.011771342 -0.2200159 1.153387 2710943
-0.0029981378 -0.22116041 1.1556127 2645152
0.007295426 -0.22312327 1.1583047 2514339
0.017131725 -0.22218204 1.1570839 2514851
0.026670691 -0.21886304 1.1548491 2842787
0.036310334 -0.21762997 1.151967 2908579
0.045923308 -0.21640775 1.1517825 3039651
0.056192614 -0.21622673 1.1521907 2908578
0.065394908 -0.21456653 1.1512876 2778020
0.075065739 -0.21208942 1.148265 2646433
0.084716827 -0.21396896 1.1461973 5012145
0.096287169 -0.21426514 1.145409 8955830
-0.033441469 -0.21249986 1.1545553 2841242
-0.023339914 -0.21370082 1.1559323 2775960
-0.014143893 -0.21417965 1.1572469 2841500
-0.0043512713 -0.21549404 1.1603365 2907551
0.027091667 -0.2120651 1.1581373 3105184
0.036218829 -0.21091461 1.1574968 3170722
0.046110287 -0.21006864 1.1568081 3302053
0.056137532 -0.20865622 1.1561025 3170723
0.066499524 -0.20684524 1.1553687 3105188
0.075590529 -0.20528427 1.1530068 3170467
0.084856369 -0.20431072 1.1484641 3236258
0.09451241 -0.2000449 1.1457853 3171236
-0.05095043 -0.20261194 1.1553352 2906776
-0.044189118 -0.20426951 1.1560401 2907033
-0.035453252 -0.20448321 1.1591442 2841497
-0.025688419 -0.20770133 1.1616931 2775704
0.076220177 -0.19972548 1.1546075 3105443
0.085012592 -0.19897351 1.1539954 3105443
0.095337644 -0.19436866 1.1519604 3105956
0.10316633 -0.19084442 1.1478316 3105956
-0.062806599 -0.1926052 1.1560129 2644884
-0.055268824 -0.19551927 1.1585431 2775705
-0.046519414 -0.19763383 1.1606455 2841497
0.098352335 -0.18673545 1.1529177 3172006
0.10569175 -0.18372442 1.1513724 3040421
0.11114751 -0.18091825 1.148455 2974628
-0.072291523 -0.18459982 1.1565551 2645144
-0.065327987 -0.18575591 1.15916 2710425
-0.059719935 -0.18799625 1.1603223 2776216
0.11387075 -0.17201227 1.1483997 3171493
0.11841354 -0.16940877 1.144896 3237026
-0.075822629 -0.17683569 1.1592872 2710424
-0.069031641 -0.17844251 1.1628106 2710937
0.11642901 -0.16521449 1.1513913 3302823
0.12215643 -0.16064835 1.1477723 3172005
0.12759082 -0.15703782 1.1465075 3172006
-0.085597068 -0.16626781 1.1572202 2841498
-0.080676086 -0.16833952 1.1618462 2907290
0.12427351 -0.15344641 1.1506963 3303592
0.13010328 -0.14956339 1.1489084 3237544
0.13538948 -0.14479658 1.1417996 3303337
-0.087959595 -0.1579687 1.1589892 2973342
-0.08269909 -0.16060525 1.1649654 3038879
0.13309319 -0.14151073 1.149264 3237544
0.13685855 -0.13818248 1.144417 3303336
-0.096976526 -0.14715022 1.1587455 2973342
-0.090368785 -0.14972728 1.1628386 2973600
0.13954712 -0.12878481 1.1453099 3368872
-0.099127054 -0.13943243 1.1601455 3039392
-0.093274988 -0.13971171 1.1654093 3236259
0.1401505 -0.11924558 1.1468949 3500460
0.14395079 -0.11651255 1.140834 3434923
-0.10101067 -0.12991156 1.1606841 3170978
0.14048323 -0.11024871 1.1476703 3500719
0.14470762 -0.10740301 1.1440015 3500718
-0.10868949 -0.11938421 1.1581728 3237029
-0.10437231 -0.12034521 1.1639047 3237286
0.14447349 -0.098513037 1.1466769 3697329
-0.10944259 -0.11063203 1.158107 3237543
-0.10642393 -0.10988052 1.1654085 3172263
0.14486884 -0.089338571 1.1460203 3697843
-0.11036485 -0.10101625 1.1610485 3303340
-0.10805251 -0.099704541 1.1658847 3303852
0.14377625 -0.078945354 1.1463567 3764149
-0.11146954 -0.091335438 1.157987 3500716
-0.10833897 -0.089635871 1.1657693 3501229
0.14570768 -0.068316326 1.1446499 3764661
-0.11179605 -0.083281487 1.1579013 3566512
-0.10863918 -0.079544142 1.1620092 3632306
0.14186192 -0.058400463 1.1446791 3896764
-0.10886584 -0.069907896 1.1618955 3698357
0.13520229 -0.04887658 1.1472088 4291265
0.13873588 -0.049789038 1.1414418 4225217
-0.10806155 -0.060801368 1.1613538 3764408
0.1351113 -0.039251432 1.1464177 4554434
0.13726698 -0.038837016 1.1402498 4488640
-0.10598733 -0.049866803 1.1618671 3895997
-0.10194673 -0.046285715 1.1647501 4027323
0.133728 -0.028540298 1.1453663 4817354
-0.10550763 -0.040283382 1.1582307 3962044
-0.10125769 -0.03866607 1.1637988 4093118
0.12360466 -0.017008111 1.1489122 5014224
0.12892702 -0.019325204 1.144569 4751563
-0.10539991 -0.029834978 1.1567465 4290235
-0.10024887 -0.029231608 1.16093 4158908
-0.094064675 -0.026376478 1.1639434 4028609
0.12122594 -0.01016102 1.1472012 4817874
0.12748866 -0.0093788132 1.1415268 5145287
-0.098594755 -0.022434138 1.1585871 4487616
-0.093183592 -0.019266382 1.1624511 4356800
0.11133706 0.0015517995 1.1474985 5276623
0.11764492 -0.00095958263 1.1433768 5604813
0.12700129 -0.0013916716 1.1413417 6720449
-0.091601864 -0.012109399 1.1635834 5671109
0.10910942 0.0069576502 1.1490105 5802961
0.11522477 0.0066780746 1.1444902 6787017
0.032173291 0.016231909 1.1547273 12972031
-0.023733554 0.021384679 1.1564819 5869264
0.0089224186 0.020531803 1.1562619 7515376
0.016403141 0.020801663 1.155746 8764660
0.025990592 0.021177754 1.1550844 10146554
0.032673366 0.020713545 1.154633 10870005
-0.082236379 0.024678208 1.1544292 8028800
-0.077174202 0.025478497 1.1540718 7305855
-0.019330969 0.02292423 1.1581645 5671370
-0.016033815 0.023206219 1.157935 5869265
0.0070462544 0.025180131 1.156328 6988787
0.011442458 0.02555611 1.156022 7185904
0.096410118 0.041700676 1.149987 6314850
-0.076390296 0.030566089 1.1539499 8028802
0.093029439 0.044962659 1.1501747 6117979
0.067765899 0.053303421 1.1437734 5593178
0.06994886 0.053490117 1.1436214 5658970
0.001618471 -0.2179298 1.1639701 2973083
0.0072277784 -0.21856362 1.1635945 2973595
0.016608657 -0.21732444 1.1636038 2973598
-0.01918379 -0.20857349 1.1652691 2842012
-0.012723574 -0.2094129 1.164838 2776219
-0.0031217951 -0.21106972 1.1657302 2907806
0.0066453572 -0.21160637 1.1667066 2907807
0.017198473 -0.21124505 1.166155 2973599
0.025642879 -0.20819512 1.1628627 3039136
0.036282603 -0.20628639 1.1627767 3170723
0.046145424 -0.20532811 1.1614202 3236770
0.055800475 -0.20404497 1.1600736 3170979
0.064774558 -0.20306331 1.1594459 3170980
0.071248904 -0.20083928 1.1589727 3171236
-0.030973108 -0.2006734 1.1659704 2842012
-0.024010772 -0.20234081 1.1669742 2842011
-0.014191927 -0.20376059 1.1673303 2842012
-0.0057243593 -0.20447958 1.1683022 2907805
0.040596507 -0.2019147 1.1650958 3302309
0.046395287 -0.20026648 1.1635311 3302308
0.054893754 -0.19942832 1.1615773 3171236
0.065544479 -0.19910006 1.15934 3171236
0.076102741 -0.19680604 1.160257 3105443
0.085655913 -0.19406426 1.1588978 3171492
0.091936313 -0.19164638 1.1574328 3040420
-0.052878201 -0.19141141 1.1673462 2841497
-0.043882668 -0.19339722 1.1672915 2907291
-0.035175577 -0.19530275 1.1680732 2907549
-0.028294524 -0.19588798 1.1697326 2907551
0.088333517 -0.18665835 1.1616223 3040420
0.095020778 -0.18425256 1.1592327 3106213
0.10242808 -0.18102413 1.1565719 3106214
-0.054792203 -0.18504971 1.1693969 2907290
-0.047895432 -0.18733841 1.1704589 2973340
0.098636203 -0.17683831 1.1607851 3302823
0.1042771 -0.17398037 1.1579547 3237030
0.11010028 -0.17006187 1.1576816 3237031
-0.073338568 -0.17311749 1.168502 2841497
-0.0646571 -0.17586336 1.168479 2842012
-0.058213718 -0.17753798 1.1705328 2907547
0.11453734 -0.16197643 1.1564125 3368361
0.11924929 -0.15831685 1.1551155 3237285
-0.075316317 -0.16734774 1.16856 2973085
-0.068370029 -0.16695867 1.1708226 3039135
0.11615928 -0.15468372 1.1552783 3368615
0.12240881 -0.15080129 1.1555274 3237799
0.12661695 -0.14710808 1.1544605 3303337
-0.083778284 -0.15508011 1.168975 2973857
-0.077973016 -0.15811473 1.1701775 3039137
-0.071832977 -0.15845527 1.1722119 3104930
0.12382992 -0.14314291 1.1566031 3172264
0.12967655 -0.13975188 1.1548207 3238059
-0.085597388 -0.14699605 1.1699935 3039650
-0.081127092 -0.15019947 1.1727376 3105700
0.13216215 -0.12974909 1.1560071 3369132
0.13621855 -0.12958376 1.153568 3434410
-0.089022428 -0.13868937 1.1708326 3171236
0.13341767 -0.12148211 1.1568589 3500719
0.13649017 -0.1189159 1.1554112 3435183
-0.097279735 -0.12728269 1.1695267 3302823
-0.092304587 -0.12882389 1.1718798 3171495
0.13636948 -0.10879346 1.1551014 3566514
-0.099656977 -0.11880836 1.1710339 3368873
-0.095779642 -0.1196444 1.1725292 3368875
0.13821118 -0.099417105 1.153829 3697588
-0.10125007 -0.10983629 1.1722378 3303850
0.13912599 -0.089684471 1.1562706 3763892
0.14203911 -0.088775717 1.1526221 3698099
-0.10353348 -0.099796899 1.1711901 3435181
-0.097507261 -0.099754587 1.1731827 3435438
0.13931033 -0.079500921 1.1566943 3829942
0.14189774 -0.078750335 1.153643 3764149
-0.1033056 -0.090065897 1.171445 3501229
0.13816498 -0.066190481 1.1565942 3896505
0.14263259 -0.068717875 1.1541351 3830455
-0.10358784 -0.080196619 1.1708694 3632563
-0.099511601 -0.07646133 1.1730076 3567542
0.13503052 -0.05929336 1.1541387 4027837
0.14043701 -0.06241041 1.1523782 3896505
-0.10370974 -0.070113435 1.1705368 3829940
-0.10008427 -0.069806099 1.1729575 3699127
0.13279836 -0.049826372 1.1554056 4291009
-0.1041995 -0.059981361 1.1698998 3895737
-0.10039271 -0.058818445 1.1728313 4027576
0.13218658 -0.039808307 1.1546448 4422849
-0.10365265 -0.053220365 1.1689698 4158911
-0.099372394 -0.049126588 1.1706266 4093372
0.13126118 -0.030111402 1.1540771 4817355
-0.096483752 -0.039449744 1.1698364 4093630
-0.091881365 -0.035583574 1.1719369 4094397
0.12298112 -0.020027205 1.1552328 5080014
0.12759107 -0.022864737 1.1527275 4883149
-0.095135033 -0.031705763 1.168098 4028348
-0.090773076 -0.028754681 1.1692632 4028864
0.11765879 -0.010807 1.155028 4949202
-0.08803238 -0.018890239 1.1692623 4029123
-0.083881363 -0.016276605 1.1711301 3963586
0.1108252 -0.001484029 1.1562619 5146069
0.11444184 -0.0056158528 1.1533966 5080276
-0.088024445 -0.011053853 1.1673341 5342665
-0.080855839 -0.0082535818 1.1708152 4882633
-0.018101295 0.00089531392 1.1663952 6070261
-0.011461547 0.0014631748 1.1659329 6528744
-0.0048218016 0.0020310357 1.1654706 8827627
0.010670936 0.0033560395 1.164392 10340848
0.019420382 0.0034658313 1.1637913 8895736
0.026942182 0.0034067929 1.163277 6266608
0.10075124 0.010493875 1.1571252 5475287
0.10539403 0.0073476955 1.1551789 5475028
-0.078053653 -0.0020162389 1.1685349 5999306
-0.071527965 -0.0003445968 1.1680655 5540557
-0.063342467 0.0036974475 1.1667826 5803727
-0.050668612 0.0065523386 1.1685495 4950220
-0.041663334 0.0061938837 1.1679376 5016280
-0.031970985 0.0064064637 1.1668701 5411294
-0.022107797 0.0072225332 1.1643393 5806569
-0.012067998 0.0081063882 1.1652839 7120874
-0.0025597978 0.0096735954 1.1652132 12379901
0.0078437794 0.010018133 1.1619638 13891069
0.017575111 0.010605797 1.1606143 12969723
0.027510684 0.011700101 1.1608055 9946095
0.037569635 0.012331001 1.160512 10013177
0.047070198 0.015029125 1.1595838 7449069
0.053676218 0.01746279 1.1612579 5411552
0.097421966 0.014100961 1.1558013 6526426
-0.049125485 0.011650383 1.1683755 6264275
-0.041815922 0.01306317 1.16535 5803990
-0.032452419 0.014485031 1.1631861 5345755
-0.022613434 0.016592883 1.162484 5412839
-0.013097132 0.018005766 1.1623147 5676266
-0.0038735624 0.017887704 1.1640475 7253489
0.005788805 0.018517911 1.1615157 8436213
0.015831651 0.017129771 1.1598442 12051453
0.029788066 0.022777565 1.1588128 10082302
0.037644867 0.022707149 1.1582756 10607102
0.046151422 0.022586256 1.1576947 7515119
0.053291611 0.022591032 1.1585423 6068200
-0.011397401 0.023709364 1.1616205 6001365
-0.0069860481 0.024086639 1.1613134 6396124
0.10434708 0.039398775 1.1534841 6447199
0.010113847 -0.20744509 1.1712672 3039391
0.017665379 -0.20621374 1.1722372 3039135
0.028990831 -0.20583063 1.1699529 3104930
-0.019714547 -0.19878426 1.1731937 2776478
-0.013162656 -0.1991078 1.1747541 2842271
-0.0030293856 -0.19987014 1.1762576 2907807
0.0063370829 -0.20093134 1.1761456 2908063
0.016444216 -0.20091146 1.1765602 2973600
0.026587434 -0.19906144 1.175373 3105187
0.036363512 -0.19787982 1.1737659 3236773
0.045849357 -0.19572942 1.1724054 3237029
0.056743376 -0.19488314 1.1717148 3171237
0.066261709 -0.19503962 1.1687596 3171236
0.075552277 -0.19268411 1.1675135 3105444
0.084156759 -0.19046132 1.1659691 3171493
-0.032377586 -0.19094053 1.1771634 2841758
-0.024073726 -0.19254011 1.1774181 2907551
-0.014928857 -0.1928474 1.1796265 2842271
-0.0041244738 -0.19310755 1.1800694 2908064
0.0026798546 -0.19365445 1.1796107 2973857
0.023921553 -0.19183776 1.1781318 3105444
0.036630549 -0.18974742 1.1772335 3237030
0.046601746 -0.18931797 1.175743 3302823
0.056130357 -0.1877197 1.1749457 3171495
0.065283626 -0.18552589 1.17382 3105703
0.074943535 -0.1849609 1.1729418 3105703
0.084519513 -0.18365617 1.1703639 3105702
0.092398815 -0.18048976 1.1669894 3105958
-0.044355497 -0.18425047 1.1763371 2973598
-0.035962962 -0.18522714 1.1801391 2907551
-0.025833966 -0.18621576 1.1814636 2908065
0.085807577 -0.17508298 1.1736692 3237288
0.094347112 -0.17365474 1.170615 3302823
0.10258038 -0.17092282 1.1670231 3237287
-0.054587297 -0.17380692 1.1781107 3105183
-0.046656802 -0.17649066 1.1808721 2974112
-0.038088799 -0.17795095 1.182192 2842786
0.095417775 -0.16675866 1.1728995 3171750
0.10359546 -0.16244604 1.170945 3172008
0.11116714 -0.16006921 1.1660508 3303081
-0.063643552 -0.16487999 1.1764153 3104930
-0.056845225 -0.16658303 1.1819873 3170978
0.105445 -0.15390316 1.1720405 3303337
0.11289266 -0.15175779 1.1692462 3368873
0.11946209 -0.14990877 1.1655592 3237543
-0.074378282 -0.15294842 1.1789953 3040164
-0.067296632 -0.15610492 1.1796782 3105701
-0.060288675 -0.1599068 1.1834701 3302822
0.1138366 -0.14260666 1.1713144 3303597
0.12068945 -0.13961713 1.1664307 3238059
0.12734671 -0.13599068 1.1642858 3303852
-0.077272534 -0.14682981 1.1802253 3106213
-0.069090091 -0.14814827 1.1839151 3172007
0.12109106 -0.13044876 1.170454 3369387
0.12870194 -0.12958619 1.1661119 3435181
-0.085427843 -0.13727075 1.1782051 3237030
-0.078540191 -0.13732527 1.182078 3237800
-0.071745649 -0.14019132 1.1839902 3303594
0.12239423 -0.12426494 1.1704823 3500972
0.13016452 -0.11933083 1.1666261 3500976
0.13424678 -0.11610305 1.1615417 3500977
-0.087232642 -0.1281206 1.179988 3237545
-0.082181029 -0.12932985 1.1836681 3303852
0.13134784 -0.10965213 1.1696732 3566772
0.13440543 -0.10975276 1.1654553 3566515
-0.090552822 -0.11865849 1.1802278 3369389
0.1313823 -0.10008095 1.1695424 3763639
0.13431162 -0.098928154 1.1644256 3763639
-0.098614119 -0.10547458 1.1786816 3435181
-0.09273655 -0.10864848 1.1815677 3435438
0.13107069 -0.088980496 1.1694149 3895737
0.13566162 -0.088506386 1.1639051 3764149
-0.098599188 -0.098965108 1.1796626 3435438
-0.092928268 -0.09908326 1.1833472 3501231
0.13058856 -0.083377555 1.1693728 3961530
0.13524042 -0.079023682 1.1638068 3961528
0.14190315 -0.075085424 1.1604673 3895735
-0.099071607 -0.089715764 1.1801723 3501489
-0.094651431 -0.089093104 1.1827506 3501490
0.12904577 -0.06544812 1.169238 4159679
0.13480057 -0.069684967 1.1641619 3962041
0.14171161 -0.072859436 1.1604506 3895735
-0.10023551 -0.082454823 1.1791521 3501747
-0.095547087 -0.078832038 1.1814557 3567541
0.12775405 -0.059161853 1.1692421 4225473
0.13119523 -0.059401736 1.1649998 4159424
-0.094726816 -0.068581209 1.1801928 3764919
0.12674493 -0.050342895 1.1691929 4422597
0.13033035 -0.049350586 1.1649243 4357059
-0.095086649 -0.058805276 1.1799145 3896505
-0.090060897 -0.05822384 1.1841451 3962298
0.12571003 -0.039770171 1.169122 4685767
0.12946548 -0.039299443 1.1648487 4422851
-0.09454149 -0.049613316 1.1779208 4027836
-0.089346133 -0.047358144 1.1828568 4028094
0.12279347 -0.029403426 1.1670599 4948684
0.12848601 -0.030856386 1.1617953 4751818
-0.093659326 -0.041414659 1.1761466 4093632
-0.08801759 -0.037425771 1.1815671 4094399
0.1153389 -0.01958555 1.1695615 5080784
0.11938937 -0.020346351 1.1644826 5211343
-0.085613675 -0.028758116 1.1798002 4094402
-0.0792071 -0.025115356 1.1819553 4226244
-0.072829917 -0.022885084 1.1824912 4620744
-0.019263102 -0.017174982 1.1787465 5412064
0.0030965768 -0.015262678 1.1771896 6463211
0.011448735 -0.018399708 1.1766598 6397929
0.021023005 -0.0169378 1.1759845 6397929
0.030038394 -0.014248602 1.1753311 6003432
0.11138664 -0.010629706 1.1672059 5081042
0.11645679 -0.013353907 1.1613818 5081041
-0.078875713 -0.017285384 1.1766818 4160963
-0.07056734 -0.015595399 1.1813792 4752075
-0.055809982 -0.011269942 1.1811699 4949201
-0.04905387 -0.011256553 1.1807071 5016022
-0.039479725 -0.01156649 1.1793873 5213659
-0.029669264 -0.011639141 1.178151 5411552
-0.01978601 -0.011575431 1.1779052 5740773
-0.0096833743 -0.010711499 1.1780038 6003172
0.00034976564 -0.0098533928 1.1769042 6331366
0.010207394 -0.00900428 1.1736114 6989552
0.020276299 -0.0081443414 1.1733114 6792432
0.030256942 -0.0072880909 1.1719649 5937640
0.038769163 -0.005624935 1.1736151 5806054
0.049376935 -0.0034027398 1.1738614 5674725
0.055988416 -0.0017084554 1.1733859 5674983
0.10176323 -0.00033348054 1.1702329 5146841
0.10753158 -0.001952745 1.1641314 5080789
-0.076353528 -0.0085412711 1.1745206 4554184
-0.072793312 -0.0073847622 1.1772685 4751049
-0.057450153 -0.0057811141 1.1792037 4818129
-0.050106995 -0.0051568225 1.1778905 5015507
-0.04085736 -0.0043776184 1.1738384 5147609
-0.030899452 -0.0035312846 1.171842 5346018
-0.021105567 -0.0030576512 1.1737825 5937898
-0.010640053 -0.0029100776 1.1732866 6462952
-0.00037137792 -0.0012881234 1.1716706 8303605
0.008885718 -0.00060745329 1.1700093 8501495
0.018712182 -0.00075472146 1.1685231 7252467
0.02996397 0.00075861812 1.1685735 6069484
0.039022937 0.0026314408 1.1687914 6135528
0.049318761 0.0031501949 1.1711829 5741031
0.058743566 0.0041647777 1.172116 5543655
0.068122849 0.0062760264 1.1724479 5477092
0.078013651 0.0084533766 1.1717414 5739747
0.08933913 0.0091711134 1.1709563 5280481
0.098476946 0.0072900131 1.1666543 5015513
0.10394437 0.0057609826 1.1639872 4949463
-0.070265695 -0.0012934804 1.1740065 4818122
-0.060974017 0.00049778819 1.1733462 5147606
-0.052401327 0.0019784123 1.1727393 4818639
-0.043615833 0.00098573416 1.172151 5344472
0.00075271726 0.0053409189 1.1690543 12971007
0.0052422471 0.0051642805 1.1687492 12905215
0.029671282 0.0072535574 1.1670483 5807584
0.042996213 0.0083931684 1.1661206 6004710
0.048942067 0.0098627061 1.1656938 5807083
0.05761458 0.013105437 1.1671948 5477863
0.066277839 0.013428442 1.1691368 5542628
0.078501835 0.01150535 1.171667 5673698
0.088736802 0.014335282 1.1694245 5804766
0.094075114 0.012761652 1.1625643 5147865
0.059805073 0.02104263 1.1647999 5412324
0.0098886127 -0.19593835 1.1831574 3039650
0.016354015 -0.19603261 1.182716 3039650
-0.010980511 -0.18979456 1.1845042 2842271
-0.0042498913 -0.18921894 1.1840355 2973857
0.0061930632 -0.1894117 1.1845891 2973857
0.01612303 -0.19031212 1.1851875 3039395
0.026501775 -0.18748853 1.1836885 3171237
0.03558201 -0.18529394 1.1823245 3237030
0.045850508 -0.18385971 1.182075 3302569
0.054137491 -0.18329422 1.1812943 3237546
-0.031429783 -0.18102592 1.1857868 2908065
-0.023814959 -0.18134551 1.1852697 2973857
-0.014965629 -0.18235138 1.1856796 2973857
-0.0050385073 -0.183402 1.1861342 2973858
0.0034039002 -0.18349791 1.1874443 3105444
0.0349195 -0.18080255 1.18525 3237030
0.046420816 -0.1783036 1.1844289 3302825
0.055238724 -0.17709497 1.1835004 3171754
0.064965583 -0.17679605 1.181134 3171752
0.075170524 -0.17550269 1.1798282 3171753
0.083262101 -0.1716847 1.1788101 3237546
0.091158114 -0.16859996 1.1772256 3303592
-0.043351509 -0.17255273 1.1864896 2908579
-0.034884423 -0.17399138 1.1879339 2908579
-0.024920797 -0.17460771 1.1881711 3105444
-0.016095797 -0.17561916 1.188674 3105443
0.078039601 -0.16802287 1.1821258 3303339
0.085738704 -0.16509274 1.1802227 3303082
0.093761064 -0.16230625 1.1775358 3237545
0.099358276 -0.15883738 1.1765331 3303850
-0.053293191 -0.1620764 1.1870298 3302822
-0.046197705 -0.16577379 1.188849 3040165
-0.038669385 -0.16891247 1.1901298 3040167
0.088518552 -0.1580348 1.1812743 3303598
0.094137967 -0.15355164 1.179886 3238061
0.10234126 -0.15079477 1.1773348 3303596
0.10970522 -0.14775851 1.175676 3369131
-0.063918196 -0.15241361 1.1876278 3171751
-0.057123363 -0.15546817 1.1886187 3368615
-0.049770176 -0.15849702 1.1907502 3171751
0.11104781 -0.14103332 1.1769975 3369134
-0.066485986 -0.14555408 1.1877117 3369130
-0.06003093 -0.14694659 1.1902956 3434922
0.11144406 -0.13128722 1.178391 3435183
-0.068846986 -0.13711619 1.1890967 3434923
0.11358191 -0.1239825 1.1782994 3501232
0.11999142 -0.12029511 1.1771978 3435694
0.12635654 -0.11801793 1.1741369 3501232
-0.077998251 -0.12671715 1.1892498 3369646
-0.071878441 -0.12994893 1.1905447 3435182
0.12300147 -0.11076285 1.1782789 3567282
0.12688732 -0.10991038 1.1758144 3567027
-0.087496355 -0.11478703 1.1887378 3501231
-0.08241415 -0.1182766 1.1911932 3435439
0.12232194 -0.10286558 1.1782196 3829686
0.12703314 -0.099653065 1.1760718 3829431
-0.087786607 -0.11141387 1.1887124 3501231
-0.083590306 -0.10779037 1.1900471 3567024
0.12855294 -0.090105549 1.1762853 3830201
-0.088995993 -0.097359069 1.1886067 3632818
-0.085587539 -0.097775571 1.1903838 3698612
0.12970266 -0.079363018 1.1753942 3896507
-0.089818373 -0.087801792 1.1885349 3633333
-0.085788541 -0.087632552 1.1910634 3764919
0.12862985 -0.069212981 1.1748302 4093886
-0.091021746 -0.079069965 1.1885002 3633334
-0.086869605 -0.077753827 1.1914059 3830201
0.12486839 -0.059869502 1.1756865 4291523
-0.087436721 -0.06747438 1.1897699 3896506
0.12344033 -0.049473692 1.1750211 4619975
-0.08499182 -0.05767924 1.1895188 4028348
0.11678851 -0.038559306 1.177736 5146320
0.12131248 -0.040408928 1.1764486 4883148
-0.084189102 -0.048172008 1.1879042 3962814
-0.07917928 -0.046360198 1.1901145 3963072
0.11494312 -0.029869087 1.1762422 5146577
0.11868624 -0.031192295 1.1739988 5080527
-0.083619677 -0.039020352 1.1874561 4028607
-0.077482142 -0.036726244 1.1891435 4291526
-0.027904635 -0.030477405 1.187536 5147865
-0.020495376 -0.02961643 1.1870171 5344731
-0.0043650195 -0.027327701 1.1858817 5345501
0.0023883246 -0.026750132 1.1854116 5739743
0.012607221 -0.028126046 1.1833937 5936862
0.021631369 -0.027360037 1.1830996 5871068
0.031749886 -0.025375485 1.1833825 5739228
0.049661722 -0.022707105 1.1821201 5213656
0.11230972 -0.02118092 1.1762058 4949970
-0.076499715 -0.029180251 1.1868366 4422856
-0.068402119 -0.023694262 1.1880311 4686797
-0.058178782 -0.021686241 1.1874863 4884690
-0.047619231 -0.022215389 1.1882739 4950486
-0.037218526 -0.022093967 1.1867248 5213659
-0.02872753 -0.022557639 1.1842784 5279707
-0.018502982 -0.022821628 1.1839827 5345244
-0.0085449759 -0.020332433 1.1831783 5411808
0.0013368018 -0.020606659 1.1823028 5806052
0.010822752 -0.022939101 1.1807731 6068964
0.022820553 -0.02229055 1.1799428 6068963
0.0326561 -0.019053049 1.1801512 6003173
0.04097455 -0.016610295 1.1804279 5608417
0.051155351 -0.015744381 1.1803206 5411038
0.058083713 -0.015167922 1.1814423 5279709
0.10229304 -0.0096307695 1.1774154 5212630
0.10809384 -0.012751557 1.1753122 5015248
-0.065335631 -0.017748348 1.1859188 4949712
-0.058605008 -0.017172717 1.1854501 4949713
-0.048509069 -0.016309269 1.1847472 5016279
-0.039128743 -0.015884578 1.1840992 5213659
-0.030463995 -0.01589863 1.183506 5345501
0.041841827 -0.009148404 1.1784641 5871590
0.050206732 -0.0078666657 1.1778741 5871847
0.060347408 -0.0047435686 1.1791426 5543139
0.067511812 -0.0029954761 1.178915 5280225
0.092005216 -0.00090198219 1.1789281 5411294
0.097778901 -0.0018460006 1.1759938 5279196
0.069112085 0.0022451431 1.1764438 5411556
0.078502014 0.0047472045 1.1757673 5412066
0.08971972 0.0057065859 1.1749862 5477344
0.096643843 0.0040334538 1.1745346 5213404
0.017092014 -0.18558484 1.1905447 3105189
-0.0038136989 -0.17886895 1.1928887 3039906
0.0060411645 -0.18016514 1.1926608 3039908
0.015747994 -0.18048587 1.1939098 3105447
0.026050311 -0.17884466 1.1905928 3105702
0.034921069 -0.17683807 1.1892066 3171750
0.043817732 -0.17566253 1.1885816 3237289
0.055054441 -0.17283556 1.1877742 3237548
0.065218538 -0.17196628 1.1870666 3171752
0.074253283 -0.1711936 1.1864375 3171752
-0.0323494 -0.16981989 1.193719 3039909
-0.024423638 -0.16986927 1.194068 3105701
-0.015975984 -0.17179373 1.1951759 3105443
-0.0058726724 -0.176332 1.196003 3040163
0.024643658 -0.1728068 1.1938659 3105960
0.035879403 -0.17072716 1.1930686 3105958
0.044738255 -0.16845864 1.1916296 3237545
0.054908194 -0.16653226 1.18981 3237547
0.064829513 -0.1653735 1.1886086 3237544
0.074819423 -0.16429043 1.1879944 3237545
0.083179958 -0.16158766 1.1863656 3303339
-0.04433836 -0.16138071 1.1944268 3172009
-0.035531141 -0.16378513 1.1962618 3105961
-0.025952077 -0.16517782 1.1972283 3171752
0.057738438 -0.15945041 1.1914206 3303337
0.06453722 -0.15886894 1.1909472 3303593
0.07448975 -0.15703708 1.1902411 3303594
0.08333233 -0.153666 1.1883373 3303596
0.089796312 -0.15161937 1.1851106 3238062
-0.052409619 -0.15351871 1.194874 3434409
-0.046358578 -0.15474927 1.1973065 3237547
-0.037785962 -0.15638681 1.1979208 3237805
0.083747886 -0.14629316 1.189463 3238318
0.092661075 -0.14259574 1.1876804 3238572
0.10259128 -0.14154387 1.1853021 3434926
0.10891911 -0.14040536 1.1836507 3369134
-0.055426694 -0.14470258 1.1961962 3435179
-0.049187645 -0.14616923 1.198119 3369388
0.096771978 -0.13551776 1.1884266 3500977
0.10198829 -0.1315273 1.1870135 3435186
0.10721042 -0.13112494 1.1836432 3500720
-0.064827815 -0.13472684 1.1964748 3566511
-0.058798991 -0.13708816 1.1977643 3566767
-0.051316798 -0.13902989 1.1986146 3500977
0.1028233 -0.12379137 1.1873537 3501234
0.11026776 -0.12072478 1.1840461 3501490
-0.075562522 -0.12242997 1.1960425 3566770
-0.06827224 -0.12638691 1.1982027 3632306
-0.061163686 -0.13071901 1.1991774 3632563
0.11144149 -0.11191489 1.1856903 3699127
0.11858553 -0.11002803 1.183053 3633076
-0.077174596 -0.11695149 1.1970819 3566770
-0.070923634 -0.11729612 1.1996657 3763892
0.11164789 -0.10278194 1.1869689 3633335
0.11792986 -0.10006072 1.1840519 3764407
-0.078046836 -0.10689562 1.1988111 3698868
-0.073594414 -0.10711981 1.1997122 3699126
0.11118829 -0.090807885 1.1868397 3962811
0.1176166 -0.090355635 1.1852241 3830969
0.12512065 -0.089953989 1.1818646 3830714
-0.080195121 -0.097101331 1.1969454 3699126
-0.074704088 -0.097171798 1.1996547 3830712
0.11749794 -0.080385096 1.1856664 4028606
0.1253873 -0.079831332 1.1817105 3962300
-0.08038529 -0.08759252 1.1975094 3830970
-0.075377136 -0.086823232 1.199562 3962813
0.11703244 -0.071328983 1.1861783 4291522
0.12458313 -0.070296422 1.1820022 4094399
-0.081540391 -0.077584907 1.1975689 3962044
-0.076510653 -0.077440247 1.1995137 4093630
0.11766759 -0.0604931 1.1857221 4554438
0.12229332 -0.060873628 1.1816682 4357059
-0.081807397 -0.067530476 1.1970704 4093886
-0.077136286 -0.066379346 1.1994082 4291009
0.11489954 -0.050151668 1.1851493 4686026
0.12068785 -0.049770776 1.1816292 4685769
-0.080919757 -0.060171306 1.1955744 4159935
-0.075964451 -0.057248451 1.1980599 4225985
0.10688815 -0.040833954 1.186464 5015248
0.11286595 -0.041621815 1.183392 5014991
-0.073858701 -0.047220055 1.19704 4292037
-0.068200298 -0.048943508 1.1985625 4619977
-0.046124078 -0.040190678 1.1969333 5279449
-0.038192168 -0.039512306 1.1963811 5016538
-0.025630003 -0.039582066 1.1955217 4950743
-0.016021302 -0.040442836 1.1948754 4950488
-0.0069919042 -0.039513562 1.1942445 5147351
0.003313683 -0.037678741 1.1935142 5278422
0.013956741 -0.03909814 1.1919134 5212886
0.02313666 -0.037654474 1.1904023 5278423
0.033012025 -0.035965711 1.1902045 5147094
0.043968264 -0.035427637 1.1907001 4885460
0.053219669 -0.033132382 1.1893067 4950741
0.062281355 -0.031834681 1.1893978 5016279
0.10446686 -0.031162381 1.1850966 5212370
0.11173995 -0.031720988 1.1819998 5212369
-0.072394639 -0.040103093 1.1967263 4423370
-0.070635036 -0.036748998 1.1961598 4554187
-0.046109021 -0.035150606 1.1965973 5147610
-0.036490791 -0.033609133 1.1941805 5081818
-0.027244462 -0.035101343 1.1935674 5016538
-0.016274666 -0.032720316 1.1929179 5278938
-0.0072752461 -0.031341977 1.1922832 5344730
0.003134327 -0.031341389 1.1905011 5673948
0.013418589 -0.032717872 1.1887461 5805277
0.022453338 -0.03194518 1.188117 5541848
0.032520026 -0.029943913 1.1874008 5475544
0.042489305 -0.026810698 1.1866761 5213397
0.053181693 -0.026516207 1.1866475 5082070
0.062863149 -0.024890915 1.1876611 5016536
0.07167089 -0.021943979 1.1886222 5213915
0.082270928 -0.020056754 1.187871 5279453
0.093188055 -0.019580714 1.1871171 5213659
0.10270955 -0.021708831 1.1848897 5212628
0.10912059 -0.021112114 1.1820369 5146833
-0.070932083 -0.030809462 1.1944966 4554443
-0.046016499 -0.02685409 1.1927375 5016281
-0.038710773 -0.027141511 1.192241 5147611
-0.0076888315 -0.025400624 1.1900933 5411294
0.062317304 -0.014852181 1.1851579 5148123
0.071001388 -0.014112562 1.1847539 5213915
0.081101865 -0.013467751 1.1855963 5213917
0.091827348 -0.012480028 1.1854267 5213659
0.099797912 -0.013552301 1.1829081 5212887
0.091848716 -0.0054846779 1.1830101 5279708
0.096366093 -0.0050983354 1.1826955 5411037
0.00013195351 -0.17652631 1.2006065 3106213
0.0058212727 -0.17603974 1.2002103 3105959
0.017093435 -0.17573223 1.1994344 3105706
0.027440678 -0.17419076 1.1987051 3105960
