# .PCD v0.7 - Point Cloud Data file format
VERSION 0.7
FIELDS x y z rgba
SIZE 4 4 4 4
TYPE F F F U
COUNT 1 1 1 1
WIDTH 174
HEIGHT 1
VIEWPOINT 0 0 0 1 0 0 0
POINTS 174
DATA ascii
-0.34689283 0.09582708 1.089522 5134174
-0.34058082 0.095778905 1.0923854 5134176
-0.34836233 0.10027281 1.0890658 4871515
-0.35309556 0.076520495 1.0934849 4936281
-0.34330979 0.076388843 1.0979215 5199967
-0.33899909 0.077482946 1.0999304 5397348
-0.36172244 0.081235223 1.0894622 4673880
-0.35398334 0.082540028 1.0909299 4870232
-0.34585199 0.084725939 1.0955138 5068382
-0.33749235 0.087266952 1.1000293 5068384
-0.33130997 0.090486936 1.1040382 4476504
-0.36360794 0.09041284 1.0875391 4607822
-0.35681194 0.092076227 1.0892378 4673623
-0.34693554 0.093810961 1.093804 5134174
-0.33791682 0.097021647 1.0980508 4739419
-0.33150935 0.098479196 1.1024424 4081746
-0.36631712 0.098455332 1.0885228 4410445
-0.3579371 0.10150377 1.0891742 4213839
-0.34893811 0.10431551 1.0933931 4345429
-0.33994395 0.10617291 1.0975647 4016211
-0.33314887 0.1076121 1.1019863 3621193
-0.35860074 0.10694001 1.0891308 3884109
-0.35052198 0.11000169 1.0929438 3752784
-0.34129533 0.11227378 1.0972406 3621192
-0.33461145 0.11284742 1.1003022 3686459
-0.36212304 0.062327262 1.1001768 4673626
-0.35356921 0.063383512 1.100988 4870741
-0.34529358 0.064293243 1.1049912 5265754
-0.33666202 0.067234658 1.1093433 5397604
-0.33094507 0.071687639 1.115404 4608350
-0.36337227 0.07105387 1.095705 4673629
-0.3547405 0.071524687 1.0972645 4870744
-0.34678954 0.07190682 1.100526 5134174
-0.33659407 0.076591149 1.1060939 5397606
-0.33116534 0.079034448 1.1132541 4476760
-0.32742813 0.084282316 1.1175982 4015442
-0.37319469 0.07735613 1.0964913 3883351
-0.36797312 0.078374304 1.093194 4475995
-0.33694839 0.083179072 1.1055286 5068641
-0.33040121 0.088250428 1.110998 4082513
-0.32722384 0.090508588 1.1174366 3752531
-0.3707532 0.087888606 1.091064 4079443
-0.33042786 0.097590216 1.1108215 3621705
-0.32718891 0.096161604 1.1156321 3751503
-0.33289811 0.1046799 1.1083875 3490378
-0.35269323 0.046599213 1.1164318 5002588
-0.34986204 0.047296405 1.1177503 5528419
-0.3642039 0.053635489 1.1115397 4739163
-0.35594988 0.052541498 1.1119984 5002333
-0.34745669 0.054315146 1.1158775 5397092
-0.34030467 0.05824203 1.1208026 5332066
-0.33589205 0.060607348 1.1247241 4740695
-0.36415744 0.05743181 1.1059698 4082256
-0.35703367 0.057897728 1.1073024 5068120
-0.33770147 0.063321061 1.1185352 5200736
-0.33204192 0.068296984 1.1236891 4345175
-0.32712704 0.0716272 1.1285981 4278096
-0.33036122 0.078273922 1.1213207 4147028
-0.32768375 0.078688942 1.1270454 3819087
-0.32793298 0.086147137 1.1231735 3687502
-0.34830052 0.036062386 1.1300181 5528423
-0.34460485 0.037526216 1.1317655 5397348
-0.35692325 0.041715935 1.1205089 4804702
-0.34824768 0.04360766 1.1239002 5462626
-0.3411288 0.046170499 1.1300895 5003105
-0.33512244 0.051357146 1.1340885 4804440
-0.36775777 0.049476475 1.1174238 3817824
-0.36001724 0.047299962 1.1164377 4673622
-0.34582335 0.050795238 1.1230476 5660265
-0.33962157 0.053921994 1.1260116 5069150
-0.33306047 0.058548015 1.1314083 4475986
-0.32917058 0.063916422 1.1334291 4014924
-0.33110067 0.065417655 1.1304255 4606547
-0.32675803 0.069018051 1.1331174 3620428
-0.35551068 0.027676016 1.1340417 4079956
-0.34851086 0.028252527 1.1347344 5266270
-0.34436634 0.029863141 1.139205 5002845
-0.35856321 0.033151262 1.130717 4079963
-0.3504402 0.032364171 1.1321691 5330781
-0.34228683 0.036753073 1.1378895 5002331
-0.33998221 0.043379009 1.1374396 5001816
-0.3373993 0.047017176 1.1401039 4540755
-0.33443731 0.054738633 1.1404959 4213074
-0.35284191 0.018080011 1.1479893 5265766
-0.3537744 0.022286953 1.1446247 5068639
-0.34623247 0.025819425 1.1476929 4214103
-0.36024117 0.026847169 1.1362518 1580089
-0.34216478 0.033219662 1.1454937 4145996
-0.34071562 0.039483469 1.145716 4212054
-0.35953787 0.015524695 1.1481258 3618132
-0.35444301 0.015650241 1.1504447 5199718
-0.34885097 0.01815637 1.1531025 4214875
-0.34389657 -0.041267641 1.1701211 528927
-0.33922121 -0.040803179 1.1722658 1517876
-0.34281969 -0.051166549 1.1833316 4419983
-0.35685006 -0.047721386 1.1749266 1651559
-0.35089824 -0.04564964 1.1742722 1782104
-0.33877295 -0.045370493 1.1774741 4154236
-0.33652401 -0.041090496 1.182899 3028033
-0.35194847 -0.038380172 1.1797936 2369321
-0.34352115 -0.036620092 1.1797458 2040105
-0.35436422 -0.019478429 1.1751964 4146252
-0.35965085 -0.052890249 1.1844023 5077683
-0.35251153 -0.053864319 1.1861317 4617364
-0.34409007 -0.052178625 1.1900351 4549258
-0.33946592 -0.045652866 1.1895127 6582660
-0.36138588 -0.041767459 1.1797453 7695014
-0.35565901 -0.03647365 1.1833293 2040625
-0.34847936 -0.033483412 1.185998 2172202
-0.34141588 -0.036849804 1.1890451 2760198
-0.3555274 -0.063488364 1.1945658 4683677
-0.35048434 -0.062246498 1.1969142 3831442
-0.36329296 -0.058382034 1.190026 3299734
-0.35600001 -0.058938388 1.191769 4683420
-0.34869766 -0.057600547 1.196187 3960460
-0.35126773 -0.1365651 1.2073234 3829135
-0.34417924 -0.13432407 1.2106479 4223637
-0.33857399 -0.1334054 1.2132363 3960467
-0.35401484 -0.12759843 1.2065016 3498881
-0.34649363 -0.12529907 1.2095857 3895695
-0.33999899 -0.12230752 1.2131159 3631246
-0.35509232 -0.11653673 1.2032394 3499128
-0.34850761 -0.11573996 1.2062668 4025235
-0.34169182 -0.11297115 1.2115339 3499655
-0.35575458 -0.10717233 1.2011845 3826560
-0.34998897 -0.10576978 1.2044183 4156303
-0.34385416 -0.10467793 1.2100034 3630985
-0.35883552 -0.097971715 1.2035199 3893387
-0.35242376 -0.096160725 1.2048069 4157333
-0.34687701 -0.094155982 1.2096798 3762828
-0.35999021 -0.089421719 1.2055998 3762325
-0.35398877 -0.085518487 1.2044791 4420507
-0.34941623 -0.084428221 1.2091717 3828877
-0.36399645 -0.076189607 1.2044086 4222878
-0.35570559 -0.076255992 1.2040657 4552347
-0.35134864 -0.075439192 1.209307 3631755
-0.36494079 -0.068613291 1.1981834 3627913
-0.35606784 -0.06831184 1.1999543 4683676
-0.35122389 -0.065623023 1.2055122 3892613
-0.35073555 -0.057581589 1.2025177 3563127
-0.35280719 -0.14674506 1.2121091 3033484
-0.34621105 -0.14600021 1.2177718 2897991
-0.33726946 -0.14300154 1.2214347 3891064
-0.33144277 -0.14069378 1.2260216 2638186
-0.35774487 -0.13869616 1.2086788 666715
-0.34761488 -0.13851131 1.2132866 4813457
-0.33623219 -0.13267685 1.2187313 3499654
-0.33143198 -0.13115937 1.2250324 3561592
-0.36079085 -0.12772803 1.2078162 6722
-0.33840853 -0.12340516 1.218183 3694979
-0.3334769 -0.12181452 1.2226959 3233144
-0.33926105 -0.11291584 1.2182935 3104639
-0.33643466 -0.11202268 1.2231168 2640231
-0.34197238 -0.10359755 1.2175046 2907007
-0.33996654 -0.10296598 1.2234418 3099492
-0.36446425 -0.096534893 1.2076283 4089741
-0.34454274 -0.094354212 1.2171687 3496061
-0.34288663 -0.092523798 1.2231112 4278874
-0.36416638 -0.088139907 1.2081617 2972810
-0.34777865 -0.08445026 1.2172759 3757171
-0.34566897 -0.084853053 1.2222118 3748927
-0.36439198 -0.082251444 1.2083386 3630740
-0.34827474 -0.077093735 1.2159007 3953004
-0.34756532 -0.1524501 1.2225412 984897
-0.33912918 -0.14638063 1.2266592 4350584
-0.33547723 -0.12076072 1.2302654 4674411
-0.33833581 -0.11256853 1.2319212 6974583
-0.34228224 -0.10213556 1.2306244 3815753
-0.37147918 -0.098458052 1.2142454 5799072
-0.3423731 -0.092488237 1.2277429 5064001
-0.33918008 -0.1270975 1.2418412 7039097
-0.34108514 -0.12156014 1.2423382 7565430
-0.34343311 -0.11324475 1.2413003 8223350
-0.34354064 -0.1050446 1.2365106 9076613
