# .PCD v0.7 - Point Cloud Data file format
VERSION 0.7
FIELDS x y z rgba
SIZE 4 4 4 4
TYPE F F F U
COUNT 1 1 1 1
WIDTH 174
HEIGHT 1
VIEWPOINT 0 0 0 1 0 0 0
POINTS 174
DATA ascii
0.090439729 -0.045369253 1.0713533 5134174
0.096819825 -0.047926769 1.0704609 5134176
0.090255097 -0.043031633 1.0754317 4871515
0.07961224 -0.057385959 1.058497 4936281
0.089486837 -0.061373353 1.0570637 5199967
0.094174616 -0.062677205 1.0574379 5397348
0.072207928 -0.05176723 1.0636389 4673880
0.08012405 -0.052469917 1.0628698 4870232
0.08911714 -0.055591278 1.0640061 5068382
0.098418176 -0.058494806 1.065344 5068384
0.10577814 -0.06066072 1.0677526 4476504
0.072771341 -0.046050981 1.0712868 4607822
0.079930604 -0.046811402 1.0712212 4673623
0.090444468 -0.050101995 1.0714048 5134174
0.10052241 -0.052467786 1.0729923 4739419
0.10764638 -0.055744328 1.0739816 4081746
0.072652258 -0.043450832 1.079424 4410445
0.081556052 -0.042655051 1.0796016 4213839
0.091496989 -0.045169652 1.0808436 4345429
0.10115311 -0.048057228 1.0812531 4016211
0.10864326 -0.051366389 1.0821147 3621193
0.082478307 -0.040252402 1.0844361 3884109
0.091560319 -0.042298689 1.0860201 3752784
0.10157357 -0.045116849 1.0867603 3621192
0.10851277 -0.047579631 1.0863606 3686459
0.067971066 -0.069650233 1.052032 4673626
0.076492116 -0.069864996 1.0505195 4870741
0.085171849 -0.073018461 1.0502819 5265754
0.094821312 -0.075598791 1.051807 5397604
0.10239203 -0.079077497 1.0562598 4608350
0.068637252 -0.0618321 1.058044 4673629
0.077173196 -0.062974796 1.056314 4870744
0.085286513 -0.065692581 1.0554259 5134174
0.097093016 -0.068598002 1.0584354 5397606
0.10397506 -0.073943645 1.0617173 4476760
0.10964897 -0.075543836 1.0667793 4015442
0.06125474 -0.059858382 1.0668994 3883351
0.066011757 -0.056413054 1.0647374 4475995
0.098562174 -0.065221965 1.0639391 5068641
0.10701025 -0.067893773 1.0684102 4082513
0.11160225 -0.072685122 1.0719607 3752531
0.065794319 -0.05036965 1.0728748 4079443
0.1096344 -0.06366688 1.0763165 3621705
0.11299203 -0.068598211 1.0760325 3751503
0.10897171 -0.058403805 1.0821605 3490378
0.074760094 -0.091071472 1.0422566 5002588
0.077832684 -0.091936231 1.0424837 5528419
0.065163359 -0.083677709 1.0499489 4739163
0.072733358 -0.084513716 1.0465529 5002333
0.08184851 -0.087177739 1.0469317 5397092
0.090462431 -0.089854248 1.0500084 5332066
0.095888928 -0.092325218 1.0522201 4740695
0.065484725 -0.077010185 1.0508865 4082256
0.072558217 -0.07796064 1.0495435 5068120
0.094052657 -0.085583992 1.0525756 5200736
0.10158693 -0.08801914 1.0571207 4345175
0.10790904 -0.090955541 1.0604 4278096
0.10569175 -0.081530727 1.0641224 4147028
0.10917865 -0.08648555 1.0659674 3819087
0.11051573 -0.079753384 1.0708222 3687502
0.077877775 -0.10786207 1.037433 5528423
0.082050942 -0.10877331 1.0382129 5397348
0.069948457 -0.096895799 1.041122 4804702
0.079199262 -0.099068187 1.0413427 5462626
0.087574951 -0.10347697 1.0437851 5003105
0.09533006 -0.10477847 1.0479244 4804440
0.061462238 -0.090808742 1.0499573 3817824
0.068025798 -0.090819024 1.0452092 4673622
0.083429776 -0.095154375 1.0463477 5660265
0.090629444 -0.096420199 1.0482415 5069150
0.098952599 -0.099220507 1.0522982 4475986
0.10446778 -0.098675862 1.0564599 4014924
0.10263319 -0.095330834 1.0571275 4606547
0.10816837 -0.096157618 1.0599108 3620428
0.069232792 -0.11518335 1.0342442 4079956
0.076127499 -0.11551042 1.0327725 5266270
0.081163809 -0.11880615 1.0346518 5002845
0.067426763 -0.10982566 1.0385317 4079963
0.075105041 -0.11142291 1.0358475 5330781
0.084915206 -0.11460748 1.0393234 5002331
0.088930063 -0.1113015 1.044053 5001816
0.092805557 -0.11209832 1.0474222 4540755
0.097879127 -0.10906868 1.0532212 4213074
0.071039863 -0.13190049 1.0309255 5265766
0.070872471 -0.12704557 1.0334334 5068639
0.079472631 -0.1282198 1.0352857 4214103
0.064836986 -0.11756442 1.0359635 1580089
0.085124515 -0.1229905 1.0393915 4145996
0.088323265 -0.12045281 1.0443627 4212054
0.063986711 -0.13317974 1.0309513 3618132
0.069184743 -0.13517947 1.0303745 5199718
0.075584725 -0.13644391 1.0318086 4214875
0.065731302 -0.17761427 0.9864952 528927
0.070603788 -0.17931214 0.98627079 1517876
0.065836899 -0.19381018 0.98312664 4419983
0.052314594 -0.1848349 0.98712116 1651559
0.058449242 -0.18330491 0.98670894 1782104
0.070477508 -0.18598688 0.98436797 4154236
0.074621983 -0.18899107 0.98952574 3028033
0.060339648 -0.18511531 0.99551708 2369321
0.068817534 -0.18425101 0.99429303 2040105
0.062797196 -0.17275977 1.0105354 4146252
0.049559698 -0.19563386 0.98750073 5077683
0.056293178 -0.1975686 0.98508686 4617364
0.065318763 -0.2002933 0.98542368 4549258
0.071490996 -0.19695069 0.98929298 6582660
0.050425164 -0.18660836 0.99563748 7695014
0.057885937 -0.18749146 0.99978757 2040625
0.065929629 -0.18854457 1.0011294 2172202
0.072097696 -0.19270796 0.99723947 2760198
0.051907077 -0.20937179 0.98130584 4683677
0.05738008 -0.21091214 0.98171037 3831442
0.045355439 -0.20311165 0.9862932 3299734
0.052356012 -0.20487553 0.98419195 4683420
0.060296983 -0.20822228 0.98480266 3960460
0.03686576 -0.25265807 0.92281502 3829135
0.044703912 -0.25462851 0.92381614 4223637
0.050651632 -0.25652194 0.92386287 3960467
0.036712926 -0.24803047 0.93101168 3498881
0.04494261 -0.24975623 0.93182486 3895695
0.052463241 -0.25158876 0.93374163 3631246
0.038386449 -0.24028286 0.93945789 3499128
0.045290615 -0.2426181 0.93926626 4025235
0.053304181 -0.2461091 0.94160306 3499655
0.040142573 -0.23435855 0.94681805 3826560
0.046474598 -0.23662111 0.94749123 4156303
0.053409178 -0.24113314 0.9487462 3630985
0.040199742 -0.23247319 0.95661807 3893387
0.046977539 -0.23280123 0.95663279 4157333
0.053513125 -0.23627833 0.95856327 3762828
0.041857522 -0.23062864 0.96513927 3762325
0.048495922 -0.22788082 0.96608257 4420507
0.053820796 -0.23160024 0.96747148 3828877
0.041680299 -0.22381887 0.97722864 4222878
0.0494629 -0.22348538 0.97436857 4552347
0.054585069 -0.22781922 0.97581857 3631755
0.042050734 -0.21492147 0.98144102 3627913
0.050797313 -0.21632665 0.97957587 4683676
0.056962892 -0.22012694 0.98259711 3892613
0.059293136 -0.21392575 0.98807293 3563127
0.03318809 -0.26140988 0.91658735 3033484
0.040471442 -0.26613986 0.91742986 2897991
0.050330706 -0.2680729 0.91862142 3891064
0.05717659 -0.27115875 0.92060304 2638186
0.030318603 -0.2548483 0.92363316 666715
0.040634736 -0.25884977 0.9224298 4813457
0.053877048 -0.26113552 0.92598891 3499654
0.059773788 -0.26611534 0.92832983 3561592
0.030450076 -0.24931416 0.93361706 6722
0.054391861 -0.25661761 0.93437493 3694979
0.060173985 -0.25995505 0.93600166 3233144
0.056604937 -0.25215375 0.94364536 3104639
0.060238712 -0.25608793 0.94548047 2640231
0.056591474 -0.2474024 0.95214409 2907007
0.059535272 -0.2524586 0.95447695 3099492
0.035878219 -0.23558182 0.96133888 4089741
0.056755919 -0.24309057 0.96071965 3496061
0.059712645 -0.24763151 0.96418995 4278874
0.038642373 -0.23240344 0.96862632 2972810
0.056543738 -0.23889405 0.9702546 3757171
0.059144009 -0.24349886 0.97126019 3748927
0.040140986 -0.22999929 0.97379643 3630740
0.057980981 -0.23445505 0.97612703 3953004
0.038035125 -0.27325112 0.91431916 984897
0.048361406 -0.27425945 0.9184804 4350584
0.059682209 -0.26632249 0.94065166 4674411
0.059562266 -0.26426315 0.94924057 6974583
0.058624577 -0.25857711 0.9588787 3815753
0.029646471 -0.24242131 0.9646678 5799072
0.060882673 -0.25178191 0.9659574 5064001
0.056043908 -0.27952635 0.94118667 7039097
0.055898085 -0.27757415 0.94672799 7565430
0.055905271 -0.27303314 0.95415193 8223350
0.057455637 -0.26515079 0.95921743 9076613
