# .PCD v0.7 - Point Cloud Data file format
VERSION 0.7
FIELDS x y z rgba
SIZE 4 4 4 4
TYPE F F F U
COUNT 1 1 1 1
WIDTH 174
HEIGHT 1
VIEWPOINT 0 0 0 1 0 0 0
POINTS 174
DATA ascii
0.089819334 -0.059614107 1.0791383 5134174
0.096239813 -0.061963856 1.0779985 5134176
0.089699633 -0.057344571 1.0832574 4871515
0.078936584 -0.071758568 1.0664498 4936281
0.088872842 -0.075423591 1.0646333 5199967
0.093607083 -0.076590568 1.0648342 5397348
0.071541771 -0.066444054 1.0719185 4673880
0.079445668 -0.066895425 1.0708816 4870232
0.088560119 -0.069760107 1.0716755 5068382
0.097982369 -0.072400793 1.0726643 5068384
0.10547878 -0.074379042 1.0747979 4476504
0.072186418 -0.060828716 1.0796343 4607822
0.079359084 -0.061371237 1.0793244 4673623
0.089966483 -0.064344779 1.0791141 5134174
0.1001571 -0.066428289 1.0803356 4739419
0.10740405 -0.069502383 1.0810407 4081746
0.072258003 -0.058355704 1.0878116 4410445
0.081135221 -0.057293788 1.0877129 4213839
0.091182016 -0.059524976 1.0885912 4345429
0.10092796 -0.062125064 1.0886409 4016211
0.1085375 -0.065218769 1.089206 3621193
0.08214426 -0.054937124 1.0925527 3884109
0.091330327 -0.056731373 1.0938082 3752784
0.10144188 -0.059256241 1.0941778 3621192
0.10843431 -0.061501786 1.0935138 3686459
0.067458704 -0.084270909 1.0601708 4673626
0.075927958 -0.084205195 1.0583793 4870741
0.084685087 -0.087090828 1.0578098 5265754
0.094451979 -0.089400776 1.0589796 5397604
0.10226525 -0.092715353 1.0631282 4608350
0.068089679 -0.076527253 1.0662822 4673629
0.076594256 -0.077385232 1.0642581 4870744
0.084751159 -0.079842806 1.0630639 5134174
0.096731491 -0.082434699 1.0656419 5397606
0.10387373 -0.087618411 1.0686127 4476760
0.10975626 -0.089122027 1.0734618 4015442
0.060947258 -0.074910708 1.075403 3883351
0.065525979 -0.071291067 1.073143 4475995
0.098279998 -0.079098687 1.0711482 5068641
0.10694636 -0.081580579 1.0752994 4082513
0.11179319 -0.086283579 1.078622 3752531
0.065396942 -0.065379724 1.0813787 4079443
0.10970252 -0.07739532 1.0831829 3621705
0.11319412 -0.082218044 1.0827113 3751503
0.10907637 -0.072242931 1.0891286 3490378
0.074556179 -0.10532804 1.0498393 5002588
0.077658921 -0.10610279 1.0499526 5528419
0.065002263 -0.09834405 1.0579561 4739163
0.072477877 -0.098899737 1.0543034 5002333
0.081675738 -0.1012923 1.0543436 5397092
0.090462036 -0.10375294 1.0570959 5332066
0.09602946 -0.10609158 1.0590905 4740695
0.065155931 -0.091684669 1.0589892 4082256
0.07220652 -0.092400536 1.0574024 5068120
0.09400627 -0.099415056 1.0596131 5200736
0.10175514 -0.10168915 1.0638717 4345175
0.10826628 -0.10448189 1.0668969 4278096
0.10589349 -0.095185325 1.0708394 4147028
0.109585 -0.10005955 1.0724909 3819087
0.11088041 -0.093363605 1.0774066 3687502
0.07801123 -0.12194245 1.0446494 5528423
0.082233056 -0.12273867 1.0452788 5397348
0.069885097 -0.11127753 1.0487685 4804702
0.079198651 -0.11317225 1.0486542 5462626
0.087777577 -0.11736188 1.0507526 5003105
0.095700011 -0.1184902 1.0546168 4804440
0.061517082 -0.10558306 1.0579706 3817824
0.067918189 -0.10532365 1.0530124 4673622
0.083473392 -0.10920781 1.0535811 5660265
0.090765938 -0.11028361 1.0552197 5069150
0.099297702 -0.11289147 1.0589589 4475986
0.10492826 -0.11224277 1.0629476 4014924
0.10301799 -0.10896514 1.0637277 4606547
0.10866392 -0.10966583 1.0663164 3620428
0.06948746 -0.12947315 1.0416261 4079956
0.076336674 -0.12956947 1.0399265 5266270
0.081527874 -0.13273922 1.0415884 5002845
0.067665055 -0.12423742 1.0460551 4079963
0.075294904 -0.12556133 1.043098 5330781
0.085304521 -0.12849955 1.0462024 5002331
0.089372814 -0.12514499 1.0508513 5001816
0.093379095 -0.1258747 1.0540799 4540755
0.098548479 -0.12278032 1.0597588 4213074
0.071680553 -0.14607634 1.0379839 5265766
0.071451537 -0.14126687 1.0405732 5068639
0.080139115 -0.14220814 1.0421264 4214103
0.065223381 -0.13201158 1.043449 1580089
0.085765116 -0.1368725 1.0461296 4145996
0.0890489 -0.13431409 1.0510343 4212054
0.06467323 -0.14756852 1.0382181 3618132
0.069906622 -0.14940129 1.0374411 5199718
0.076385096 -0.150493 1.0386463 4214875
0.066273861 -0.19125825 0.99302459 528927
0.071184643 -0.19280444 0.99261498 1517876
0.066750012 -0.20739122 0.98939598 4419983
0.053105645 -0.19888985 0.9939701 1651559
0.059175197 -0.19716904 0.99338359 1782104
0.071194306 -0.19945066 0.9906109 4154236
0.075593807 -0.20240517 0.99558276 3028033
0.061407514 -0.19905335 1.0020957 2369321
0.069811068 -0.19791484 1.0006111 2040105
0.063989654 -0.18685578 1.0172217 4146252
0.050687037 -0.20977166 0.99426633 5077683
0.057391956 -0.21146548 0.99160457 4617364
0.066500753 -0.21392076 0.99160475 4549258
0.072694898 -0.21045144 0.99532461 6582660
0.051551145 -0.20084716 1.0025139 7695014
0.059167441 -0.2015664 1.006405 2040625
0.067278698 -0.2023958 1.0074681 2172202
0.073436439 -0.20631196 1.003314 2760198
0.053236645 -0.22333787 0.98777974 4683677
0.058763377 -0.22471792 0.98798186 3831442
0.046669502 -0.21735421 0.9930765 3299734
0.053646456 -0.21887387 0.99072129 4683420
0.061699226 -0.22198777 0.99102044 3960460
0.037571758 -0.26617709 0.92912376 3829135
0.045493737 -0.2679244 0.92983836 4223637
0.051493436 -0.26963758 0.92966181 3960467
0.037551299 -0.26167968 0.93739396 3498881
0.045850962 -0.2631678 0.93791193 3895695
0.053481773 -0.26480061 0.9395541 3631246
0.039270848 -0.25401255 0.94590414 3499128
0.046231344 -0.25613481 0.94545126 4025235
0.054417737 -0.25941655 0.94747066 3499655
0.041091383 -0.2481489 0.95329714 3826560
0.047506604 -0.25022879 0.9537282 4156303
0.054609824 -0.25454736 0.95468527 3630985
0.041415028 -0.24640986 0.96311897 3893387
0.048196394 -0.24653299 0.96290851 4157333
0.054892473 -0.24983943 0.96457005 3762828
0.043296836 -0.24464405 0.97161025 3762325
0.049878053 -0.2417112 0.97238147 4420507
0.055353992 -0.2452883 0.97353715 3828877
0.043315269 -0.2380248 0.98380631 4222878
0.050986145 -0.23741329 0.98070085 4552347
0.05627986 -0.24161151 0.98191446 3631755
0.043559462 -0.22918448 0.98814607 3627913
0.052277815 -0.23029637 0.98597586 4683676
0.058649771 -0.23395337 0.98873425 3892613
0.060973592 -0.22776739 0.99423003 3563127
0.033952914 -0.27494171 0.92287964 3033484
0.041397467 -0.27946138 0.9234097 2897991
0.051343724 -0.28111309 0.92424953 3891064
0.058339849 -0.28401989 0.92595845 2638186
0.031123094 -0.26857632 0.9301188 666715
0.041508436 -0.27224553 0.92851752 4813457
0.05492283 -0.27418289 0.93160802 3499654
0.061038889 -0.27901667 0.93367642 3561592
0.03141854 -0.2631911 0.94018036 6722
0.055578858 -0.26977777 0.94004405 3694979
0.061508074 -0.27296287 0.94142878 3233144
0.057962194 -0.26538861 0.94930792 3104639
0.061769772 -0.26923814 0.95096099 2640231
0.058087237 -0.26076782 0.95787746 2907007
0.061255265 -0.2657671 0.9600324 3099492
0.037345584 -0.24971819 0.96792728 4089741
0.058405608 -0.25658208 0.96651095 3496061
0.061608672 -0.26108307 0.96981049 4278874
0.040252402 -0.24656735 0.97517103 2972810
0.058382731 -0.25253737 0.97611356 3757171
0.061150458 -0.257076 0.9769606 3748927
0.04184825 -0.24419679 0.98032755 3630740
0.059879884 -0.24814549 0.98200643 3953004
0.039072584 -0.28659564 0.92026645 984897
0.049555659 -0.28735355 0.9240737 4350584
0.061359167 -0.27941129 0.94598991 4674411
0.061460838 -0.27748555 0.95460999 6974583
0.060672276 -0.27197567 0.9643631 3815753
0.031432904 -0.25679219 0.97134697 5799072
0.062959135 -0.26522222 0.97147244 5064001
0.058134641 -0.29272568 0.94643164 7039097
0.058113322 -0.29086211 0.95200527 7565430
0.058229871 -0.2864348 0.95949668 8223350
0.059711091 -0.278586 0.96463448 9076613
