# .PCD v0.7 - Point Cloud Data file format
VERSION 0.7
FIELDS x y z rgba
SIZE 4 4 4 4
TYPE F F F U
COUNT 1 1 1 1
WIDTH 174
HEIGHT 1
VIEWPOINT 0 0 0 1 0 0 0
POINTS 174
DATA ascii
0.092028156 -0.099170104 1.0966301 5134174
0.098230593 -0.10083065 1.0940195 5134176
0.092594281 -0.097239748 1.1008829 4871515
0.079687901 -0.11126061 1.0852962 4936281
0.089277968 -0.11385484 1.081202 5199967
0.094024703 -0.11459656 1.0803455 5397348
0.073209718 -0.10707334 1.0925992 4673880
0.08074031 -0.10672127 1.0899693 4870232
0.090008542 -0.10879372 1.0886598 5068382
0.09960077 -0.11063042 1.0874997 5068384
0.10750149 -0.11207197 1.0879021 4476504
0.07501702 -0.10202366 1.1005186 4607822
0.081991062 -0.10188396 1.0987351 4673623
0.092516519 -0.10385207 1.0961381 5134174
0.10286526 -0.10508303 1.0951036 4739419
0.11030865 -0.10752718 1.0940607 4081746
0.076592878 -0.1001814 1.1087106 4410445
0.085154951 -0.09830901 1.1069423 4213839
0.095303401 -0.099673703 1.1055878 4345429
0.10501449 -0.10136936 1.1034511 4016211
0.11278413 -0.10378926 1.1021973 3621193
0.086964726 -0.096243702 1.1116809 3884109
0.096319012 -0.097281724 1.1109067 3752784
0.10644731 -0.098893568 1.1090161 3621192
0.11329833 -0.10043449 1.1067652 3686459
0.068118028 -0.12425657 1.0802993 4673626
0.076006114 -0.12328226 1.0768684 4870741
0.084645696 -0.12530479 1.0742983 5265754
0.094587103 -0.12679535 1.0732769 5397604
0.10331196 -0.12968758 1.0754576 4608350
0.069423229 -0.11697324 1.0868537 4673629
0.077366039 -0.11689524 1.0831032 4870744
0.085259326 -0.1185002 1.080083 5134174
0.097671941 -0.12017534 1.0799676 5397606
0.1056371 -0.12489551 1.08096 4476760
0.11248901 -0.12621897 1.0843772 4015442
0.06421902 -0.11671159 1.0973258 3883351
0.067951798 -0.11252817 1.0945438 4475995
0.10007328 -0.11713889 1.0853398 5068641
0.10956945 -0.11912664 1.0874302 4082513
0.11533222 -0.12360574 1.0892682 3752531
0.069089741 -0.10729463 1.1031522 4079443
0.11357722 -0.11531687 1.0949594 3621705
0.11724299 -0.11975099 1.0933553 3751503
0.11381331 -0.11070873 1.1013625 3490378
0.074465878 -0.14373378 1.0668508 5002588
0.077573769 -0.14422837 1.0662707 5528419
0.066304669 -0.13828668 1.0773227 4739163
0.07288485 -0.13787903 1.0722167 5002333
0.082043894 -0.13941795 1.0701993 5397092
0.091366567 -0.14126761 1.0709031 5332066
0.097383276 -0.1432326 1.0715213 4740695
0.06617552 -0.13173863 1.0789179 4082256
0.072779559 -0.13168542 1.0758971 5068120
0.095023587 -0.13682757 1.0730542 5200736
0.10363144 -0.13870092 1.0754519 4345175
0.11081527 -0.14110874 1.0768449 4278096
0.1086271 -0.13239333 1.082027 4147028
0.11293022 -0.13702126 1.0824492 3819087
0.1147142 -0.13062695 1.0876076 3687502
0.07799346 -0.15952197 1.059557 5528423
0.082301304 -0.1599748 1.0592549 5397348
0.070127375 -0.14998657 1.0661858 4804702
0.079330556 -0.15100887 1.0640408 5462626
0.088443734 -0.15454468 1.0639877 5003105
0.09705469 -0.15523461 1.0660722 4804440
0.063442685 -0.14579386 1.0773603 3817824
0.068644635 -0.14457601 1.0712707 4673622
0.084225602 -0.1470556 1.0683622 5660265
0.09175849 -0.14758217 1.0684062 5069150
0.10104754 -0.14967607 1.0701098 4475986
0.10731679 -0.14882022 1.072938 4014924
0.1053718 -0.14579928 1.0743842 4606547
0.11146666 -0.14617574 1.0757182 3620428
0.069609776 -0.16754854 1.0576091 4079956
0.075948253 -0.16689001 1.054576 5266270
0.081590623 -0.16968936 1.0548675 5002845
0.06835933 -0.1628519 1.0627789 4079963
0.075290486 -0.16324568 1.0582496 5330781
0.085914709 -0.16548456 1.0590086 5002331
0.090596005 -0.16213463 1.0630435 5001816
0.095225468 -0.16273811 1.065326 4540755
0.10121302 -0.1596241 1.0701219 4213074
0.072224945 -0.18355811 1.0520778 5265766
0.072180651 -0.17899978 1.0550957 5068639
0.081047006 -0.17925896 1.0547906 4214103
0.066013768 -0.17059653 1.0600023 1580089
0.086968198 -0.17375077 1.0580686 4145996
0.090995803 -0.17128238 1.0624356 4212054
0.065547034 -0.18569729 1.0535655 3618132
0.07062798 -0.1869804 1.0515935 5199718
0.077278301 -0.18756424 1.0513756 4214875
0.061005309 -0.22550657 1.0051051 528927
0.065826215 -0.22656244 1.0035826 1517876
0.061913405 -0.24120705 0.99997324 4419983
0.048917476 -0.23435822 1.0079459 1651559
0.054590791 -0.23205096 1.0063227 1782104
0.065913185 -0.23300891 1.0010087 4154236
0.071450859 -0.23591772 1.0047071 3028033
0.058707412 -0.23437849 1.0142012 2369321
0.066515453 -0.23236823 1.0111824 2040105
0.063448742 -0.22317788 1.0295737 4146252
0.047423624 -0.24540643 1.0077074 5077683
0.053540725 -0.24627434 1.0036162 4617364
0.062609233 -0.24788062 1.0015715 4549258
0.069164246 -0.24415225 1.0042868 6582660
0.049310148 -0.23709124 1.0164087 7695014
0.057597764 -0.23740494 1.0186186 2040625
0.065792337 -0.2375685 1.0179607 2172202
0.071231693 -0.24057989 1.0123166 2760198
0.049574591 -0.25815234 0.99961209 4683677
0.055110481 -0.25903332 0.99857873 3831442
0.043818913 -0.25321203 1.0066444 3299734
0.050251853 -0.25390542 1.0028141 4683420
0.058400508 -0.25628474 1.0012107 3960460
0.02534458 -0.29767311 0.94154203 3829135
0.033350386 -0.29873893 0.9404968 4223637
0.03929415 -0.29987884 0.93896878 3960467
0.026700135 -0.29383618 0.9500311 3498881
0.035014648 -0.29459527 0.94874275 3895695
0.042919483 -0.29564428 0.94867104 3631246
0.029568486 -0.28671128 0.95870131 3499128
0.03642283 -0.2881487 0.95667416 4025235
0.045069568 -0.29081291 0.95670664 3499655
0.032437991 -0.2812832 0.96609426 3826560
0.038939778 -0.28279537 0.96504211 4156303
0.046386976 -0.28650743 0.964158 3630985
0.034653716 -0.28027141 0.97577232 3893387
0.041235533 -0.27975857 0.97420293 4157333
0.048356161 -0.28255618 0.97418118 3762828
0.038112853 -0.27898985 0.9838441 3762325
0.044476163 -0.27553532 0.98355579 4420507
0.050321918 -0.27867478 0.98325896 3828877
0.040160272 -0.27334017 0.99635196 4222878
0.046957694 -0.27179721 0.99184924 4552347
0.052683555 -0.27557442 0.99158752 3631755
0.040641129 -0.26486894 1.0013572 3627913
0.048781104 -0.2650125 0.99739784 4683676
0.05583797 -0.26827094 0.99847823 3892613
0.058782823 -0.26233307 1.0039499 3563127
0.021172371 -0.3062329 0.93535936 3033484
0.028879266 -0.31008112 0.933972 2897991
0.038878839 -0.31087667 0.93265402 3891064
0.046272445 -0.3132537 0.93265575 2638186
0.019435927 -0.30071956 0.9435764 666715
0.029508889 -0.30329326 0.9396022 4813457
0.043378081 -0.30422643 0.9397614 3499654
0.050129801 -0.30862442 0.94011056 3561592
0.021404013 -0.29610807 0.95383227 6722
0.045434717 -0.30043197 0.94826871 3694979
0.051741026 -0.30315816 0.94814122 3233144
0.049348749 -0.29655838 0.9572376 3104639
0.053689655 -0.30015838 0.95773339 2640231
0.050898962 -0.29260838 0.96600103 2907007
0.054804575 -0.29744643 0.96700734 3099492
0.031921115 -0.28429237 0.98096752 4089741
0.052683171 -0.28907755 0.97474802 3496061
0.056822509 -0.29350439 0.97691005 4278874
0.036020219 -0.28144747 0.98774636 2972810
0.054345042 -0.28579137 0.98449528 3757171
0.057555899 -0.29010946 0.98434824 3748927
0.038466904 -0.27933878 0.99267823 3630740
0.056698047 -0.28174055 0.99035275 3953004
0.026489373 -0.31713894 0.9307074 984897
0.037559468 -0.31722295 0.93225992 4350584
0.05301461 -0.30992037 0.95202184 4674411
0.054751761 -0.30865231 0.96058917 6974583
0.055589318 -0.30399263 0.97077197 3815753
0.027381849 -0.29211539 0.98482633 5799072
0.058789402 -0.29761699 0.97787774 5064001
0.05094441 -0.32346857 0.95186025 7039097
0.051936954 -0.32204255 0.95747453 7565430
0.053270515 -0.31820372 0.96517003 8223350
0.055196404 -0.31066459 0.97061497 9076613
