# .PCD v0.7 - Point Cloud Data file format
VERSION 0.7
FIELDS x y z rgba
SIZE 4 4 4 4
TYPE F F F U
COUNT 1 1 1 1
WIDTH 1130
HEIGHT 1
VIEWPOINT 0 0 0 1 0 0 0
POINTS 1130
DATA ascii
-0.12610073 -0.13757902 1.1131859 2841752
-0.12406381 -0.14189939 1.116415 2906774
0.15237354 -0.14549458 1.1110247 2646183
-0.12769023 -0.12695229 1.11403 2907034
-0.12377048 -0.13123855 1.1162192 2775704
0.15319957 -0.13676062 1.1119597 3696546
0.15537341 -0.13229379 1.1112942 3761571
-0.12846026 -0.11750309 1.1124519 2973083
0.15721378 -0.12625532 1.1105027 3368880
-0.12927775 -0.10727988 1.1117284 3039134
0.15782605 -0.11466858 1.1098934 3500454
-0.12916988 -0.096836239 1.111238 3171232
0.15699528 -0.10618645 1.1107595 3631529
-0.12949154 -0.088069186 1.1103814 3302564
0.15574068 -0.095834792 1.1062952 3697839
0.1561752 -0.096043177 1.1092961 3763633
-0.12928766 -0.077503011 1.1109881 3368355
0.15704815 -0.084814653 1.1087995 3436468
0.17145827 -0.08158268 1.108909 10992842
-0.1266629 -0.067155853 1.1107789 3697068
0.15529676 -0.07174214 1.1128631 3765679
0.15838847 -0.0744166 1.1080673 3830452
0.17122106 -0.077323772 1.1088337 11387079
-0.12536918 -0.059454575 1.1084282 3631022
-0.12310969 -0.05631604 1.1078527 3500456
0.15482751 -0.064864136 1.1098526 3830449
0.16150762 -0.065587893 1.1073313 5207985
0.16803145 -0.066705599 1.1113342 10334913
-0.12525921 -0.047393184 1.1102803 3434161
0.15421128 -0.055918574 1.1094413 3893939
0.16128322 -0.056612849 1.1085944 8428221
-0.12520993 -0.037296735 1.1136688 6194370
-0.12059733 -0.035305798 1.1144522 4421311
0.15241407 -0.044002768 1.111292 5734064
0.15862235 -0.047828984 1.112402 10203587
-0.11908118 -0.028679639 1.1143197 6852289
0.15107517 -0.038081557 1.109086 8955077
0.024373934 0.095113575 1.1109029 9737616
-0.088666379 -0.20472963 1.1256015 7635861
-0.085274801 -0.20526725 1.1282507 8100012
-0.098626651 -0.19448337 1.1281639 10535920
-0.091694668 -0.19739559 1.1258069 5996227
-0.085176066 -0.20167872 1.1281848 6394567
-0.10839383 -0.18332261 1.1200395 8431615
-0.10144178 -0.1859085 1.1227995 1526185
-0.095293492 -0.18839699 1.1268833 1262491
0.12844492 -0.19178522 1.1262628 11717846
-0.11671119 -0.17453456 1.1199479 7571711
-0.10977966 -0.17696726 1.1214913 1917611
-0.1028428 -0.17961133 1.1252613 2379673
-0.096147411 -0.18270084 1.1279299 2644619
0.13022335 -0.18495972 1.1261244 5010097
0.13758102 -0.18225543 1.1228719 10599906
0.14470766 -0.18125753 1.1219383 14081762
-0.10958048 -0.16809143 1.1239842 2709143
0.13155739 -0.17439389 1.1259217 2909858
0.1381873 -0.17417219 1.1220448 4026283
0.1457468 -0.17464125 1.118309 12307424
-0.11615235 -0.15422472 1.1195748 2775446
-0.11186329 -0.15850458 1.1225271 2775442
0.13969064 -0.16524911 1.1226889 3105445
0.14461581 -0.16464585 1.1176368 2578854
-0.11796864 -0.1469339 1.1216116 2775449
-0.11378293 -0.14937313 1.1261353 2906778
0.14230092 -0.15549283 1.1238909 3564451
0.14564732 -0.15468074 1.119848 3433893
-0.12157234 -0.13813321 1.1226218 2840984
0.14403516 -0.14732584 1.1253288 3565217
0.14783041 -0.14541148 1.1199287 3499430
-0.1260785 -0.12613663 1.119146 2841497
-0.12309625 -0.12788738 1.1251546 2907290
0.15041697 -0.13481519 1.1220491 3237547
-0.12598513 -0.11665125 1.1205734 2973083
-0.12323046 -0.11712899 1.1249605 3038877
0.15378445 -0.12519836 1.1230291 3827369
0.15642434 -0.12432183 1.1168087 3564710
-0.12675828 -0.1066355 1.1216553 3039391
-0.12414057 -0.1085526 1.1254791 3170977
0.15432915 -0.11512603 1.12266 3565735
0.15665965 -0.11577033 1.1166515 3500198
-0.12664171 -0.098405458 1.1236483 3170977
0.15483925 -0.10613173 1.1218259 3631790
0.15589818 -0.10779112 1.1245146 3434923
-0.12651457 -0.087871522 1.122456 3302823
0.15481949 -0.094672978 1.1217848 3566513
-0.12621941 -0.077900231 1.120939 3368614
0.15416977 -0.085395761 1.1216602 3632560
-0.12549302 -0.070187889 1.1221267 3565995
0.15324108 -0.075222678 1.1202111 3895728
-0.1221318 -0.055199195 1.1234276 3697842
0.15116526 -0.065232374 1.1185797 4158132
-0.1202521 -0.046967875 1.1220263 3502262
0.15033786 -0.054516591 1.1195923 4027837
-0.11735056 -0.037542142 1.1212456 3698611
0.14583181 -0.042870335 1.1234185 4619197
0.1515051 -0.046229422 1.1178936 4946612
-0.12346078 -0.031001076 1.1173981 7180220
-0.11573472 -0.02808357 1.1244836 4815032
0.14591958 -0.036401719 1.1226336 5209534
0.15063098 -0.034913693 1.1152333 8425655
0.025405303 0.091112643 1.1139678 9474444
-0.061963998 -0.2156505 1.1352504 8300241
-0.079977043 -0.20702231 1.1316037 7642055
-0.072487555 -0.20784773 1.1336944 4815810
-0.065813601 -0.21145564 1.1352057 5210825
-0.088788018 -0.19486898 1.1310914 932767
-0.081901841 -0.19847324 1.1327851 2382238
-0.07335154 -0.2017076 1.1350902 2251168
0.11018745 -0.20353147 1.1336262 6518691
0.11603927 -0.20269322 1.1321344 11319227
-0.090314426 -0.18804944 1.1328471 2447513
-0.085000277 -0.19162907 1.1350024 2513045
0.11811198 -0.19451937 1.1323452 4617903
0.12512901 -0.19478384 1.1293448 10929103
-0.099468015 -0.17677444 1.1323049 2971544
-0.093657188 -0.18069115 1.1328741 2774929
0.12043368 -0.185325 1.1315453 2909086
0.12534499 -0.18455489 1.1291574 3105187
-0.10664889 -0.1634084 1.1306661 2709911
-0.10214911 -0.16855043 1.1330761 2644371
0.12713796 -0.17477545 1.1295809 3368356
-0.10878228 -0.15669952 1.1323802 2775444
-0.10392099 -0.16094288 1.1332662 2709910
0.13183545 -0.16501886 1.1303502 3368613
0.13610908 -0.16220048 1.128664 3499683
-0.11176155 -0.14805096 1.1319294 2841497
0.13385859 -0.15757236 1.1325991 3237027
0.13863893 -0.15504347 1.129847 3302821
-0.11737906 -0.13631937 1.1308336 2645144
-0.11392204 -0.13809499 1.1333778 2775964
0.1420376 -0.14518544 1.1304891 3237542
0.14621586 -0.14173615 1.1295438 3106215
-0.11897091 -0.12785831 1.1315763 2907291
0.14367719 -0.13566747 1.1307878 3499683
0.14681999 -0.13380127 1.1292043 3303338
-0.11967532 -0.11789345 1.1323469 3039134
0.14866987 -0.12535432 1.1293049 3499947
-0.12444737 -0.10350347 1.1297241 3236770
-0.12237968 -0.10779049 1.133119 3236770
0.15069306 -0.11489303 1.129505 3500458
-0.12426917 -0.097027004 1.1296052 3237027
-0.12252148 -0.097363837 1.1335977 3302821
0.15335275 -0.10440688 1.1297606 3632048
-0.12400185 -0.087312318 1.1294267 3302824
-0.12226813 -0.088156492 1.1334286 3302569
0.15186927 -0.095476806 1.1295067 3632047
-0.12418421 -0.078233339 1.1292634 3434408
-0.12131057 -0.075871363 1.1331979 3434665
0.1487786 -0.084348723 1.1289663 4026292
-0.12346724 -0.067882948 1.1290697 3631531
-0.12168693 -0.067033768 1.1330405 3631531
0.14909369 -0.076402634 1.1274456 4157366
-0.12328904 -0.061406493 1.1289507 4025255
-0.11998034 -0.056332193 1.1311178 3632304
0.1488778 -0.064612679 1.1267889 4289211
-0.11627848 -0.047451038 1.1303549 3568048
0.14602447 -0.053750962 1.1272818 4094399
0.14824516 -0.05817613 1.1286776 4224702
-0.11481788 -0.041476466 1.12852 3764911
-0.11123975 -0.03721381 1.1309139 3895729
0.14370681 -0.045249235 1.1279345 4487616
-0.11550929 -0.023292653 1.1311961 6458567
-0.11068413 -0.02721069 1.1306278 3895996
0.14393146 -0.03423503 1.126678 5735616
0.15087806 -0.031180836 1.1261659 9477559
-0.11498847 -0.020605251 1.1321434 6852289
-0.11173839 -0.020695135 1.1321185 5933254
0.057678573 0.076179102 1.1249777 9474701
-0.025404317 -0.22689456 1.1471587 7248329
0.0073798718 -0.22940791 1.1461368 5801654
0.015426392 -0.2285106 1.1455214 5210039
0.028210152 -0.2294728 1.1467681 6328255
0.035873666 -0.22968476 1.1467094 7379645
0.047433108 -0.22988273 1.1466188 8430007
0.055397511 -0.22840254 1.1425261 8625323
-0.063137174 -0.2178705 1.1393012 9678537
-0.052262776 -0.21805316 1.1457434 4422071
-0.042935066 -0.21896049 1.1471577 2778029
-0.03322573 -0.22104436 1.1471163 2513574
-0.025688929 -0.22396541 1.1471078 2315684
0.0042151827 -0.22552277 1.1468922 2120102
0.016257847 -0.22585581 1.1468 2185635
0.029425418 -0.22512451 1.1466793 2186146
0.034869231 -0.22637054 1.1466576 2316696
0.050256498 -0.22460513 1.1465 4486314
0.057808571 -0.22445571 1.1444353 5997746
0.069041938 -0.2217904 1.1451526 6063288
0.077758722 -0.22054568 1.146202 6589614
0.085854113 -0.22098866 1.146144 8757678
-0.068244025 -0.20576291 1.1391231 1855898
-0.061567649 -0.20839736 1.1423551 2249885
-0.053917788 -0.21084543 1.1463726 2381985
-0.045843847 -0.2131836 1.1470766 3039902
0.071890995 -0.21479651 1.1461455 2841504
0.077927388 -0.21441571 1.1460893 3302564
0.087541267 -0.21245006 1.1446416 4420011
0.097327814 -0.21196786 1.1401712 6984117
0.10682052 -0.20951667 1.1377631 6254993
-0.07909064 -0.19492596 1.139815 2710418
-0.071427852 -0.19833687 1.143396 2775447
-0.06474518 -0.20069966 1.1462041 2906776
0.09021312 -0.20461209 1.1454111 3171492
0.098735817 -0.20352522 1.1425213 3237285
0.10706859 -0.20261881 1.1382074 3629215
-0.081753351 -0.18782842 1.1437087 2775191
-0.073695183 -0.1914973 1.1462435 2906012
0.10095837 -0.19435123 1.1438704 3040421
0.10791845 -0.19292255 1.140401 3105703
0.1137922 -0.19339171 1.1374136 2777257
-0.096730262 -0.17342739 1.1387687 2710677
-0.090044253 -0.1774331 1.1423168 2709909
-0.083907977 -0.18116672 1.1448057 2709910
0.10932948 -0.18451467 1.1438166 3368100
0.11692397 -0.18296999 1.1393328 3302561
-0.097752765 -0.16679622 1.1417683 2710421
-0.093014508 -0.16970491 1.1458722 2644886
0.11161227 -0.17678669 1.1451317 3040936
0.11972053 -0.17394964 1.1429267 3237031
0.12617911 -0.17128012 1.1399119 3368615
-0.1070636 -0.15356028 1.1384923 2776209
-0.10171819 -0.15810324 1.1432822 2841240
0.12200291 -0.1654864 1.1448419 3237287
0.1284764 -0.16353288 1.1396097 3302822
-0.10784391 -0.14680156 1.1429102 2710683
-0.10321766 -0.15017122 1.1457343 2841499
0.1309907 -0.15513641 1.141992 3237541
0.13600464 -0.15262951 1.138093 3237798
-0.10973167 -0.13818061 1.1433789 2907293
0.13293718 -0.14637458 1.1444058 3237797
0.13769843 -0.14405423 1.1393238 3303334
-0.11574831 -0.12638777 1.1392132 2907805
-0.11354581 -0.127974 1.1452824 2907805
0.13981669 -0.13470064 1.1416929 3434407
-0.11597883 -0.11704408 1.1405696 3039392
-0.11335007 -0.1182015 1.1459036 3039391
0.14202189 -0.12518916 1.1413753 3500202
0.14620708 -0.12248999 1.1358626 3631274
-0.11885998 -0.10776049 1.1422917 3170979
0.14427291 -0.1149427 1.1432984 3631791
0.1476326 -0.11457273 1.1374854 3566510
-0.11896972 -0.097383507 1.1432854 3105957
0.14374655 -0.10383403 1.1418786 3632305
0.14890438 -0.10518396 1.1358598 3501227
-0.11909398 -0.087394066 1.140819 3237546
0.1435315 -0.094771035 1.140837 3698099
0.14809544 -0.095369823 1.1357551 3698094
-0.11820101 -0.077664003 1.1408733 3434923
0.14502692 -0.085526407 1.1412026 3895479
0.1471642 -0.08770521 1.1352235 3895477
-0.11752956 -0.067211553 1.1412972 3566256
0.1456074 -0.074212857 1.1423261 4027579
0.14808901 -0.073766716 1.1389637 4157882
-0.11629628 -0.058347668 1.1403699 3567024
0.14382657 -0.064633042 1.1416569 4159422
0.14811428 -0.064979687 1.1372038 4289724
-0.11372987 -0.048619837 1.1379759 3567791
-0.11053095 -0.046675943 1.1432489 3764403
0.1423814 -0.054580688 1.1399957 4356797
-0.10859416 -0.037903972 1.1369776 3830196
0.13997567 -0.044946395 1.138907 4619718
-0.10680284 -0.027006671 1.1391033 3896507
0.13621745 -0.032938085 1.1392088 4817095
0.14070114 -0.033698648 1.1359631 4948420
-0.114147 -0.017607808 1.1400837 6916535
-0.10667787 -0.01835043 1.1397285 5210049
0.13556422 -0.026488535 1.1412085 5013440
0.14001577 -0.026237287 1.1388339 5998788
0.037283383 0.050245211 1.136474 5859448
0.045464817 0.050062239 1.1345531 6122362
0.051050529 0.050091445 1.1375076 6319482
0.062225796 0.051122814 1.1413985 5330522
0.037974969 0.054646283 1.1348644 5792108
0.045816418 0.055264995 1.1342558 5527648
0.051170588 0.054454774 1.1374274 5067354
-0.019637248 -0.22697145 1.1501136 4354997
-0.012292622 -0.22816555 1.1520758 4684224
-0.0024028495 -0.22817157 1.1505282 4289976
0.0086310152 -0.22618419 1.1498687 2054307
0.019043528 -0.22702134 1.149799 2777510
0.024501547 -0.22827061 1.1497771 4026798
0.040966198 -0.22872595 1.1496511 5604271
0.044853244 -0.22718596 1.1495913 4881326
-0.03832607 -0.2160989 1.1500686 3039902
-0.03040074 -0.21722695 1.1505246 2710943
-0.02196485 -0.21931821 1.1532987 2645152
-0.012141714 -0.22238691 1.1566372 2514339
-0.0022057816 -0.22256784 1.156026 2514851
0.0077648237 -0.22036558 1.1543711 2842787
0.017640295 -0.22025532 1.152088 2908579
0.027322881 -0.22011907 1.1524956 3039651
0.037502982 -0.22108343 1.1535414 2908578
0.046871535 -0.22047503 1.153204 2778020
0.056926474 -0.21913391 1.1507757 2646433
0.066413313 -0.22210753 1.1493233 5012145
0.07790333 -0.22370668 1.1492586 8955830
-0.051118545 -0.20731875 1.1502994 2841242
-0.041319601 -0.20962539 1.1523094 2775960
-0.032333694 -0.21111393 1.1541969 2841500
-0.022958791 -0.21347727 1.1578974 2907551
0.0087455818 -0.21361679 1.1576413 3105184
0.017966211 -0.21350317 1.157564 3170722
0.027913546 -0.21377826 1.1574879 3302053
0.038060293 -0.21350592 1.1574001 3170723
0.048585594 -0.21287538 1.1573029 3105188
0.057921976 -0.21237139 1.1555029 3170467
0.06749925 -0.21249796 1.1515406 3236258
0.077719651 -0.20937356 1.1494446 3171236
-0.067418866 -0.19552436 1.1499326 2906776
-0.060942866 -0.19791928 1.1510663 2907033
-0.052493095 -0.19907048 1.1547096 2841497
-0.043326773 -0.20332907 1.1578794 2775704
0.059073657 -0.20689836 1.1571088 3105443
0.067915738 -0.20714292 1.1570411 3105443
0.078798369 -0.20374843 1.1556274 3105956
0.08721187 -0.20117453 1.1519744 3105956
-0.07809332 -0.18424582 1.149815 2644884
-0.071100377 -0.18795329 1.1528258 2775705
-0.062789641 -0.19100732 1.1554807 2841497
0.082588181 -0.1964892 1.1567281 3172006
0.090300485 -0.19433811 1.1556259 3040421
0.096205644 -0.19219694 1.1530385 2974628
-0.086632885 -0.17522302 1.1497209 2645144
-0.080016293 -0.17711851 1.1527609 2710425
-0.074777603 -0.17995769 1.1542826 2776216
0.099911593 -0.18365312 1.1531032 3171493
0.10492442 -0.1816185 1.1498748 3237026
-0.089428931 -0.16707887 1.1521847 2710424
-0.08309041 -0.16939138 1.1561329 2710937
0.10303019 -0.17714745 1.1562103 3302823
0.10944571 -0.17329669 1.1529297 3172005
0.11531893 -0.17033319 1.1519856 3172006
-0.097807579 -0.15551016 1.1494544 2841498
-0.093443491 -0.15806152 1.1543891 2907290
0.11217634 -0.16634089 1.1559396 3303592
0.11850439 -0.16315743 1.1544967 3237544
0.12471861 -0.15910162 1.1477044 3303337
-0.099325493 -0.14697728 1.1510265 2973342
-0.094770908 -0.15011096 1.1573331 3038879
0.12235367 -0.15548617 1.1549928 3237544
0.12675925 -0.15266123 1.1503714 3303336
-0.10703637 -0.13522148 1.1501616 2973342
-0.1010236 -0.13847043 1.1546725 2973600
0.13042806 -0.14361307 1.1513776 3368872
-0.10838682 -0.12729457 1.151382 3039392
-0.10293675 -0.1281611 1.1570015 3236259
0.13200238 -0.13418221 1.1529438 3500460
0.13644999 -0.13196781 1.1471162 3434923
-0.10921698 -0.11761671 1.1517493 3170978
0.13329686 -0.1252701 1.1536884 3500719
0.13803126 -0.12296126 1.1502739 3500718
-0.1154946 -0.10632838 1.1487061 3237029
-0.11167216 -0.10769464 1.1547009 3237286
0.13863516 -0.11406813 1.1528801 3697329
-0.11525302 -0.09754841 1.1485448 3237543
-0.1126219 -0.097048081 1.1560158 3172263
0.14009941 -0.1050045 1.1521983 3697843
-0.11526626 -0.087853745 1.1513696 3303340
-0.11312161 -0.086748593 1.156333 3303852
0.14016427 -0.094550908 1.1524081 3764149
-0.11508542 -0.078149222 1.1481913 3500716
-0.1122661 -0.076713368 1.1561439 3501229
0.1433799 -0.08422704 1.1507657 3764661
-0.11449807 -0.070111044 1.1480407 3566512
-0.11119843 -0.066699333 1.1523163 3632306
0.14067936 -0.073943481 1.1505002 3896764
-0.11033238 -0.057100449 1.1521351 3698357
0.1349909 -0.06370315 1.1525574 4291265
0.13874596 -0.065077521 1.1470267 4225217
-0.1084772 -0.048148658 1.1515938 3764408
0.13603178 -0.054138958 1.1517085 4554434
0.13859408 -0.054045696 1.1456846 4488640
-0.10522155 -0.037509378 1.1521744 3895997
-0.100988 -0.034367185 1.1552835 4027323
0.13592906 -0.043354321 1.1505134 4817354
-0.10344511 -0.028086163 1.1485215 3962044
-0.0993893 -0.026885055 1.1543344 4093118
0.12696908 -0.030718073 1.1533577 5014224
0.13225299 -0.033670507 1.1493675 4751563
-0.10207213 -0.01773487 1.1469889 4290235
-0.097151868 -0.017659448 1.1514816 4158908
-0.090882018 -0.015476868 1.1548582 4028609
0.12548493 -0.023669749 1.1514639 4817874
0.13213158 -0.023664519 1.1461862 5145287
-0.094603285 -0.011119694 1.1492084 4487616
-0.089117035 -0.0085293204 1.1533841 4356800
0.11697675 -0.010920942 1.1510797 5276623
0.12320261 -0.014173955 1.1473728 5604813
0.13255797 -0.015675962 1.1459266 6720449
-0.08681266 -0.0015807077 1.1545728 5671109
0.1152829 -0.0052812174 1.1524199 5802961
0.1215933 -0.0063000694 1.1482909 6787017
0.039673425 0.012616374 1.1532834 12972031
-0.015300857 0.024015464 1.1515245 5869264
0.017003715 0.019510388 1.1533432 7515376
0.02448478 0.018934824 1.1532927 8764660
0.034076095 0.018227205 1.1532272 10146554
0.040679265 0.01701235 1.1531954 10870005
-0.0728257 0.033810005 1.1458149 8028800
-0.067693301 0.034034178 1.1457689 7305855
-0.010864424 0.025073558 1.1534696 5671370
-0.0075486433 0.024981856 1.1534442 5869265
0.015661802 0.024339952 1.1532665 6988787
0.020082839 0.024217673 1.1532327 7185904
0.10653634 0.030674323 1.1524103 6314850
-0.066336133 0.039000139 1.1456678 8028802
0.10353892 0.034296274 1.152369 6117979
0.079813682 0.045331299 1.1443607 5593178
0.082008973 0.045270592 1.1443439 5658970
-0.017534746 -0.21652015 1.1619092 2973083
-0.012019916 -0.21778244 1.1618872 2973595
-0.0025774781 -0.21760094 1.1624736 2973598
-0.037192836 -0.20487888 1.1618583 2842012
-0.030853836 -0.2064414 1.161835 2776219
-0.021572141 -0.20915113 1.1633325 2907806
-0.01200559 -0.21076527 1.1649182 2907807
-0.0014649536 -0.21159428 1.1650226 2973599
0.0074546123 -0.2095501 1.1622456 3039136
0.018226668 -0.20884541 1.1628118 3170723
0.02819914 -0.20901406 1.1620667 3236770
0.038001485 -0.20883654 1.1613168 3170979
0.047050517 -0.20887339 1.1612436 3170980
0.053750686 -0.20739403 1.1611621 3171236
-0.048039399 -0.19570079 1.1617802 2842012
-0.04138343 -0.19812427 1.1632247 2842011
-0.031826958 -0.20062949 1.1641994 2842012
-0.02356953 -0.20227942 1.1657007 2907805
0.022854742 -0.20495529 1.1653706 3302309
0.028887004 -0.20398614 1.1641607 3302308
0.037529409 -0.20412895 1.1627355 3171236
0.048266381 -0.20502284 1.1611638 3171236
0.058939561 -0.20391363 1.1627235 3105443
0.068805702 -0.20227548 1.1619465 3171492
0.075396076 -0.20059425 1.1608621 3040420
-0.068806551 -0.18402886 1.1617378 2841497
-0.060105123 -0.18700954 1.1622543 2907291
-0.051731944 -0.18986765 1.1635872 2907549
-0.045075022 -0.1911985 1.165675 2907551
0.072127424 -0.19518226 1.1647913 3040420
0.079176575 -0.19357014 1.1628095 3106213
0.087048978 -0.19122462 1.1605971 3106214
-0.070114806 -0.17746776 1.1636298 2907290
-0.063597322 -0.18050048 1.1651319 2973340
0.083501115 -0.18658826 1.1645426 3302823
0.089590363 -0.18441528 1.162053 3237030
0.095823087 -0.18117687 1.1621212 3237031
-0.087111473 -0.16354692 1.1615154 2841497
-0.078808948 -0.16724724 1.1620482 2842012
-0.072732791 -0.16960664 1.1645086 2907547
0.10121078 -0.17365536 1.161086 3368361
0.10637502 -0.17056267 1.1600645 3237285
-0.088427499 -0.1575918 1.1614181 2973085
-0.081633233 -0.15795431 1.1641066 3039135
0.10370914 -0.16660479 1.1600144 3368615
0.11032864 -0.16344339 1.1606303 3237799
0.11498289 -0.160258 1.1598072 3303337
-0.095465302 -0.14444995 1.161237 2973857
-0.090122841 -0.14809993 1.1628155 3039137
-0.084196277 -0.14910004 1.1652302 3104930
0.11253359 -0.15597931 1.16175 3172264
0.11882267 -0.15328653 1.1603161 3238059
-0.096422516 -0.13620098 1.1620953 3039650
-0.092517421 -0.13984996 1.1651301 3105700
0.12234027 -0.14361072 1.1615993 3369132
0.12653124 -0.14393097 1.1594167 3434410
-0.098936386 -0.1275533 1.1626732 3171236
0.12446314 -0.13552617 1.1624817 3500719
0.12788767 -0.13333829 1.1612138 3435183
-0.10576266 -0.11531138 1.1607922 3302823
-0.10114596 -0.11737011 1.1634591 3171495
0.12892553 -0.12327062 1.1608407 3566514
-0.10725943 -0.10660601 1.1621013 3368873
-0.10359966 -0.10785197 1.1638398 3368875
0.13188466 -0.11417598 1.1596332 3697588
-0.10790394 -0.097497642 1.1631535 3303850
0.13373716 -0.10457707 1.1620729 3763892
0.13695195 -0.10404582 1.1586078 3698099
-0.10897513 -0.087279685 1.1619099 3435181
-0.10311583 -0.087887146 1.1642736 3435438
0.13503948 -0.094473623 1.1624506 3829942
0.1378769 -0.094055623 1.1595621 3764149
-0.10767018 -0.077632904 1.1621244 3501229
0.13540688 -0.081120931 1.1622052 3896505
0.13970403 -0.08416307 1.1600431 3830455
-0.10680474 -0.067802034 1.1614772 3632563
-0.10247286 -0.064519942 1.1638443 3567542
0.13322443 -0.073947638 1.1595209 4027837
0.1383436 -0.077672005 1.1581179 3896505
-0.10577108 -0.057773516 1.1610817 3829940
-0.10228916 -0.057843585 1.1637217 3699127
0.13199791 -0.064275175 1.1605937 4291009
-0.10507812 -0.047659066 1.160359 3895737
-0.10135143 -0.046892889 1.1635153 4027576
0.1325646 -0.054261904 1.1597406 4422849
-0.10371832 -0.041013937 1.1594272 4158911
-0.099114314 -0.0374045 1.1613245 4093372
0.13277234 -0.044530232 1.1590621 4817355
-0.095112599 -0.028122418 1.1606618 4093630
-0.090241887 -0.024769634 1.1630232 4094397
0.12562397 -0.033569008 1.1596439 5080014
0.13003023 -0.036935814 1.1574465 4883149
-0.092797458 -0.020600423 1.1589676 4028348
-0.088210858 -0.018141717 1.1603858 4028864
0.12139512 -0.02381435 1.1590569 4949202
-0.084383108 -0.0086467862 1.1605006 4029123
-0.080086678 -0.0064909682 1.1626086 3963586
0.11559089 -0.013770409 1.159811 5146069
0.11888849 -0.018316619 1.1571995 5080276
-0.083375685 -0.00088528544 1.158533 5342665
-0.07616435 0.0011384487 1.1624382 4882633
-0.01262683 0.0031502545 1.1618834 6070261
-0.0059495792 0.0029655844 1.1618323 6528744
0.00072767399 0.0027809218 1.1617812 8827627
0.016307926 0.0023500249 1.1616619 10340848
0.02503445 0.0014723539 1.1616067 8895736
0.032519162 0.00056540966 1.1615621 6266608
0.10689431 -0.00073041022 1.1599787 5475287
0.11126419 -0.0044005737 1.1583427 5475028
-0.072543994 0.0069939271 1.160302 5999306
-0.065855272 0.007918708 1.1602306 5540557
-0.057203948 0.011002831 1.1594374 5803727
-0.044421569 0.012443222 1.1619741 4950220
-0.035493299 0.011071511 1.1619262 5016280
-0.025791483 0.010184601 1.161463 5411294
-0.015762722 0.0098598897 1.1595469 5806569
-0.0057640411 0.0096262917 1.1611098 7120874
0.003846461 0.01011847 1.1616225 12379901
0.014402135 0.0092557371 1.1590253 13891069
0.024202086 0.0087336302 1.1582811 12969723
0.034167204 0.0087113678 1.1590846 9946095
0.044232257 0.0082087815 1.1594144 10013177
0.054014914 0.0098147988 1.1590647 7449069
0.060737744 0.011514597 1.1611332 5411552
0.10407928 0.0032097623 1.1584299 6526426
-0.042307056 0.017333947 1.1618681 6264275
-0.034713469 0.017881766 1.1592958 5803990
-0.025134621 0.018219508 1.1577113 5345755
-0.015096569 0.019203968 1.1576115 5412839
-0.0054893401 0.019540682 1.1580271 5676266
0.0035388563 0.018412754 1.1603315 7253489
0.013347599 0.017925836 1.1584028 8436213
0.023253974 0.015401579 1.1573677 12051453
0.037793897 0.019438513 1.1571758 10082302
0.045610964 0.018482484 1.1571294 10607102
0.054069445 0.017403029 1.1570799 7515119
0.061099455 0.016619243 1.1583704 6068200
-0.0031195451 0.025009058 1.1574085 6001365
0.0013167243 0.02488637 1.1573745 6396124
0.11393482 0.027542554 1.1564076 6447199
-0.0083769225 -0.20696154 1.1696626 3039391
-0.00080848671 -0.20657106 1.1710941 3039135
0.010606695 -0.20748657 1.1695173 3104930
-0.037103467 -0.19499329 1.1696798 2776478
-0.030737503 -0.1960285 1.171647 2842271
-0.020865517 -0.19790129 1.1737827 2907807
-0.011688689 -0.20000544 1.17426 2908063
-0.0016879551 -0.20111169 1.175303 2973600
0.0086525343 -0.20042355 1.1747395 3105187
0.018579442 -0.20036373 1.1737376 3236773
0.028312378 -0.1993057 1.1729585 3237029
0.039254159 -0.19969273 1.1729429 3171237
0.048857503 -0.20095052 1.1705869 3171236
0.058412835 -0.19966541 1.1699086 3105444
0.067291059 -0.19843912 1.1688907 3171493
-0.049023077 -0.18573247 1.1728095 2841758
-0.040983133 -0.18824807 1.1735897 2907551
-0.032083392 -0.18954921 1.1763649 2842271
-0.021424381 -0.1910114 1.1774812 2908064
-0.014709519 -0.19232211 1.1774502 2973857
0.006652168 -0.19291291 1.1772866 3105444
0.019546643 -0.1922695 1.1771698 3237030
0.02957532 -0.19297744 1.1763006 3302823
0.039254062 -0.19246578 1.1760894 3171495
0.048647657 -0.19132447 1.1755236 3105703
0.058345348 -0.19185521 1.1752455 3105703
0.068147108 -0.19166282 1.1732616 3105702
0.076524369 -0.18944067 1.1703668 3105958
-0.060099229 -0.17775476 1.1712018 2973598
-0.05211854 -0.17961687 1.1755244 2907551
-0.042265281 -0.18171626 1.1774825 2908065
0.070186451 -0.18324691 1.1765931 3237288
0.079003386 -0.18282178 1.1740685 3302823
0.087696128 -0.1810737 1.170981 3237287
-0.069180697 -0.16621028 1.1722767 3105183
-0.061786503 -0.16972995 1.1755415 2974112
-0.053534143 -0.17212334 1.1774004 2842786
0.080700986 -0.17606077 1.1763768 3171750
0.089416116 -0.17271534 1.1749114 3172008
0.097492553 -0.17126235 1.1704849 3303081
-0.077054411 -0.15634778 1.1699711 3104930
-0.070844896 -0.15873107 1.175965 3170978
0.092144251 -0.16442008 1.1760722 3303337
0.099943027 -0.1631569 1.1737353 3368873
0.10689215 -0.16210109 1.1704541 3237543
-0.086516649 -0.14325838 1.1718111 3040164
-0.079890206 -0.14717881 1.1729512 3105701
-0.073599853 -0.15169336 1.1771933 3302822
0.10178188 -0.15414375 1.1758071 3303597
0.10921367 -0.15200138 1.1713431 3238059
0.11635536 -0.14916994 1.1695968 3303852
-0.088774174 -0.13683936 1.1728244 3106213
-0.081033416 -0.139019 1.1770239 3172007
0.11039682 -0.14288588 1.1753325 3369387
0.11830799 -0.14293501 1.1714681 3435181
-0.095663376 -0.12645367 1.1702472 3237030
-0.089075796 -0.1272302 1.1745417 3237800
-0.082776688 -0.13081452 1.1768892 3303594
0.1123831 -0.13688689 1.1754075 3500972
0.12088056 -0.13290215 1.1720152 3500976
0.12560369 -0.13021547 1.167177 3500977
-0.096533284 -0.1171374 1.1718633 3237545
-0.091884688 -0.11885824 1.1758574 3303852
0.12295618 -0.12337928 1.1750761 3566772
0.1262356 -0.12387431 1.1710575 3566515
-0.098776497 -0.10736088 1.1718432 3369389
0.12407497 -0.1138745 1.1748945 3763639
0.1274232 -0.11312097 1.1699636 3763639
-0.10519376 -0.093378 1.1697247 3435181
-0.099898353 -0.097153373 1.1729888 3435438
0.12502232 -0.10281138 1.174686 3895737
0.12996621 -0.10292312 1.1694702 3764149
-0.10450682 -0.086899318 1.1706684 3435438
-0.099121578 -0.087605253 1.1746997 3501231
0.12517698 -0.097190648 1.1745827 3961530
0.13062115 -0.09345483 1.169293 3961528
0.13787653 -0.090329155 1.166353 3895735
-0.1039662 -0.077649556 1.1710962 3501489
-0.099670313 -0.077493265 1.1739413 3501490
0.12567188 -0.079204299 1.1742523 4159679
0.13121361 -0.084121846 1.1695681 3962041
0.13793798 -0.088096097 1.166312 3895735
-0.10424131 -0.070317321 1.1699653 3501747
-0.099325091 -0.067213461 1.172536 3567541
0.12509762 -0.072813399 1.1741409 4225473
0.12874331 -0.073490031 1.1701226 4159424
-0.097281195 -0.057135466 1.1712695 3764919
0.12509179 -0.063938215 1.17398 4422597
0.12902075 -0.063406974 1.1699374 4357059
-0.0965214 -0.04738494 1.1709149 3896505
-0.091730744 -0.047316704 1.175447 3962298
0.12525901 -0.053317823 1.1737859 4685767
0.1292982 -0.053323925 1.1697521 4422851
-0.094824694 -0.038337447 1.168908 4027836
-0.089720793 -0.036616262 1.1741452 4028094
0.12365882 -0.042716429 1.1714884 4948684
0.12946349 -0.044863213 1.1665968 4751818
-0.09291894 -0.030311897 1.1671464 4093632
-0.087206975 -0.026911929 1.1728855 4094399
0.11721677 -0.032095358 1.1734663 5080784
0.12145937 -0.033368267 1.1686538 5211343
-0.083739683 -0.018590592 1.1712234 4094402
-0.077108137 -0.015661038 1.173753 4226244
-0.07056541 -0.014151983 1.1746725 4620744
-0.016568126 -0.01452034 1.1742387 5412064
0.0059178593 -0.01514221 1.1740665 6463211
0.013880827 -0.019200705 1.1740752 6397929
0.023582041 -0.018828116 1.1739894 6397929
0.032865688 -0.017173208 1.1738836 6003432
0.1144487 -0.022783659 1.1708194 5081042
0.11952738 -0.02613093 1.1653377 5081041
-0.075575761 -0.0079840273 1.1684668 4160963
-0.067433424 -0.0071758255 1.173663 4752075
-0.05229824 -0.0045321658 1.1743488 4949201
-0.045567922 -0.0052808076 1.1743076 5016022
-0.036026657 -0.0066768453 1.1735883 5213659
-0.026229436 -0.0078625083 1.1729656 5411552
-0.016405353 -0.0089084357 1.1733353 5740773
-0.0062947795 -0.0091794506 1.174058 6003172
0.003819597 -0.0094634965 1.1735805 6331366
0.013893226 -0.0097642988 1.1709032 6989552
0.023994312 -0.010040507 1.171226 6792432
0.034071542 -0.010323614 1.1704987 5937640
0.042599663 -0.0096030533 1.1726665 5806054
0.053354941 -0.0085791424 1.1735605 5674725
0.060131669 -0.0076415539 1.1734883 5674983
0.10587728 -0.01143796 1.1731839 5146841
0.11178968 -0.013768949 1.1674626 5080789
-0.07195843 0.00039510429 1.1664182 4554184
-0.068465747 0.0011802167 1.169376 4751049
-0.053187087 0.0010806844 1.1722538 4818129
-0.045753762 0.00086270273 1.171397 5015507
-0.036244467 0.00055097044 1.1679244 5147609
-0.026151104 0.00025241077 1.1665473 5346018
-0.016503444 -0.00034879148 1.1690911 5937898
-0.006077148 -0.0013796762 1.169247 6462952
0.0043883724 -0.00093755126 1.1682645 8303605
0.01374755 -0.0013180897 1.1671791 8501495
0.023567541 -0.0025828183 1.1663085 7252467
0.0348938 -0.0023377836 1.1670511 6069484
0.044075478 -0.0014880374 1.1678221 6135528
0.054198384 -0.0020949394 1.1708472 5741031
0.063602544 -0.0021299496 1.1723597 5543655
0.073121734 -0.0010777116 1.1732631 5477092
0.083219275 -3.0040741e-005 1.1731617 5739747
0.094580293 -0.00059425831 1.1730794 5280481
0.10369474 -0.0035399869 1.1693654 5015513
0.10910851 -0.0057046115 1.1670523 4949463
-0.065073997 0.0069090053 1.1662439 4818122
-0.055616915 0.0076406673 1.1661534 5147606
-0.04691112 0.0081448108 1.1660733 4818639
-0.03827361 0.0061678067 1.1660388 5344472
0.0064090937 0.0054907426 1.1656865 12971007
0.010860465 0.0048089325 1.1656625 12905215
0.035427492 0.0041295066 1.1654745 5807584
0.048827693 0.0037589073 1.1653719 6004710
0.054916024 0.0045482814 1.165308 5807083
0.063789912 0.0068185553 1.1673281 5477863
0.072299227 0.0061942339 1.1698039 5542628
0.084051274 0.002946943 1.1731009 5673698
0.094657607 0.0045852885 1.1714844 5804766
0.10019513 0.0023382753 1.1649787 5147865
0.067001849 0.014430091 1.16503 5412324
-0.0080342479 -0.19535387 1.1814516 3039650
-0.0016056579 -0.19617669 1.181414 3039650
-0.028122922 -0.18689662 1.1814619 2842271
-0.021354282 -0.18708383 1.1814101 2973857
-0.011052929 -0.18843721 1.182614 2973857
-0.0013426654 -0.19043578 1.1838344 3039395
0.0093600154 -0.1888105 1.182969 3171237
0.018695865 -0.18766323 1.1821607 3237030
0.0290564 -0.18739052 1.1825432 3302569
0.037386559 -0.1877659 1.1822768 3237546
-0.047496028 -0.175879 1.18142 2908065
-0.039948195 -0.1770553 1.1813798 2973857
-0.031309992 -0.17904006 1.1823455 2973857
-0.021610649 -0.18118933 1.1834233 2973858
-0.013328796 -0.1822131 1.185257 3105444
0.018364824 -0.18308963 1.1850144 3237030
0.030102802 -0.18190409 1.1848971 3302825
0.039040901 -0.18170169 1.1845127 3171754
0.048866227 -0.18252295 1.1827549 3171752
0.059212573 -0.18239632 1.1820799 3171753
0.067729317 -0.17952098 1.1815463 3237546
0.076004326 -0.17735943 1.1804395 3303592
-0.058409542 -0.16611664 1.1813319 2908579
-0.050262466 -0.16847569 1.1833086 2908579
-0.040464759 -0.17020024 1.1841692 3105444
-0.031856999 -0.17218666 1.1852262 3105443
0.062758639 -0.17525642 1.1845101 3303339
0.070840478 -0.17323045 1.1830738 3303082
0.079274766 -0.17139322 1.180876 3237545
0.085277483 -0.1685854 1.1802046 3303850
-0.067124046 -0.15458751 1.1811937 3302822
-0.060614303 -0.1590327 1.1834717 3040165
-0.053579472 -0.16297795 1.1852362 3040167
0.074326918 -0.16651535 1.184257 3303598
0.08048936 -0.16270706 1.1831963 3238061
0.089091443 -0.16091779 1.1811457 3303596
0.096837878 -0.1587458 1.1799318 3369131
-0.076611288 -0.14378953 1.1810751 3171751
-0.070276685 -0.14757273 1.1825042 3368615
-0.063455299 -0.15137859 1.1851063 3171751
0.098844945 -0.15219711 1.1812968 3369134
-0.0783915 -0.13668521 1.1809608 3369130
-0.072304487 -0.13875896 1.1839492 3434922
0.10024883 -0.14253989 1.182658 3435183
-0.079868771 -0.12801941 1.1821491 3434923
0.10319633 -0.13552207 1.182659 3501232
0.1100353 -0.13258928 1.1819381 3435694
0.11679161 -0.13107732 1.1792668 3501232
-0.087784342 -0.1166604 1.1816741 3369646
-0.082157761 -0.12054032 1.1833656 3435182
0.11402653 -0.12344101 1.1831516 3567282
0.11812722 -0.12305976 1.1809289 3567027
-0.095830947 -0.10374954 1.1805053 3501231
-0.091333494 -0.10775496 1.1832918 3435439
0.11424453 -0.11551867 1.183006 3829686
0.11940983 -0.11288078 1.1811379 3829431
-0.095737845 -0.10036568 1.1804432 3501231
-0.091250271 -0.097218163 1.1820164 3567024
0.12197796 -0.10356143 1.1813923 3830201
-0.095349886 -0.086266257 1.1801841 3632818
-0.092125192 -0.087039329 1.1821722 3698612
0.12438112 -0.093027078 1.1805148 3896507
-0.095086075 -0.076678641 1.1800079 3633333
-0.091225259 -0.07692983 1.1827816 3764919
0.12449339 -0.082828611 1.1798286 4093886
-0.095295243 -0.067868121 1.1798497 3633334
-0.091207221 -0.066988669 1.183001 3830201
0.12176143 -0.07311286 1.180397 4291523
-0.090513214 -0.056731641 1.1812756 3896506
0.12155522 -0.062631689 1.1795862 4619975
-0.086971298 -0.047275592 1.1811228 4028348
0.11601956 -0.051008258 1.1818208 5146320
0.12037709 -0.053368568 1.1808279 4883148
-0.085006908 -0.037938911 1.1795084 3962814
-0.079969928 -0.036671642 1.1820163 3963072
0.11525836 -0.042185497 1.1801666 5146577
0.11895921 -0.04394732 1.1781681 5080527
-0.083385341 -0.028914817 1.1790457 4028607
-0.077143654 -0.027301073 1.1810992 4291526
-0.027173107 -0.026660882 1.182547 5147865
-0.019696238 -0.026641138 1.1824857 5344731
-0.0033717491 -0.026186511 1.1823442 5345501
0.0034197411 -0.026374333 1.1822922 5739743
0.013523303 -0.02891048 1.1809223 5936862
0.022577308 -0.02916301 1.1811864 5871068
0.032818388 -0.028320007 1.1820878 5739228
0.050960176 -0.027689122 1.1819283 5213656
0.11362614 -0.033258338 1.1799179 4949970
-0.075179242 -0.019941948 1.178816 4422856
-0.066604413 -0.015382186 1.1804818 4686797
-0.056206048 -0.014537968 1.1805634 4884690
-0.045841217 -0.016235702 1.1820101 4950486
-0.035417624 -0.01729852 1.1811107 5213659
-0.026898878 -0.0187402 1.1792004 5279707
-0.016770119 -0.020150557 1.1795435 5345244
-0.006564863 -0.018801779 1.1793468 5411808
0.0032583084 -0.020191208 1.1790899 5806052
0.012497463 -0.023589641 1.178167 6068964
0.024520259 -0.024298415 1.1780818 6068963
0.034626201 -0.0221797 1.178884 6003173
0.043133967 -0.020680018 1.1796646 5608417
0.053334899 -0.020960405 1.1801865 5411038
0.060202338 -0.021148987 1.1817342 5279709
0.10491705 -0.02064544 1.1804371 5212630
0.11044786 -0.024421938 1.1787167 5015248
-0.06276501 -0.0098437741 1.1785314 4949712
-0.055996366 -0.01003097 1.1784796 4949713
-0.0458434 -0.01031176 1.1784018 5016279
-0.036452852 -0.010947734 1.1783369 5213659
-0.027824717 -0.011938892 1.1782844 5345501
0.044953704 -0.013387263 1.177717 5871590
0.053430028 -0.013057292 1.1776419 5871847
0.063760787 -0.011073112 1.179522 5543139
0.071076758 -0.010140836 1.1797311 5280225
0.095603116 -0.010801814 1.1812577 5411294
0.1014028 -0.01242277 1.1786939 5279196
0.073404677 -0.0051436201 1.1773354 5411556
0.083040155 -0.0037168711 1.1772308 5412066
0.094321221 -0.0040288642 1.1771445 5477344
0.10102778 -0.0064719692 1.1771342 5213404
-0.00017804652 -0.18577991 1.1892153 3105189
-0.020299731 -0.17673759 1.1902155 3039906
-0.010657877 -0.17913139 1.190609 3039908
-0.0011435598 -0.18052082 1.1924617 3105447
0.0094616804 -0.18008463 1.1897835 3105702
0.018569987 -0.17910099 1.1889411 3171750
0.027563887 -0.17893648 1.1888648 3237289
0.039075494 -0.17739524 1.1887429 3237548
0.049296997 -0.17767793 1.1886647 3171752
0.058382787 -0.17792919 1.1885952 3171752
-0.047633424 -0.164542 1.189217 3039909
-0.039799869 -0.16547373 1.1900591 3105701
-0.03170611 -0.16831754 1.1917015 3105443
-0.02224713 -0.17394735 1.1931813 3040163
0.0085452851 -0.17388675 1.192929 3105960
0.019971248 -0.17308784 1.1928214 3105958
0.029100452 -0.17184326 1.1919241 3237545
0.039514758 -0.17109017 1.1907306 3237547
0.049558297 -0.17106423 1.1901429 3237544
0.05962538 -0.17111382 1.1901459 3237545
0.068320833 -0.16938436 1.1890258 3303339
-0.058617741 -0.15480581 1.1891298 3172009
-0.050265908 -0.15815768 1.1915231 3105961
-0.040981583 -0.1606015 1.193092 3171752
0.043019637 -0.16434994 1.1924747 3303337
0.049856827 -0.16453904 1.1924224 3303593
0.05997669 -0.16384158 1.1923273 3303594
0.069242224 -0.16150545 1.190959 3303596
0.076080814 -0.16023572 1.1881297 3238062
-0.065765604 -0.14608489 1.1890299 3434409
-0.060051791 -0.1479544 1.1918412 3237547
-0.051771596 -0.15053326 1.1929972 3237805
0.070414729 -0.15421192 1.1920673 3238318
0.07977958 -0.15155791 1.1908226 3238572
0.08989197 -0.15165392 1.1890615 3434926
0.096396908 -0.15125155 1.1878009 3369134
-0.067847155 -0.13697062 1.1901125 3435179
-0.061942235 -0.13910213 1.1924282 3369388
0.084607072 -0.14497571 1.1917839 3500977
0.090315834 -0.14161214 1.1906761 3435186
0.095746629 -0.14183904 1.1876354 3500720
-0.076065831 -0.12600265 1.1897497 3566511
-0.07043124 -0.12900758 1.1914252 3566767
-0.063281149 -0.13176371 1.1927505 3500977
0.091993265 -0.13401464 1.1910247 3501234
0.099923931 -0.13184217 1.1881701 3501490
-0.085302487 -0.112588 1.1885813 3566770
-0.078649625 -0.11730865 1.1912133 3632306
-0.072146602 -0.12239658 1.1926528 3632563
0.10197825 -0.12319909 1.189835 3699127
0.10943721 -0.12215684 1.1876372 3633076
-0.08634872 -0.10695094 1.1894878 3566770
-0.080346249 -0.10796063 1.1924578 3763892
0.10313193 -0.11413133 1.1910731 3633335
0.10984692 -0.11216704 1.1885377 3764407
-0.08618857 -0.096839763 1.1911033 3698868
-0.081853226 -0.097549558 1.1922811 3699126
0.10403088 -0.10218363 1.1908489 3962811
0.11055608 -0.10247396 1.1896341 3830969
0.11824927 -0.10295681 1.1867462 3830714
-0.087103218 -0.08689072 1.1890531 3699126
-0.081831269 -0.087541357 1.1920993 3830712
0.11153281 -0.092548028 1.1900127 4028606
0.11966177 -0.092930317 1.1865528 3962300
-0.086256802 -0.077414051 1.1895511 3830970
-0.08132907 -0.077184461 1.1919073 3962813
0.11205844 -0.083491027 1.1904442 4291522
0.11991885 -0.083362415 1.1867408 4094399
-0.086280361 -0.067340083 1.1894828 3962044
-0.081394888 -0.067734912 1.1917363 4093630
0.11393512 -0.072800875 1.1899682 4554438
0.11872826 -0.073747478 1.1862122 4357059
-0.085383698 -0.05732597 1.1889127 4093886
-0.080764763 -0.056675676 1.1915305 4291009
0.11238818 -0.062222607 1.1891665 4686026
0.11838726 -0.062536061 1.1860116 4685769
-0.083583958 -0.050131705 1.187434 4159935
-0.078492932 -0.047750913 1.1902069 4225985
0.10541032 -0.052051067 1.1899278 5015248
0.11143842 -0.053541433 1.1872386 5014991
-0.075214051 -0.038034767 1.1892642 4292037
-0.069889359 -0.040361479 1.1911457 4619977
-0.046910629 -0.034155522 1.1908456 5279449
-0.038933918 -0.03437613 1.1907846 5016538
-0.026430422 -0.03586217 1.1907095 4950743
-0.016958082 -0.037800971 1.1906674 4950488
-0.0078598876 -0.037896089 1.1905949 5147351
0.0026119398 -0.037235498 1.1904975 5278422
0.013105739 -0.039857093 1.1895704 5212886
0.022464996 -0.039468963 1.1886258 5278423
0.032461096 -0.038898673 1.189034 5147094
0.043357275 -0.039584048 1.1902078 4885460
0.052875996 -0.038356274 1.1893805 4950741
0.062003449 -0.038079873 1.1900284 5016279
0.1041806 -0.042187151 1.1883587 5212370
0.11152063 -0.043595009 1.1857238 5212369
-0.072942309 -0.031130873 1.1890028 4423370
-0.070785224 -0.028002143 1.1885283 4554187
-0.046308219 -0.029153407 1.1904832 5147610
-0.036447771 -0.028728493 1.1886615 5081818
-0.027407886 -0.031253748 1.1886334 5016538
-0.016220832 -0.03012374 1.1886551 5278938
-0.007101614 -0.029769346 1.1885743 5344730
0.0033314461 -0.030956127 1.1874439 5673948
0.013483671 -0.033496857 1.1863403 5805277
0.022569455 -0.033748135 1.1862707 5541848
0.03282221 -0.032895245 1.1861717 5475544
0.043106206 -0.030906811 1.1860516 5213397
0.053745411 -0.031811245 1.1866872 5082070
0.063467875 -0.031267151 1.1882925 5016536
0.072475687 -0.029312693 1.1897839 5213915
0.083246708 -0.028633244 1.1896837 5279453
0.094173655 -0.02939152 1.1896083 5213659
0.10351378 -0.032599658 1.1879901 5212628
0.11011387 -0.032759994 1.1855386 5146833
-0.070309862 -0.022087984 1.1868167 4554443
-0.045046821 -0.02096837 1.1865903 5016281
-0.037803188 -0.022077851 1.1865515 5147611
-0.0067093745 -0.023846932 1.1863298 5411294
0.064209007 -0.021262549 1.1857045 5148123
0.072929516 -0.021504618 1.1858377 5213915
0.082967743 -0.021983795 1.187304 5213917
0.093726382 -0.022204898 1.1877971 5213659
0.10166497 -0.024193965 1.1857855 5212887
0.09468244 -0.015286721 1.1853474 5279708
0.099225335 -0.01541236 1.1853126 5411037
-0.016595768 -0.1747548 1.1981509 3106213
-0.010874314 -0.17491303 1.198107 3105959
0.00038713403 -0.17587878 1.1980327 3105706
0.010867215 -0.17551433 1.1979406 3105960
-0.027277643 -0.16758935 1.198108 3105700
-0.019879444 -0.16903092 1.1988239 3105957
-0.010720361 -0.16928422 1.1987538 3106216
-0.00041032769 -0.16967472 1.199527 3106217
0.010239917 -0.16945694 1.1992646 3171752
0.018145464 -0.16918753 1.1988575 3303337
0.029427722 -0.16686758 1.1976323 3369130
0.036293466 -0.16705745 1.1975797 3369132
-0.039563917 -0.15602803 1.1983317 3171753
-0.029940059 -0.1586666 1.2006884 3171752
-0.019642251 -0.15919662 1.2026944 3172010
-0.010488143 -0.16071272 1.2035974 3172012
-0.00043619238 -0.160561 1.2043083 3237802
0.01024258 -0.16016379 1.2036684 3303338
0.01944384 -0.16044277 1.2037984 3369133
0.029747233 -0.16052401 1.2019955 3369388
0.039882071 -0.16048059 1.2012213 3303853
0.049179867 -0.15959814 1.1990896 3369643
0.059293516 -0.15909895 1.1974831 3303851
-0.056971721 -0.143868 1.1979197 3303598
-0.048929498 -0.14688891 1.1996236 3303341
-0.040388435 -0.14880782 1.203018 3303340
-0.031063663 -0.15045789 1.2058295 3369132
-0.022947451 -0.15256846 1.2058016 3303600
0.010457847 -0.15349233 1.2055459 3303598
0.023128822 -0.15384276 1.2054489 3435186
0.030616216 -0.15404984 1.2053916 3369391
0.040407423 -0.15432063 1.2053167 3369392
0.050291754 -0.15168834 1.2045728 3369390
0.059857041 -0.15094399 1.2008959 3435184
0.06925343 -0.14964892 1.196995 3369392
-0.05772458 -0.13682716 1.1985983 3369646
-0.050620958 -0.13926396 1.2033855 3303853
-0.04342825 -0.14278102 1.2057911 3173034
0.05246111 -0.14358875 1.2050235 3566773
0.060674369 -0.1425174 1.2042704 3566516
0.070509993 -0.14095566 1.2012279 3500977
0.080383196 -0.14192767 1.1984487 3500975
-0.067566 -0.1246006 1.1976564 3632562
-0.058751225 -0.12786947 1.2006445 3501236
-0.051207975 -0.12817943 1.205145 3501494
0.073014587 -0.13188171 1.2046435 3698612
0.080549859 -0.13246897 1.2022285 3567283
0.089453734 -0.13031809 1.1994133 3567283
0.09692993 -0.12751421 1.1963675 3501747
-0.074493334 -0.11475824 1.1975343 3895478
-0.068962775 -0.1174082 1.2000378 3698613
-0.060069941 -0.11854032 1.2041533 3633080
0.07463669 -0.12529898 1.2045108 3699128
0.081281461 -0.12229085 1.204402 3830713
0.090759538 -0.12218558 1.2031225 3699126
0.097563952 -0.12111971 1.1962463 3633333
-0.075580738 -0.10671312 1.1973972 3961271
-0.068808325 -0.10727268 1.2023531 3896247
-0.062123321 -0.10999043 1.2053485 3764921
0.081366248 -0.11534197 1.2042751 3962300
0.092290469 -0.11313948 1.2036754 3896506
0.099836588 -0.11154819 1.1980544 3764920
-0.076674342 -0.097335242 1.1987363 3830712
-0.069764592 -0.097011656 1.2038417 4093627
0.095556751 -0.10236394 1.2039239 4028352
0.1009216 -0.10199987 1.1985391 3962812
-0.076786451 -0.087004289 1.1990498 3962556
-0.070338599 -0.088220119 1.2045759 4028606
0.095316291 -0.091950715 1.2037369 4357317
0.10168794 -0.092387185 1.199692 4225985
0.10715462 -0.088866763 1.1955827 4225985
-0.076047227 -0.078014098 1.1988807 4028606
-0.071240284 -0.078233145 1.2048466 4094655
0.096063808 -0.083935931 1.2035854 4554695
0.10191912 -0.082021147 1.1989019 4554182
0.10814834 -0.080497533 1.1954228 4619462
-0.076448947 -0.067375265 1.1971611 4159424
-0.06839902 -0.066498935 1.2033794 4160448
-0.062039271 -0.065040298 1.2045321 4554440
0.096892186 -0.070588365 1.2033364 4620747
0.10241549 -0.071799338 1.2010628 4686026
0.10873968 -0.072880507 1.1952797 4619977
-0.075567186 -0.05774245 1.1965084 4291265
-0.067464352 -0.05788165 1.2016959 4357573
-0.061849125 -0.058129791 1.2044051 4751563
0.012330834 -0.057491861 1.2037885 4818903
0.02003134 -0.056936409 1.2037156 4819160
0.095283657 -0.062014438 1.2031939 4752590
0.10266617 -0.062602401 1.2008939 4817869
0.10781574 -0.064839914 1.1951413 4752076
-0.07331679 -0.048216827 1.1963172 4291778
-0.067277692 -0.047617227 1.1998367 4554440
-0.061627284 -0.050067537 1.204257 4883149
-0.042882532 -0.043583624 1.1999857 5674209
-0.037142038 -0.043742385 1.1999418 5082331
-0.025845638 -0.046860479 1.2017732 4950745
-0.016597828 -0.048897795 1.1992676 4884953
-0.0074151792 -0.049146276 1.1989971 4753366
0.0029496606 -0.048313897 1.2000977 4884692
0.013481136 -0.050243743 1.1992022 4884692
0.022262985 -0.049752083 1.1997768 4884692
0.032509197 -0.048799623 1.2021326 4950484
0.043403324 -0.050084043 1.2002889 4950488
0.052194856 -0.050048932 1.2012101 4950489
0.062846109 -0.048876408 1.2021532 5411037
0.071840629 -0.048860084 1.2031463 5542623
0.086006939 -0.047234777 1.2030014 5213404
0.093703084 -0.050329193 1.2029947 5081558
0.10192728 -0.052841771 1.2005727 5015248
-0.067797914 -0.037900828 1.196085 4685772
-0.045558214 -0.038031839 1.196997 5542365
-0.036596082 -0.038459167 1.1969837 4951002
-0.027872199 -0.039748535 1.1957928 4884951
-0.018665357 -0.041876812 1.1957563 4753366
-0.004902387 -0.041112442 1.1956302 4950484
0.0039579961 -0.041643731 1.1955676 5015763
0.033972021 -0.043332566 1.1953534 5015764
0.040837765 -0.043522444 1.1953008 4885461
0.05279807 -0.042871788 1.1951914 4884950
0.063627474 -0.042073533 1.1969352 5082072
0.073055513 -0.041140862 1.1997957 5542624
0.082619637 -0.042519368 1.2021432 5279197
0.092778951 -0.041602749 1.1992432 5213144
0.099980459 -0.044394769 1.1948342 5212627
0.067408316 -0.03509723 1.1949311 5016538
0.073176987 -0.033539265 1.1948558 5213917
0.08278095 -0.031324022 1.1947373 5345245
0.093069091 -0.033906642 1.1953671 5213917
0.18423593 -0.038425148 1.2020402 13158081
-0.010355966 -0.15567431 1.2097561 3303598
0.0023568971 -0.1560259 1.2096589 3303850
-0.038494028 -0.14425689 1.2097784 3303853
-0.028768444 -0.14611578 1.21009 3304111
-0.019245749 -0.14846639 1.2118036 3303857
-0.01017496 -0.14903025 1.2123847 3303856
0.00025049597 -0.14934541 1.2125554 3369903
0.010669473 -0.14816073 1.2094483 3435441
0.019707609 -0.14932367 1.2093956 3435187
0.030198988 -0.14897618 1.2093037 3500978
0.04071806 -0.14899175 1.2092183 3369649
0.047465712 -0.14755936 1.2091372 3435441
-0.046455465 -0.13655841 1.2097037 3370159
-0.039927617 -0.13750991 1.2096677 3370416
-0.029565042 -0.13801809 1.2118429 3436469
-0.019180996 -0.13857767 1.2145189 3502005
-0.0098971967 -0.13883442 1.2144477 3501749
0.00045129657 -0.14260422 1.2144318 3501493
0.01097457 -0.13928458 1.2130355 3567542
0.020269465 -0.13963696 1.2139037 3567541
0.030672114 -0.13980538 1.2126342 3633333
0.041007467 -0.1398382 1.2099875 3567541
0.049612954 -0.13936357 1.208971 3633079
0.059706196 -0.13745692 1.2088541 3632566
-0.046607539 -0.12807366 1.209551 3501750
-0.039740629 -0.12848854 1.212003 3567798
-0.031341098 -0.12921974 1.2144482 3633848
-0.017860891 -0.13280818 1.2144034 3633591
-0.010898039 -0.13300075 1.2143501 3699128
0.01118291 -0.13245022 1.21416 3830714
0.021627184 -0.13273907 1.21408 3764921
0.031148102 -0.1320523 1.2139899 3830712
0.04172226 -0.1314365 1.2135353 3830713
0.050435029 -0.13138294 1.2131536 3830458
0.060751125 -0.13143808 1.2111052 3764409
0.068899848 -0.13016079 1.2092023 3764407
-0.055323228 -0.11696211 1.2094204 3698874
-0.048710994 -0.11778817 1.2116319 3764923
-0.040152423 -0.1186671 1.2143286 3765435
-0.033852123 -0.12307631 1.2143573 3699641
0.05975952 -0.12566526 1.2136406 3896252
0.069985852 -0.12152658 1.2108625 3831226
0.077340119 -0.12109365 1.2084132 3830458
-0.057696521 -0.10743486 1.2100565 3896508
