# .PCD v0.7 - Point Cloud Data file format
VERSION 0.7
FIELDS x y z rgba
SIZE 4 4 4 4
TYPE F F F U
COUNT 1 1 1 1
WIDTH 174
HEIGHT 1
VIEWPOINT 0 0 0 1 0 0 0
POINTS 174
DATA ascii
0.08803989 -0.11384061 1.1000785 5134174
0.094317466 -0.11543955 1.0976131 5134176
0.088496231 -0.11177959 1.1042829 4871515
0.076143026 -0.12650904 1.0889027 4936281
0.08585076 -0.12900963 1.0850339 5199967
0.090625361 -0.12967242 1.0842727 5397348
0.069460496 -0.12225889 1.095982 4673880
0.077023484 -0.12181835 1.0934606 4870232
0.086353444 -0.12372607 1.0923549 5068382
0.095999882 -0.125387 1.0913972 5068384
0.1039218 -0.12664561 1.0919632 4476504
0.071032301 -0.11695051 1.1037815 4607822
0.078029744 -0.11671041 1.1021035 4673623
0.088635094 -0.11852293 1.0997276 5134174
0.099022932 -0.11955861 1.0988897 4739419
0.10653225 -0.12186974 1.0980327 4081746
0.072436199 -0.11484486 1.1119413 4410445
0.080984212 -0.1128384 1.1102537 4213839
0.091179825 -0.11402108 1.1090969 4345429
0.10095789 -0.11556596 1.1071606 4016211
0.10879625 -0.11785176 1.1060972 3621193
0.082673043 -0.11060196 1.1149591 3884109
0.092058487 -0.111459 1.1143606 3752784
0.10224786 -0.11290419 1.1126745 3621192
0.10916544 -0.11435945 1.1105751 3686459
0.064932995 -0.13988741 1.0840986 4673626
0.072853133 -0.13883981 1.0807645 4870741
0.081573986 -0.14074671 1.0783877 5265754
0.091559909 -0.14205028 1.077564 5397604
0.10030762 -0.14469083 1.0799618 4608350
0.065977685 -0.13239604 1.0904624 4673629
0.073976651 -0.13225201 1.0868353 4870744
0.081949919 -0.13377038 1.0839852 5134174
0.094395436 -0.13517952 1.0841107 5397606
0.10244161 -0.1396967 1.0853609 4476760
0.10926385 -0.14077513 1.0889206 4015442
0.060600501 -0.13195233 1.1008407 3883351
0.064288415 -0.12776919 1.0979991 4475995
0.096644841 -0.13194194 1.0894309 5068641
0.1061459 -0.13366444 1.0917248 4082513
0.11197168 -0.13796449 1.0937788 3752531
0.065176077 -0.12227213 1.1064715 4079443
0.10994994 -0.12955862 1.0992037 3621705
0.11373416 -0.13395588 1.0977838 3751503
0.10998495 -0.12476812 1.1054759 3490378
0.071908079 -0.15959361 1.0713106 5002588
0.0750347 -0.16003707 1.0707933 5528419
0.063465238 -0.15403162 1.0814949 4739163
0.070116997 -0.15362573 1.0764824 5002333
0.079337962 -0.15502253 1.0746523 5397092
0.088685088 -0.15664981 1.0755535 5332066
0.094731241 -0.15846616 1.076321 4740695
0.063171804 -0.14744559 1.0829008 4082256
0.069821209 -0.14733474 1.0799828 5068120
0.092212096 -0.15207303 1.077634 5200736
0.10081777 -0.15369174 1.0802177 4345175
0.10802749 -0.15590362 1.0817903 4278096
0.10557193 -0.14709517 1.0866873 4147028
0.10996461 -0.15161534 1.0873082 3819087
0.11152928 -0.14504136 1.0923095 3687502
0.075886354 -0.17550087 1.0645251 5528423
0.080207124 -0.17586884 1.0643032 5397348
0.067714155 -0.1659549 1.0707566 4804702
0.076970376 -0.16683808 1.068785 5462626
0.086155988 -0.17017627 1.0689744 5003105
0.094744787 -0.17062104 1.0712113 4804440
0.060762491 -0.16159485 1.0817018 3817824
0.066035271 -0.16043672 1.0756617 4673622
0.08171019 -0.16265994 1.0730677 5660265
0.089250833 -0.16302219 1.0732439 5069150
0.098553352 -0.16486612 1.0751508 4475986
0.10475655 -0.16379577 1.0780506 4014924
0.10272497 -0.16077808 1.0793798 4606547
0.10880406 -0.16098507 1.0808187 3620428
0.06770695 -0.18375833 1.0626764 4079956
0.074078269 -0.18304862 1.0597248 5266270
0.079773158 -0.18571609 1.0601836 5002845
0.066274002 -0.17894621 1.0676904 4079963
0.073284253 -0.17931744 1.0632824 5330781
0.083939806 -0.18130399 1.06427 5002331
0.088483348 -0.1777415 1.0682802 5001816
0.093087032 -0.17818035 1.0706508 4540755
0.098929048 -0.17480397 1.0754486 4213074
0.07074932 -0.19985697 1.0576446 5265766
0.070559815 -0.19521756 1.0605304 5068639
0.079433441 -0.19529358 1.0603708 4214103
0.064138018 -0.18681477 1.0650992 1580089
0.08518301 -0.1895687 1.0635824 4145996
0.089086369 -0.18689196 1.0679394 4212054
0.06409499 -0.20209724 1.0590886 3618132
0.069233157 -0.20332523 1.0572332 5199718
0.075897001 -0.20377114 1.0571356 4214875
0.061180498 -0.24334314 1.0117167 528927
0.066046648 -0.24433702 1.0103 1517876
0.062503412 -0.25915852 1.0070487 4419983
0.049238306 -0.25237048 1.0146199 1651559
0.05488703 -0.24998774 1.0130202 1782104
0.066311583 -0.25084996 1.0079125 4154236
0.071849048 -0.25353324 1.0117779 3028033
0.058924086 -0.25200319 1.0210248 2369321
0.066735625 -0.24991043 1.0180719 2040105
0.063178264 -0.24027464 1.036144 4146252
0.047982592 -0.26345071 1.0146729 5077683
0.054182019 -0.264301 1.0107038 4617364
0.063314348 -0.26576787 1.0088471 4549258
0.069744259 -0.26182383 1.0115566 6582660
0.049551863 -0.25485516 1.0231622 7695014
0.057807453 -0.25492743 1.0255088 2040625
0.066013217 -0.25493231 1.0249834 2172202
0.071605593 -0.25798309 1.0195128 2760198
0.050533328 -0.2763699 1.0069784 4683677
0.056102596 -0.27715981 1.0060568 3831442
0.044561487 -0.27135921 1.0137767 3299734
0.051068731 -0.27202094 1.0100683 4683420
0.059290759 -0.27426779 1.0086602 3960460
0.028086767 -0.31802326 0.9496873 3829135
0.03612918 -0.31894484 0.94879752 4223637
0.042119656 -0.31999862 0.94739527 3960467
0.029223435 -0.31392062 0.95808369 3498881
0.037571888 -0.3145358 0.95694703 3895695
0.045497276 -0.31541541 0.95702821 3631246
0.031799871 -0.30649427 0.96659112 3499128
0.038714968 -0.30783972 0.96471262 4025235
0.047414482 -0.31031448 0.96495545 3499655
0.034434009 -0.30079961 0.97387022 3826560
0.040982492 -0.3021999 0.97296286 4156303
0.04851988 -0.30577362 0.97230077 3630985
0.036471091 -0.29946822 0.98354882 3893387
0.043065097 -0.29885763 0.98206806 4157333
0.050242741 -0.30150029 0.9822368 3762828
0.039771408 -0.29788563 0.99163365 3762325
0.046064034 -0.29430389 0.99134618 4420507
0.051978938 -0.29732341 0.99122983 3828877
0.041496377 -0.2918433 1.0040059 4222878
0.048331533 -0.29028115 0.99956739 4552347
0.05413951 -0.29393965 0.99950248 3631755
0.041716926 -0.28322619 1.0087748 3627913
0.049921058 -0.28330517 1.0049483 4683676
0.057026897 -0.28637871 1.0062307 3892613
0.059756622 -0.28022698 1.0115762 3563127
0.024197087 -0.32684177 0.94368666 3033484
0.032005094 -0.33056009 0.94252956 2897991
0.042039257 -0.33117616 0.94139051 3891064
0.049480505 -0.3333919 0.94157499 2638186
0.022211779 -0.3211382 0.95171535 666715
0.032399863 -0.32360446 0.94797331 4813457
0.046281308 -0.32423294 0.94837481 3499654
0.053118039 -0.32847244 0.94895411 3561592
0.023915812 -0.31619853 0.96186513 6722
0.048119415 -0.32015705 0.95680159 3694979
0.054483224 -0.32274887 0.95684987 3233144
0.05180512 -0.31594896 0.9657163 3104639
0.056212641 -0.31943896 0.96638191 2640231
0.05312955 -0.31172138 0.97438681 2907007
0.057119869 -0.31644368 0.97559106 3099492
0.033740558 -0.3033995 0.98881328 4089741
0.054697029 -0.30790812 0.98305631 3496061
0.058893614 -0.31218189 0.98540771 4278874
0.037668433 -0.30027708 0.99557132 2972810
0.056131214 -0.30431381 0.9927308 3757171
0.059434675 -0.30856392 0.99275672 3748927
0.039989915 -0.2979781 1.0004786 3630740
0.058302999 -0.30004984 0.99850643 3953004
0.029818144 -0.33775699 0.93943048 984897
0.040860996 -0.33755809 0.94115686 4350584
0.0558367 -0.32937008 0.96094084 4674411
0.057407912 -0.32782423 0.96949464 6974583
0.057981983 -0.32286286 0.97955233 3815753
0.029306032 -0.31120712 0.99282217 5799072
0.060931176 -0.31622216 0.98652261 5064001
0.054056488 -0.34295902 0.96113294 7039097
0.054927759 -0.34135449 0.96671909 7565430
0.056055225 -0.33727273 0.97432202 8223350
0.05773291 -0.32954353 0.97957933 9076613
