# .PCD v0.7 - Point Cloud Data file format
VERSION 0.7
FIELDS x y z rgba
SIZE 4 4 4 4
TYPE F F F U
COUNT 1 1 1 1
WIDTH 1126
HEIGHT 1
VIEWPOINT 0 0 0 1 0 0 0
POINTS 1126
DATA ascii
0.045455478 -0.22675374 1.142718 4486314
0.052993681 -0.22669917 1.1405985 5997746
0.064286992 -0.22429901 1.1413109 6063288
0.073036097 -0.22327533 1.1423298 6589614
0.081119381 -0.22388908 1.1421927 8757678
-0.072660983 -0.20515555 1.1369004 1855898
-0.06601961 -0.20803501 1.1399926 2249885
-0.058395211 -0.21077435 1.1438679 2381985
-0.050368752 -0.21330601 1.1444317 3039902
0.067293748 -0.21740328 1.142505 2841504
0.073336385 -0.21714994 1.1424128 3302564
0.082979634 -0.21534446 1.1409519 4420011
0.092741303 -0.21492743 1.1364208 6984117
0.10226687 -0.21260323 1.1340166 6254993
-0.083265476 -0.19411732 1.138027 2710418
-0.075652167 -0.19780494 1.141435 2775447
-0.069001734 -0.2003994 1.144112 2906776
0.085825838 -0.20759429 1.1419512 3171492
0.094348632 -0.20659706 1.1390294 3237285
0.10266722 -0.20573014 1.1346803 3629215
-0.085745558 -0.18709387 1.1421677 2775191
-0.077750213 -0.19101396 1.1445186 2906012
0.096778788 -0.19752097 1.1406544 3040421
0.1037425 -0.19613011 1.1371771 3105703
0.1095827 -0.19662802 1.1341292 2777257
-0.1004435 -0.17222416 1.1378129 2710677
-0.093819812 -0.17648426 1.1411769 2709909
-0.087747589 -0.18042651 1.1434952 2709910
0.10535993 -0.18786892 1.1408495 3368100
0.11295297 -0.18634295 1.1363567 3302561
-0.10130043 -0.16567293 1.141032 2710421
-0.096596204 -0.16881312 1.1450022 2644886
0.10781879 -0.18023795 1.1423937 3040936
0.1159701 -0.17750511 1.1402159 3237031
0.12246262 -0.17487827 1.1372367 3368615
-0.11034675 -0.15214223 1.1382575 2776209
-0.10506584 -0.15695059 1.1428559 2841240
0.11844885 -0.16915879 1.1423835 3237287
0.12492453 -0.16717622 1.137165 3302822
-0.11094841 -0.14551449 1.1428963 2710683
-0.10637551 -0.1490716 1.1455734 2841499
0.1276371 -0.15891661 1.1397953 3237541
0.13267536 -0.1563929 1.1359389 3237798
-0.1126459 -0.13687478 1.1436566 2907293
0.12979016 -0.15028086 1.1424737 3237797
0.13456309 -0.14789997 1.1374308 3303334
-0.11843663 -0.12482778 1.13992 2907805
-0.11622451 -0.12665576 1.1459173 2907805
0.13690032 -0.13867509 1.1400819 3434407
-0.11845518 -0.11552994 1.1415776 3039392
-0.11581304 -0.11691481 1.1468503 3039391
0.1393082 -0.12920761 1.1400521 3500202
0.14351024 -0.12642197 1.1345955 3631274
-0.12112231 -0.10624732 1.1436199 3170979
0.14179419 -0.11907899 1.1422851 3631791
0.1451184 -0.11859348 1.1364602 3566510
-0.12100045 -0.095907845 1.1449472 3105957
0.14149769 -0.10792158 1.141227 3632305
0.14658089 -0.10918646 1.1351268 3501227
-0.12092683 -0.08584363 1.1428038 3237546
0.14147094 -0.098827153 1.1404786 3698099
0.1459835 -0.099359006 1.1353437 3698094
-0.11982342 -0.076141693 1.1431633 3434923
0.14316845 -0.089633204 1.1411289 3895479
0.14521427 -0.091663085 1.1350659 3895477
-0.11892308 -0.065725103 1.1439173 3566256
0.14400156 -0.0783768 1.1426104 4027579
0.14646751 -0.077875502 1.1392443 4157882
-0.11750536 -0.056864284 1.1432651 3567024
0.14242336 -0.06874451 1.1422634 4159422
0.14666981 -0.069038801 1.1377672 4289724
-0.11474689 -0.047121312 1.1411642 3567791
-0.11146814 -0.045417409 1.1464711 3764403
0.14118363 -0.058615208 1.1409376 4356797
-0.10938822 -0.036490992 1.1404692 3830196
0.13897879 -0.048901591 1.140178 4619718
-0.10734626 -0.025708728 1.1429293 3896507
0.13548331 -0.036831707 1.1408952 4817095
0.13992561 -0.037582759 1.137591 4948420
-0.11447816 -0.016191639 1.1442699 6916535
-0.10702965 -0.017081827 1.1438313 5210049
0.13498431 -0.030437581 1.1431063 5013440
0.13942273 -0.030204989 1.1407053 5998788
0.038352903 0.048491426 1.1416264 5859448
0.046514176 0.048195772 1.139635 6122362
0.052120712 0.048010282 1.142544 6319482
0.063343875 0.048676513 1.1463764 5330522
0.039127637 0.052926369 1.1401534 5792108
0.046975955 0.053396724 1.139502 5527648
0.052334461 0.052370347 1.142603 5067354
-0.024444729 -0.22774148 1.1468141 4354997
-0.017113455 -0.22915494 1.1486779 4684224
-0.0072377278 -0.22932234 1.1470517 4289976
0.0038313875 -0.22755092 1.1463679 2054307
0.014222583 -0.22860765 1.1461878 2777510
0.01965202 -0.22997192 1.146082 4026798
0.036101613 -0.23077464 1.1458094 5604271
0.040020496 -0.22931695 1.145768 4881326
-0.042894017 -0.21647631 1.1472682 3039902
-0.034991793 -0.21778756 1.1476241 2710943
-0.026582971 -0.22014704 1.1502619 2645152
-0.016804259 -0.22353107 1.1534213 2514339
-0.0068793027 -0.22390446 1.1527249 2514851
0.0031241802 -0.22186346 1.1510617 2842787
0.012982732 -0.22189061 1.1487042 2908579
0.022668727 -0.22197452 1.1490382 3039651
0.032832995 -0.22318941 1.1499709 2908578
0.042209785 -0.22277078 1.149578 2778020
0.052273303 -0.22156711 1.1471134 2646433
0.061682753 -0.22469434 1.1454904 5012145
0.07313475 -0.22653571 1.1452821 8955830
-0.05549169 -0.20743686 1.1478834 2841242
-0.045730434 -0.21001601 1.1497396 2775960
-0.03676521 -0.21175635 1.1515062 2841500
-0.02741671 -0.21443766 1.1550535 2907551
0.0042745145 -0.21524623 1.1545389 3105184
0.013494633 -0.21532722 1.1543913 3170722
0.023432873 -0.21581218 1.1542265 3302053
0.033582222 -0.21575403 1.1540663 3170723
0.0441177 -0.21534571 1.1539049 3105188
0.053449351 -0.21498349 1.1520473 3170467
0.062992357 -0.21518674 1.1480062 3236258
0.073262274 -0.21221542 1.1459297 3171236
-0.071535535 -0.19529116 1.1480261 2906776
-0.065104671 -0.19785926 1.1490304 2907033
-0.056655284 -0.19930771 1.1525669 2841497
-0.04756017 -0.20386127 1.1555247 2775704
0.054730795 -0.20959102 1.1538187 3105443
0.063564785 -0.21002212 1.1536723 3105443
0.074507594 -0.20681709 1.152281 3105956
0.082947776 -0.20430699 1.1486453 3105956
-0.081964292 -0.18378922 1.1483563 2644884
-0.075031251 -0.18774049 1.1511904 2775705
-0.066769227 -0.19105548 1.1536791 2841497
0.078461401 -0.19967979 1.1535839 3172006
0.086210102 -0.19765954 1.1524895 3040421
0.092141032 -0.19556263 1.1499249 2974628
-0.090307303 -0.17458767 1.1486205 2645144
-0.083711125 -0.17672122 1.1515448 2710425
-0.078524008 -0.17971931 1.1529325 2776216
0.096031167 -0.18710648 1.1502342 3171493
0.101063 -0.18507631 1.1470326 3237026
-0.092908539 -0.1664694 1.1513668 2710424
-0.086592719 -0.16904303 1.1551878 2710937
0.099312343 -0.1807726 1.1535234 3302823
0.10578538 -0.17695592 1.1503167 3172005
0.11171419 -0.17408969 1.1494213 3172006
-0.10105497 -0.15464219 1.1490767 2841498
-0.096711002 -0.15744415 1.1538918 2907290
0.10868771 -0.17016083 1.1535265 3303592
0.11507232 -0.16706839 1.1521358 3237544
0.12132283 -0.16292921 1.1454276 3303337
-0.10237654 -0.14613402 1.1509341 2973342
-0.097844645 -0.1495662 1.1571002 3038879
0.11909006 -0.15950114 1.1528472 3237544
0.12352167 -0.15662332 1.1482836 3303336
-0.10983765 -0.13419436 1.150509 2973342
-0.10386361 -0.13771492 1.1548648 2973600
0.12739247 -0.1476928 1.1495503 3368872
-0.11100747 -0.12628393 1.1519941 3039392
-0.10553637 -0.12744761 1.1575389 3236259
0.1291817 -0.1383532 1.1514059 3500460
0.1336333 -0.13604742 1.145617 3434923
-0.11162554 -0.11660742 1.1526785 3170978
0.13067392 -0.12949944 1.1524259 3500719
0.13543198 -0.12718329 1.1490494 3500718
-0.11767986 -0.1050952 1.1500498 3237029
-0.113844 -0.10673559 1.1559668 3237286
0.13624702 -0.11839384 1.1519349 3697329
-0.11724975 -0.096321777 1.1501685 3237543
-0.11455374 -0.096119143 1.1576303 3172263
0.1379018 -0.10934629 1.1515326 3697843
-0.11703274 -0.08672525 1.1533031 3303340
-0.11482839 -0.085826941 1.1582822 3303852
0.13819413 -0.098908685 1.1520776 3764149
-0.11666549 -0.076929294 1.1504369 3500716
-0.1137576 -0.075811408 1.1584085 3501229
0.14162001 -0.088608257 1.1507417 3764661
-0.11590565 -0.068904825 1.1505396 3566512
-0.11250181 -0.065704167 1.154896 3632306
0.13914052 -0.078266129 1.1508282 3896764
-0.11142982 -0.056125127 1.1550162 3698357
0.13368994 -0.067978315 1.1532586 4291265
0.13737381 -0.0692534 1.1476568 4225217
-0.10938561 -0.047202215 1.1547477 3764408
0.13493106 -0.058416136 1.152709 4554434
0.13745056 -0.058183286 1.1466708 4488640
-0.10589658 -0.036659203 1.1556435 3895997
-0.10157345 -0.033710167 1.1588176 4027323
0.13505271 -0.047598813 1.1518617 4817354
-0.10394372 -0.027163118 1.1522808 3962044
-0.099820398 -0.026237167 1.1580967 4093118
0.12638903 -0.034872383 1.155182 5014224
0.13157851 -0.037806727 1.1510568 4751563
-0.10235859 -0.01679945 1.1510704 4290235
-0.097405061 -0.016974218 1.1555237 4158908
-0.091064923 -0.015036218 1.1589181 4028609
0.12504372 -0.027736507 1.1535274 4817874
0.13165008 -0.02770298 1.1481994 5145287
-0.094732448 -0.010420457 1.1534412 4487616
-0.089161038 -0.0080840066 1.1576538 4356800
0.11681049 -0.014803059 1.1536208 5276623
0.12293727 -0.01806704 1.1497618 5604813
0.13224714 -0.019721128 1.1481931 6720449
-0.086698361 -0.0012282059 1.1590465 5671109
0.1152488 -0.0091746226 1.1551552 5802961
0.12150528 -0.010194287 1.1509451 6787017
0.04005219 0.010297231 1.1571991 12972031
-0.014674284 0.022919178 1.1562482 5869264
0.017537829 0.017668538 1.1576622 7515376
0.025004134 0.016935192 1.1575332 8764660
0.03457718 0.016025268 1.1573681 10146554
0.041152138 0.014671266 1.1572443 10870005
-0.072014287 0.034119777 1.1513175 8028800
-0.066878714 0.034235604 1.1512376 7305855
-0.010201882 0.023818925 1.1581906 5671370
-0.0068891356 0.023657262 1.1581357 5869265
0.01630009 0.022525631 1.1577513 6988787
0.020717084 0.022310078 1.1576781 7185904
0.1072816 0.026941158 1.1563702 6314850
-0.0654153 0.039172105 1.1512851 8028802
0.10436294 0.030625783 1.1564692 6117979
0.080823712 0.042417951 1.1490098 5593178
0.083016992 0.042310916 1.1489735 5658970
-0.022030443 -0.21772362 1.158922 2973083
-0.016544499 -0.21910208 1.1588151 2973595
-0.0070963008 -0.21914139 1.1593314 2973598
-0.041432176 -0.2056694 1.1594025 2842012
-0.035128769 -0.20736545 1.1592782 2776219
-0.025897086 -0.21031979 1.1606134 2907806
-0.016356293 -0.2121883 1.1620697 2907807
-0.0058355546 -0.21324527 1.162063 2973599
0.0031055212 -0.21130359 1.1592816 3039136
0.013894151 -0.21084785 1.1597837 3170723
0.023854919 -0.21120542 1.1589537 3236770
0.033653054 -0.21121329 1.1581311 3170979
0.042698398 -0.2114411 1.1579843 3170980
0.049428198 -0.21010339 1.1578966 3171236
-0.052078117 -0.19626394 1.1597061 2842012
-0.045465671 -0.19887441 1.1610187 2842011
-0.035958692 -0.2016134 1.1618358 2842012
-0.027728077 -0.20348698 1.1632171 2907805
0.018623851 -0.20714214 1.1624289 3302309
0.024666622 -0.20626356 1.1612024 3302308
0.033293247 -0.20654492 1.159704 3171236
0.043996584 -0.20761684 1.1580184 3171236
0.054702394 -0.20678684 1.1595273 3105443
0.064595677 -0.20533568 1.1587242 3171492
0.071212724 -0.20376152 1.1576415 3040420
-0.072587892 -0.18415564 1.1602051 2841497
-0.063949354 -0.18733665 1.1605558 2907291
-0.055630367 -0.19041455 1.1617291 2907549
-0.048988659 -0.19195403 1.1637197 2907551
0.068090685 -0.19841054 1.1617686 3040420
0.075158335 -0.19688627 1.159783 3106213
0.083063163 -0.19463934 1.157584 3106214
-0.073740125 -0.17763254 1.1623172 2907290
-0.067278877 -0.18085074 1.1636689 2973340
0.079645351 -0.19005796 1.1617047 3302823
0.085761733 -0.1879364 1.1592374 3237030
0.092063323 -0.18483578 1.1593596 3237031
-0.090446971 -0.16329074 1.1607872 2841497
-0.082222685 -0.16718288 1.1611345 2842012
-0.076181069 -0.16974974 1.163469 2907547
0.097604603 -0.1774016 1.1585231 3368361
0.10282686 -0.17438862 1.15756 3237285
-0.091634654 -0.15730882 1.1608918 2973085
-0.084830299 -0.15790299 1.1635126 3039135
0.10024685 -0.17037511 1.1576585 3368615
0.10693748 -0.16737741 1.1583226 3237799
0.11165333 -0.1642673 1.1575648 3303337
-0.098387912 -0.1440206 1.1611892 2973857
-0.093114153 -0.14783293 1.1626067 3039137
-0.087193057 -0.14903684 1.1649405 3104930
0.10931139 -0.16000216 1.1596634 3172264
0.11564652 -0.15739951 1.1582665 3238059
-0.099160284 -0.13578504 1.1623195 3039650
-0.095312841 -0.13961269 1.1652043 3105700
0.11938174 -0.1478475 1.1598314 3369132
0.12354871 -0.14818664 1.1576061 3434410
-0.10148235 -0.12710878 1.163195 3171236
0.12168527 -0.13984287 1.1609558 3500719
0.1251469 -0.13768888 1.1597314 3435183
-0.10805603 -0.11466947 1.1617627 3302823
-0.1034655 -0.11691138 1.164325 3171495
0.12639937 -0.12763889 1.1596736 3566514
-0.10935466 -0.1059809 1.1633626 3368873
-0.10571003 -0.10736022 1.1650308 3368875
0.12954545 -0.11857532 1.1587349 3697588
-0.10979443 -0.096899539 1.164712 3303850
0.13162281 -0.10910192 1.1614667 3763892
0.13482285 -0.10852794 1.1579947 3698099
-0.11065361 -0.086626217 1.1638057 3435181
-0.10479163 -0.087434702 1.1661017 3435438
0.13314593 -0.099046059 1.162158 3829942
0.13597049 -0.098595776 1.1592618 3764149
-0.10913891 -0.077021457 1.1643193 3501229
0.13380004 -0.085703298 1.1623386 3896505
0.13801447 -0.088765197 1.1600456 3830455
-0.10806596 -0.067195565 1.1639812 3632563
-0.10364692 -0.06408488 1.1664177 3567542
0.13175353 -0.078402117 1.1599036 4027837
0.13678059 -0.082187794 1.1583407 3896505
-0.10681871 -0.057183884 1.1638995 3829940
-0.10331986 -0.0574135 1.166508 3699127
0.13074426 -0.068745323 1.1612962 4291009
-0.10591261 -0.047068492 1.1634965 3895737
-0.10214719 -0.046484385 1.1666458 4027576
0.131521 -0.058724128 1.1607605 4422849
-0.10441636 -0.040427323 1.1627676 4158911
-0.099721633 -0.036980201 1.1647429 4093372
0.13193403 -0.048982289 1.1603934 4817355
-0.095525205 -0.027769193 1.1643465 4093630
-0.090565987 -0.024599195 1.1667752 4094397
0.1250287 -0.037895311 1.161384 5080014
0.12934494 -0.041282829 1.1590443 4883149
-0.093060486 -0.020247631 1.1628762 4028348
-0.088411555 -0.017934531 1.1643358 4028864
0.12100749 -0.028038658 1.1611444 4949202
-0.084378734 -0.0085322037 1.1647247 4029123
-0.080021381 -0.0065378323 1.1668663 3963586
0.11542739 -0.017902553 1.1622671 5146069
0.11860673 -0.022431552 1.1594846 5080276
-0.083218232 -0.00073455274 1.1629993 5342665
-0.075936422 0.0010075644 1.1669095 4882633
-0.012376028 0.0016781613 1.16591 6070261
-0.0057048807 0.0013526082 1.1657995 6528744
0.00096626766 0.0010270551 1.1656889 8827627
0.016532274 0.00026743859 1.1654309 10340848
0.02523715 -0.00079425424 1.1652775 8895736
0.032699987 -0.0018590167 1.1651437 6266608
0.10701616 -0.0046919361 1.1629232 5475287
0.11129358 -0.0083999187 1.1611352 5475028
-0.072206095 0.0068502352 1.1649334 5999306
-0.065499641 0.007633701 1.1648382 5540557
-0.056789737 0.010556273 1.1640749 5803727
-0.04396097 0.011640601 1.1665541 4950220
-0.035065021 0.010080688 1.1663905 5016280
-0.025388289 0.009002082 1.1658213 5411294
-0.015383204 0.0085251778 1.1638153 5806569
-0.0053807208 0.0080276653 1.1652898 7120874
0.0042416751 0.0082975924 1.165741 12379901
0.01475692 0.0072937831 1.1630328 13891069
0.024537578 0.0065866858 1.1621935 12969723
0.034505509 0.0063255951 1.1629159 9946095
0.044559497 0.0055976734 1.1631488 10013177
0.054371756 0.0070047453 1.1627723 7449069
0.061144728 0.0084928721 1.1648403 5411552
0.10427567 -0.00064457953 1.1615243 6526426
-0.041742068 0.0164859 1.1665882 6264275
-0.03415747 0.016954064 1.1639739 5803990
-0.024585426 0.017138019 1.1623243 5345755
-0.01452944 0.017910473 1.1621757 5412839
-0.0049143909 0.018028259 1.1625248 5676266
0.0041039614 0.016633905 1.1647193 7253489
0.013885492 0.016000003 1.1626974 8436213
0.023727141 0.013299368 1.1615024 12051453
0.038349126 0.017028794 1.1613235 10082302
0.046143156 0.015907951 1.1611838 10607102
0.054575738 0.014650166 1.161032 7515119
0.061596438 0.013675123 1.1622401 6068200
-0.0024315519 0.023461856 1.1620631 6001365
0.0020006616 0.023245558 1.1619896 6396124
0.11463976 0.023524649 1.1602054 6447199
-0.012611589 -0.20861807 1.1669046 3039391
-0.0050261943 -0.20843577 1.1682872 3039135
0.0063546691 -0.20954365 1.1665902 3104930
-0.041071847 -0.19604553 1.1675364 2776478
-0.034715503 -0.1972795 1.1694182 2842271
-0.024870913 -0.19943073 1.1714135 2907807
-0.015738454 -0.20174479 1.1717494 2908063
-0.0057565952 -0.20309755 1.1726761 2973600
0.0045919465 -0.2026127 1.172052 3105187
0.014510221 -0.2027327 1.1709731 3236773
0.024257779 -0.20185828 1.1701502 3237029
0.035188232 -0.2024783 1.1700345 3171237
0.044744629 -0.20386431 1.1675624 3171236
0.054320272 -0.20276245 1.1668491 3105444
0.063215226 -0.20169392 1.1657999 3171493
-0.052765254 -0.18663798 1.1710575 2841758
-0.04477606 -0.18934867 1.171692 2907551
-0.035886426 -0.19092856 1.1743524 2842271
-0.025253613 -0.19265343 1.1753356 2908064
-0.018569056 -0.19410564 1.1752088 2973857
0.0027731024 -0.19514714 1.174855 3105444
0.01567727 -0.19477597 1.1746554 3237030
0.025681663 -0.19566962 1.1736836 3302823
0.035367392 -0.19535831 1.1734113 3171495
0.044779062 -0.19440031 1.1728072 3105703
0.054460727 -0.19512889 1.1724343 3105703
0.064249553 -0.19508205 1.1703792 3105702
0.072651446 -0.19294715 1.16749 3105958
-0.063677877 -0.1783777 1.1697956 2973598
-0.055707831 -0.18054844 1.1739919 2907551
-0.045888163 -0.18291999 1.1758026 2908065
0.066494681 -0.18682355 1.1739626 3237288
0.075300001 -0.18650565 1.1713823 3302823
0.084005646 -0.18484496 1.168283 3237287
-0.072499573 -0.16668251 1.1713134 3105183
-0.065159447 -0.17046291 1.174404 2974112
-0.056947369 -0.17309082 1.1761189 2842786
0.077160209 -0.17986047 1.1738929 3171750
0.085934639 -0.17665645 1.1724658 3172008
0.094007939 -0.17523429 1.1680236 3303081
-0.080174953 -0.15658477 1.1693888 3104930
-0.073974654 -0.1592924 1.175253 3170978
0.088849865 -0.16846317 1.1738704 3303337
0.096656792 -0.16729216 1.1715127 3368873
0.10360289 -0.16627973 1.1682117 3237543
-0.089338347 -0.14336237 1.171724 3040164
-0.08279001 -0.14745826 1.1726846 3105701
-0.076567784 -0.15224072 1.1767287 3302822
0.09870515 -0.15839191 1.1738582 3303597
0.1061486 -0.15626587 1.1694057 3238059
0.11333684 -0.15353279 1.167694 3303852
-0.091449112 -0.13693264 1.1729609 3106213
-0.083726712 -0.13941155 1.177026 3172007
0.1075577 -0.14731124 1.1736761 3369387
0.11543744 -0.14740464 1.1697488 3435181
-0.098130926 -0.12632434 1.1707739 3237030
-0.091530368 -0.12737966 1.1749883 3237800
-0.085293189 -0.13117163 1.1771688 3303594
0.10967367 -0.14136161 1.1739278 3500972
0.1182302 -0.13745192 1.1705971 3500976
0.12297471 -0.13471204 1.16581 3500977
-0.098787405 -0.11704863 1.1726952 3237545
-0.09414795 -0.11899641 1.1765946 3303852
0.12053353 -0.12807934 1.1739455 3566772
0.12377197 -0.12851438 1.1698868 3566515
-0.10081887 -0.10723086 1.1730069 3369389
0.12185614 -0.11859971 1.1740602 3763639
0.12518366 -0.11775917 1.1691294 3763639
-0.10694775 -0.093052961 1.1713901 3435181
-0.10171142 -0.097043991 1.1744887 3435438
0.12304083 -0.1075584 1.1741995 3895737
0.12794282 -0.10760736 1.1689432 3764149
-0.10611406 -0.086624265 1.1725358 3435438
-0.10071592 -0.08757484 1.1764989 3501231
0.12331617 -0.10194185 1.1742754 3961530
0.12880091 -0.098154448 1.1690649 3961528
0.13610043 -0.095091254 1.1661687 3895735
-0.1053705 -0.077406794 1.173256 3501489
-0.10105151 -0.077434234 1.1760701 3501490
0.12419728 -0.083968885 1.1745187 4159679
0.12959695 -0.088849992 1.1696347 3962041
0.13620982 -0.092859857 1.1661988 3895735
-0.10549536 -0.07003767 1.1723633 3501747
-0.10049449 -0.067124151 1.1749928 3567541
0.1237605 -0.077566922 1.1746173 4225473
0.12736116 -0.078191265 1.1705502 4159424
-0.098242581 -0.057056509 1.1740342 3764919
0.12394533 -0.068693072 1.1747414 4422597
0.12785512 -0.068115711 1.1706866 4357059
-0.097274847 -0.047318079 1.1739868 3896505
-0.092450753 -0.047498513 1.1784801 3962298
0.12434061 -0.058077935 1.1748871 4685767
0.12834907 -0.058040157 1.170823 4422851
-0.095397726 -0.038248844 1.1722579 4027836
-0.090219565 -0.03680703 1.1775066 4028094
0.12295316 -0.047376148 1.1729441 4948684
0.12867406 -0.049487483 1.1679395 4751818
-0.093331911 -0.030213185 1.1707398 4093632
-0.087505884 -0.027123019 1.1765389 4094399
0.11675683 -0.036689222 1.1753136 5080784
0.12093555 -0.037896514 1.1704289 5211343
-0.083871827 -0.01882837 1.1751171 4094402
-0.07716015 -0.01612433 1.1776862 4226244
-0.070579775 -0.014785893 1.1786011 4620744
-0.016607694 -0.016293734 1.1777228 5412064
0.0058577359 -0.017390043 1.1773504 6463211
0.013730973 -0.021615915 1.1771649 6397929
0.023437085 -0.02144812 1.1770133 6397929
0.032753307 -0.019989401 1.1768862 6003432
0.11417136 -0.027239934 1.1729892 5081042
0.11913619 -0.030516297 1.1673623 5081041
-0.07550098 -0.0083152205 1.1726372 4160963
-0.067305207 -0.0078493059 1.1777911 4752075
-0.052111816 -0.0055531487 1.1784402 4949201
-0.045399722 -0.0064437017 1.1783209 5016022
-0.035896391 -0.0080193579 1.1774806 5213659
-0.026131913 -0.0093933642 1.1767417 5411552
-0.016330287 -0.01066035 1.1769989 5740773
-0.0062229065 -0.011170521 1.1776313 6003172
0.0038791997 -0.011655048 1.1770638 6331366
0.013924084 -0.012084477 1.1742976 6989552
0.024018934 -0.012586713 1.1745303 6792432
0.034082092 -0.013061456 1.1737134 5937640
0.042639453 -0.012593612 1.1758349 5806054
0.053420611 -0.011829138 1.176675 5674725
0.060215309 -0.011034712 1.1765784 5674983
0.10586472 -0.015795901 1.1757855 5146841
0.11168327 -0.018066831 1.169945 5080789
-0.071718484 4.645437e-005 1.1708298 4554184
-0.068188071 0.0006608963 1.1737832 4751049
-0.052894469 0.00014209747 1.1765336 4818129
-0.045474064 -0.00020689517 1.1756107 5015507
-0.035999428 -0.0006095022 1.1720537 5147609
-0.025925238 -0.0010790601 1.1705867 5346018
-0.016274441 -0.001968056 1.1730325 5937898
-0.0058719991 -0.0032259747 1.1730716 6462952
0.0045931516 -0.0029760823 1.17202 8303605
0.013933712 -0.0035212785 1.1708478 8501495
0.023717429 -0.0049667954 1.1698583 7252467
0.035051476 -0.0049879104 1.1705174 6069484
0.04425478 -0.0043598637 1.1712418 6135528
0.054384097 -0.0052802414 1.1741645 5741031
0.063796133 -0.0055649728 1.1755996 5543655
0.073342212 -0.0047460794 1.17646 5477092
0.083459012 -0.0039116815 1.1763114 5739747
0.094804287 -0.0047155693 1.1761198 5280481
0.10382548 -0.0077339783 1.1722401 5015513
0.1091741 -0.0099380016 1.1698154 4949463
-0.064696334 0.0064139962 1.1708094 4818122
-0.055226568 0.0069459602 1.1706667 5147606
-0.04651273 0.0072663054 1.1705329 4818639
-0.037920453 0.0051073357 1.1703656 5344472
0.0067333952 0.0034874082 1.1696335 12971007
0.011168696 0.0027117729 1.169552 12905215
0.035713263 0.0015140027 1.1691452 5807584
0.049101211 0.00086066872 1.1689233 6004710
0.055204548 0.0015214309 1.1688359 5807083
0.064139999 0.0035351887 1.1708566 5477863
0.072651751 0.0026496202 1.1732427 5542628
0.084354706 -0.00095274299 1.1763395 5673698
0.094981849 0.00050992519 1.1746913 5804766
0.10042169 -0.0016437694 1.1680727 5147865
0.067498773 0.011146568 1.1687784 5412324
-0.01193173 -0.19740689 1.179057 3039650
-0.0055228723 -0.19836524 1.1789415 3039650
-0.0318323 -0.18852708 1.1795 2842271
-0.025069848 -0.18885708 1.1793879 2973857
-0.014791603 -0.19046842 1.1804651 2973857
-0.0051181251 -0.19271237 1.1815429 3039395
0.0056105545 -0.19128907 1.1806443 3171237
0.014962846 -0.19031605 1.1797984 3237030
0.025329381 -0.19027725 1.1801063 3302569
0.033647306 -0.19082174 1.1797613 3237546
-0.050962534 -0.17710242 1.1799673 2908065
-0.043442383 -0.1784378 1.1798288 2973857
-0.034842253 -0.18063682 1.180661 2973857
-0.025183991 -0.18302651 1.1815913 2973858
-0.016912986 -0.18428564 1.1833248 3105444
0.014751659 -0.18583089 1.1827999 3237030
0.026511341 -0.18489325 1.1826267 3302825
0.035448674 -0.18486959 1.1821773 3171754
0.045240808 -0.18584342 1.1803153 3171752
0.055582248 -0.18591619 1.1795617 3171753
0.06415502 -0.18320777 1.1790525 3237546
0.072466478 -0.18118891 1.1779493 3303592
-0.061662849 -0.16711134 1.1802802 2908579
-0.053554397 -0.16970649 1.1821147 2908579
-0.043790206 -0.17166688 1.1828409 3105444
-0.035219878 -0.17386983 1.1837645 3105443
0.059299521 -0.17893583 1.1821914 3303339
0.067412518 -0.17703772 1.1807561 3303082
0.075868219 -0.17531112 1.178551 3237545
0.081925139 -0.17261201 1.1779219 3303850
-0.070126899 -0.15540017 1.1805822 3302822
-0.06369824 -0.16005467 1.1826639 3040165
-0.056737583 -0.16420421 1.1842444 3040167
0.071051866 -0.17044035 1.1821264 3303598
0.077287242 -0.16673231 1.1811391 3238061
0.08591073 -0.16506201 1.179078 3303596
0.093693197 -0.16301799 1.1778723 3369131
-0.079379149 -0.14440376 1.1808865 3171751
-0.073117487 -0.14836559 1.1821424 3368615
-0.066361077 -0.15239833 1.1845663 3171751
0.095851287 -0.15656114 1.1794308 3369134
-0.081006184 -0.13726303 1.1810145 3369130
-0.074943677 -0.13956171 1.1838859 3434922
0.097473517 -0.1469851 1.1810901 3435183
-0.082287058 -0.12861051 1.1824923 3434923
0.10057193 -0.14003554 1.1812928 3501232
0.10746723 -0.1372278 1.1806116 3435694
0.11423489 -0.13577513 1.1779362 3501232
-0.089958534 -0.11707555 1.1824458 3369646
-0.084404886 -0.12112737 1.1839666 3435182
0.11166406 -0.12821084 1.1820861 3567282
0.11575563 -0.12784576 1.1798441 3567027
-0.097732551 -0.10396472 1.1817566 3501231
-0.093302421 -0.10815316 1.184377 3435439
0.11205216 -0.12029441 1.1821933 3829686
0.11725945 -0.11770856 1.1803695 3829431
-0.097566783 -0.10058337 1.1818024 3501231
-0.093000829 -0.097584866 1.1834399 3567024
0.1200302 -0.10845927 1.1809024 3830201
-0.096876085 -0.086494438 1.1819931 3632818
-0.093654372 -0.087399989 1.1839294 3698612
0.12265399 -0.097955845 1.1803443 3896507
-0.096406408 -0.07691396 1.1821228 3633333
-0.092531703 -0.077336967 1.1848558 3764919
0.12298163 -0.087745279 1.1799852 4093886
-0.096426249 -0.068100467 1.1822493 3633334
-0.092297189 -0.067410722 1.1853943 3830201
0.12046455 -0.077996776 1.180887 4291523
-0.091394313 -0.057120517 1.1839936 3896506
0.120479 -0.067492887 1.1804148 4619975
-0.087650053 -0.047742303 1.184116 4028348
0.11521238 -0.055831999 1.1830658 5146320
0.11951047 -0.058251601 1.1819627 4883148
-0.08549621 -0.03840249 1.1827866 3962814
-0.080414765 -0.037324734 1.1852933 3963072
0.11462995 -0.046946194 1.1817019 5146577
0.11827711 -0.048721272 1.1796182 5080527
-0.083683401 -0.029404879 1.1826009 4028607
-0.077393413 -0.02799198 1.184655 4291526
-0.027411431 -0.028466709 1.1857218 5147865
-0.019936536 -0.028604761 1.1856011 5344731
-0.003607505 -0.028494716 1.1853435 5345501
0.0031777732 -0.028825834 1.185231 5739743
0.013213851 -0.031531744 1.1836994 5936862
0.022261973 -0.031986073 1.1838826 5871068
0.032525215 -0.031391613 1.1847284 5739228
0.05067474 -0.031143688 1.1844438 5213656
0.11318929 -0.037982821 1.181753 4949970
-0.075287186 -0.020606652 1.1825935 4422856
-0.066603824 -0.016287282 1.1843361 4686797
-0.056189325 -0.015668519 1.1843615 4884690
-0.045853287 -0.017633125 1.1856695 4950486
-0.035461973 -0.018888853 1.184653 5213659
-0.0269906 -0.020449825 1.1826291 5279707
-0.016892452 -0.022086613 1.1828455 5345244
-0.0066621387 -0.020950548 1.1826104 5411808
0.0031265588 -0.02254054 1.1822302 5806052
0.012283091 -0.02610404 1.1811246 6068964
0.024286814 -0.027066424 1.1809202 6068963
0.034441795 -0.025191136 1.1817091 6003173
0.042985477 -0.023899548 1.182469 5608417
0.053181518 -0.024414547 1.1829 5411038
0.060054436 -0.024799667 1.1843857 5279709
0.10475888 -0.025210045 1.1827468 5212630
0.11019403 -0.029046372 1.1808616 5015248
-0.062660009 -0.010772109 1.1825337 4949712
-0.055897553 -0.011102118 1.1824217 4949713
-0.045753863 -0.011597134 1.1822536 5016279
-0.036379989 -0.012431167 1.1820928 5213659
-0.027775906 -0.013604254 1.1819395 5345501
0.044948097 -0.016588293 1.1807421 5871590
0.053428799 -0.016437247 1.1806097 5871847
0.06381353 -0.014735974 1.1824696 5543139
0.071149275 -0.013967469 1.18265 5280225
0.095666148 -0.015201271 1.1839577 5411294
0.10141049 -0.016862199 1.1812967 5279196
0.07356704 -0.0089464113 1.1803973 5411556
0.083230078 -0.007723242 1.1802613 5412066
0.09450084 -0.0082732514 1.1800745 5477344
0.10115277 -0.010857493 1.1799319 5213404
-0.0038137501 -0.18825853 1.187061 3105189
-0.023727424 -0.17882532 1.1885123 3039906
-0.014136934 -0.18143602 1.1887513 3039908
-0.0046415487 -0.18308751 1.1904821 3105447
0.0059507312 -0.18279181 1.1877342 3105702
0.015071753 -0.18197635 1.186851 3171750
0.024066307 -0.18200167 1.1867079 3237289
0.035607331 -0.18070361 1.1865432 3237548
0.045819491 -0.18120196 1.1863739 3171752
0.054896977 -0.18164495 1.1862235 3171752
-0.05079772 -0.1660226 1.1881251 3039909
-0.042980168 -0.1671482 1.188874 3105701
-0.034937948 -0.17021582 1.1903594 3105443
-0.025592271 -0.17609127 1.1915817 3040163
0.005191586 -0.17668051 1.1910845 3105960
0.016631054 -0.17612287 1.1909109 3105958
0.025778204 -0.17504533 1.189981 3237545
0.036197331 -0.1744768 1.1887287 3237547
0.046234511 -0.17464651 1.1880616 3237544
0.056297913 -0.17491126 1.1879822 3237545
0.065020278 -0.17333275 1.1868485 3303339
-0.061569382 -0.1560562 1.1884388 3172009
-0.05327462 -0.15966123 1.1906559 3105961
-0.044034045 -0.16235223 1.1920711 3171752
0.039859761 -0.16787282 1.1906602 3303337
0.046690699 -0.16820616 1.190547 3303593
0.0568223 -0.16772237 1.1903931 3303594
0.0661259 -0.16554183 1.1890264 3303596
0.072969407 -0.16432786 1.1861844 3238062
-0.068527609 -0.14718586 1.1886762 3434409
-0.06283509 -0.14926678 1.1913801 3237547
-0.054604325 -0.15205795 1.1923863 3237805
0.067463852 -0.15831459 1.1903588 3238318
0.076874509 -0.15582249 1.1891248 3238572
0.086969294 -0.15607765 1.1872805 3434926
0.093471989 -0.15577391 1.1859814 3369134
-0.070403695 -0.13806888 1.1900675 3435179
-0.064529404 -0.14039969 1.1922662 3369388
0.081850059 -0.1493794 1.1902583 3500977
0.08762192 -0.14610457 1.1892133 3435186
0.093024112 -0.14634921 1.1861234 3500720
-0.078385822 -0.12692182 1.190123 3566511
-0.072805367 -0.13009894 1.1916559 3566767
-0.065706998 -0.13304856 1.1928346 3500977
0.089465678 -0.13855985 1.1897922 3501234
0.097420312 -0.13646634 1.1869452 3501490
-0.087338686 -0.11328215 1.1894602 3566770
-0.080770306 -0.11822635 1.1918856 3632306
-0.074368395 -0.12349588 1.1931089 3632563
0.099673115 -0.12792736 1.1888703 3699127
0.10713655 -0.12697433 1.1866474 3633076
-0.088256165 -0.1076562 1.1905555 3566770
-0.082255311 -0.10888924 1.1934432 3763892
0.10103156 -0.118931 1.1903896 3633335
0.10776868 -0.11702984 1.1878649 3764407
-0.08786568 -0.097608164 1.1924934 3698868
-0.083538167 -0.098448068 1.1936129 3699126
0.10218688 -0.10700423 1.190542 3962811
0.1086952 -0.10739456 1.1892662 3830969
0.11635479 -0.10794822 1.1863027 3830714
-0.088580072 -0.08758086 1.190771 3699126
-0.083301224 -0.088441975 1.1937524 3830712
0.10988899 -0.097509153 1.1899555 4028606
0.1179822 -0.097953185 1.18642 3962300
-0.087525398 -0.078145459 1.1915663 3830970
-0.082576722 -0.078097373 1.193889 3962813
0.1106134 -0.088484086 1.1906734 4291522
0.1184474 -0.088404007 1.1869129 4094399
-0.087331705 -0.068076327 1.1918217 3962044
-0.082439527 -0.068647973 1.1940221 4093630
0.11271716 -0.077826686 1.1905258 4554438
0.11746106 -0.078753777 1.186703 4357059
-0.086223014 -0.058070481 1.1915663 4093886
-0.081572041 -0.057603847 1.1941664 4291009
0.11139338 -0.06719742 1.1900766 4686026
0.11736101 -0.067537002 1.1868651 4685769
-0.084279083 -0.050872333 1.1903049 4159935
-0.079117604 -0.048691601 1.1931119 4225985
0.10464276 -0.056908976 1.19122 5015248
0.11061738 -0.058440231 1.188436 5014991
-0.075636476 -0.039022367 1.1924554 4292037
-0.070349671 -0.041521829 1.1942184 4619977
-0.047244992 -0.035801828 1.1939335 5279449
-0.039275572 -0.036190733 1.1938014 5016538
-0.026808005 -0.037940402 1.1935785 4950743
-0.017380346 -0.040078793 1.1933981 4950488
-0.0082871066 -0.040365897 1.1932497 5147351
0.0021955585 -0.039926406 1.1930896 5278422
0.012623168 -0.042740334 1.1919947 5212886
0.021981455 -0.042521987 1.1909879 5278423
0.031990267 -0.042178888 1.191334 5147094
0.042877398 -0.043134447 1.1923978 4885460
0.052414116 -0.042084277 1.191534 4950741
0.061549909 -0.042024024 1.1921172 5016279
0.10361507 -0.046975534 1.1899782 5212370
0.11090344 -0.048454132 1.1872408 5212369
-0.073218025 -0.032163747 1.1923975 4423370
-0.070997357 -0.029068142 1.1920065 4554187
-0.046537273 -0.030804634 1.193727 5147610
-0.036683567 -0.030531928 1.1918409 5081818
-0.027700819 -0.033247545 1.1916593 5016538
-0.016492099 -0.032358125 1.1916275 5278938
-0.0073681856 -0.032196231 1.1914849 5344730
0.0030282214 -0.033568569 1.1902333 5673948
0.013114802 -0.036288694 1.1889675 5805277
0.022192279 -0.036731675 1.1888169 5541848
0.032460071 -0.036095288 1.188663 5475544
0.042783484 -0.034324214 1.1885245 5213397
0.053405032 -0.035475809 1.1890454 5082070
0.063148484 -0.035191681 1.1905893 5016536
0.072207123 -0.033479273 1.1920704 5213915
0.082989298 -0.033027239 1.1919056 5279453
0.093896456 -0.034015998 1.1917183 5213659
0.10315295 -0.037369084 1.189923 5212628
0.10972989 -0.0375912 1.1874149 5146833
-0.070406824 -0.023113333 1.190482 4554443
-0.045127824 -0.022527047 1.190089 5016281
-0.037910346 -0.023789212 1.1899564 5147611
-0.0068644909 -0.026214197 1.1894288 5411294
0.064086705 -0.025126882 1.188318 5148123
0.072800681 -0.025559403 1.1883734 5213915
0.082836688 -0.026300028 1.189743 5213917
0.093591347 -0.026766755 1.1901424 5213659
0.10147014 -0.028859034 1.1880045 5212887
0.094678737 -0.019795127 1.1879086 5279708
0.099217482 -0.020016618 1.1878334 5411037
-0.019923419 -0.17717926 1.1964773 3106213
-0.014207193 -0.17745823 1.1963825 3105959
-0.0029700948 -0.17866147 1.1961869 3105706
0.0075144572 -0.17851824 1.1960225 3105960
-0.030447952 -0.16978955 1.1967502 3105700
-0.023077592 -0.17141123 1.19736 3105957
-0.013926878 -0.17185777 1.1972084 3106216
-0.0036223037 -0.17249323 1.1978859 3106217
0.0070279506 -0.17249471 1.1975454 3171752
0.014934278 -0.17238128 1.1970837 3303337
0.026254764 -0.1702646 1.1958431 3369130
0.033114228 -0.17059934 1.1957294 3369132
-0.042479496 -0.15798159 1.1974436 3171753
-0.032897905 -0.16089986 1.1996369 3171752
-0.022599537 -0.16171426 1.2015423 3172010
-0.013473961 -0.16345397 1.2023227 3172012
-0.0034161424 -0.16354007 1.2029574 3237802
0.0072637447 -0.1633507 1.202245 3303338
0.016457532 -0.16383028 1.2022922 3369133
0.026743276 -0.16407342 1.200405 3369388
0.03687074 -0.16422158 1.1995515 3303853
0.046169564 -0.16346967 1.1973746 3369643
0.0562796 -0.16313511 1.1957039 3303851
-0.059622955 -0.14544542 1.1975617 3303598
-0.051635634 -0.14869089 1.1991031 3303341
-0.043113403 -0.15090042 1.2023656 3303340
-0.033806119 -0.15283923 1.2050478 3369132
-0.025737848 -0.15512075 1.2048872 3303600
0.0076369122 -0.15674943 1.204334 3303598
0.020296304 -0.1573672 1.2041242 3435186
0.027776852 -0.15773226 1.2040002 3369391
0.037559107 -0.15820964 1.203838 3369392
0.04749231 -0.1557665 1.2030998 3369390
0.057044249 -0.15510844 1.1993722 3435184
0.066437595 -0.15388921 1.1954396 3369392
-0.060218472 -0.13841568 1.198472 3369646
-0.053134289 -0.14115693 1.2031214 3303853
-0.04600184 -0.14490268 1.205355 3173034
0.049839459 -0.1477339 1.203793 3566773
0.058068227 -0.14681453 1.2030088 3566516
0.067912742 -0.14536592 1.1999393 3500977
0.077742003 -0.14645848 1.197051 3500975
-0.06979996 -0.12595759 1.1980022 3632562
-0.06103624 -0.12950879 1.2008131 3501236
-0.053468678 -0.13012494 1.2052406 3501494
0.070637845 -0.13646251 1.2036241 3698612
0.078140765 -0.13713242 1.2011313 3567283
0.087068178 -0.13508254 1.1983153 3567283
0.094580717 -0.13234222 1.1953012 3501747
-0.076513655 -0.11597066 1.1982517 3895478
-0.071023472 -0.1188176 1.2006245 3698613
-0.062127259 -0.12027171 1.20463 3633080
0.072400823 -0.12991509 1.2036899 3699128
0.079108097 -0.12704769 1.2036245 3830713
0.088576607 -0.12710372 1.2022731 3699126
0.095351897 -0.12596214 1.1953803 3633333
-0.077427879 -0.10790391 1.1983818 3961271
-0.070633017 -0.10876769 1.2032627 3896247
-0.06398654 -0.11172292 1.2061156 3764921
0.079342127 -0.12010173 1.2037202 3962300
0.090306707 -0.11811496 1.2031039 3896506
0.097844057 -0.11650468 1.1974766 3764920
-0.078308694 -0.098552898 1.20003 3830712
-0.071356341 -0.098541968 1.2050877 4093627
0.093806863 -0.10742531 1.2036719 4028352
0.099138722 -0.10700236 1.1982589 3962812
-0.078195192 -0.088237412 1.200676 3962556
-0.071734801 -0.089768447 1.2061082 4028606
0.093790166 -0.097008713 1.2038213 4357317
0.10012108 -0.097450458 1.1997136 4225985
0.10563232 -0.093916863 1.1956757 4225985
-0.077263087 -0.079264291 1.2007896 4028606
-0.072418407 -0.079778425 1.2067066 4094655
0.094709612 -0.089011014 1.2039212 4554695
0.10057047 -0.08707162 1.1992549 4554182
0.10680551 -0.085569963 1.1957766 4619462
-0.077447347 -0.068569347 1.1994158 4159424
-0.069335014 -0.068066366 1.2055943 4160448
-0.062936939 -0.066781908 1.2067422 4554440
0.095824443 -0.075683109 1.2040943 4620747
0.10130349 -0.076937824 1.2017388 4686026
0.10756028 -0.077966668 1.1958735 4619977
-0.076362401 -0.058941532 1.1990657 4291265
-0.068226665 -0.059421174 1.204181 4357573
-0.062598407 -0.059876539 1.2068356 4751563
0.011571495 -0.060804192 1.2056448 4818903
0.019281466 -0.060411338 1.205528 4819160
0.094400607 -0.067076638 1.2042401 4752590
0.10175164 -0.067747667 1.2018633 4817869
0.10680935 -0.069907889 1.1960007 4752076
-0.073908098 -0.04946496 1.1991624 4291778
-0.067831822 -0.049108434 1.2026508 4554440
-0.062203463 -0.051820286 1.2069447 4883149
-0.043354746 -0.045603909 1.2027335 5674209
-0.037619498 -0.045883786 1.2026385 5082331
-0.02638001 -0.049300022 1.2042782 4950745
-0.017197013 -0.051452544 1.2016344 4884953
-0.008024103 -0.051888321 1.2012825 4753366
0.0023640916 -0.051313542 1.2023261 4884692
0.012844551 -0.053438067 1.2012846 4884692
0.021638948 -0.05315296 1.2018042 4884692
0.031920344 -0.05249618 1.204107 4950484
0.04277036 -0.053952903 1.2021358 4950488
0.051567111 -0.054135405 1.2029872 4950489
0.06224785 -0.053221777 1.203882 5411037
0.071247645 -0.0534297 1.204803 5542623
0.085444346 -0.05210362 1.2045966 5213404
0.09307155 -0.055359948 1.2044289 5081558
0.10122155 -0.057968207 1.2018616 5015248
-0.068169393 -0.039267119 1.1992172 4685772
-0.04593163 -0.039902657 1.1999463 5542365
-0.036981173 -0.040520724 1.1998472 4951002
-0.028296158 -0.041957099 1.1985457 4884951
-0.019137982 -0.044279326 1.1983671 4753366
-0.0053629959 -0.043805532 1.1981552 4950484
0.0034831371 -0.04452372 1.1980045 5015763
0.033451274 -0.046845682 1.1974955 5015764
0.04031074 -0.047180425 1.1973817 4885461
0.052281193 -0.046782285 1.1971974 4884950
0.063137807 -0.046272289 1.198879 5082072
0.072604515 -0.045634087 1.2016923 5542624
0.082153551 -0.047291677 1.2039175 5279197
0.092308782 -0.046499223 1.2009671 5213144
0.099415764 -0.049300734 1.196413 5212627
0.067053765 -0.039317328 1.1970698 5016538
0.072854057 -0.037881356 1.1969982 5213917
0.082502536 -0.035869151 1.1968738 5345245
0.092736796 -0.03868999 1.1973379 5213917
0.18383114 -0.045368429 1.2031311 13158081
-0.013187789 -0.15862092 1.2086388 3303598
-0.00048654899 -0.15924075 1.2084283 3303850
-0.041071586 -0.14661154 1.2092533 3303853
-0.031386428 -0.14868692 1.2094271 3304111
-0.021904461 -0.15129454 1.2109878 3303857
-0.01284396 -0.15207054 1.2114778 3303856
-0.0024267854 -0.15261373 1.2115546 3369903
0.0079923179 -0.15155227 1.2084037 3435441
0.017002579 -0.15290578 1.2082413 3435187
0.027498063 -0.15277974 1.2080765 3500978
0.038013432 -0.15301731 1.2079061 3369649
0.044789698 -0.15172756 1.207817 3435441
-0.048865099 -0.13874632 1.2094897 3370159
-0.042359781 -0.13983542 1.2093709 3370416
-0.031994946 -0.14063483 1.2114453 3436469
-0.021606095 -0.14150223 1.2140186 3502005
-0.012330779 -0.14195487 1.2138649 3501749
-0.0020665796 -0.14594245 1.2136449 3501493
0.0085154716 -0.14280508 1.2122715 3567542
0.017806694 -0.14338382 1.2130533 3567541
0.02819369 -0.1437334 1.2116957 3633333
0.038506247 -0.14390163 1.2089665 3567541
0.047112301 -0.14357843 1.2078968 3633079
0.057243261 -0.14188507 1.2077602 3632566
-0.048834857 -0.13025975 1.2096107 3501750
-0.041960742 -0.13090017 1.211993 3567798
-0.033561282 -0.13188921 1.2143461 3633848
-0.020162478 -0.13576156 1.2140778 3633591
-0.013205986 -0.13610102 1.2139626 3699128
0.0088797165 -0.13601658 1.2136132 3830714
0.019314442 -0.13652581 1.2134402 3764921
0.028847063 -0.13604008 1.2132958 3830712
0.039428446 -0.13563599 1.2127764 3830713
0.048137307 -0.13575631 1.2123268 3830458
0.058434516 -0.13596573 1.2101949 3764409
0.066594772 -0.1348021 1.2082688 3764407
-0.057309072 -0.11896607 1.2099068 3698874
-0.050700214 -0.12000418 1.2120376 3764923
-0.042143106 -0.12115236 1.214636 3765435
-0.035939533 -0.1256938 1.2144724 3699641
0.057586517 -0.13025787 1.2129223 3896252
0.067879289 -0.12625113 1.2101966 3831226
0.075223044 -0.12589663 1.2077036 3830458
-0.059471164 -0.10941578 1.2108675 3896508
-0.050272975 -0.10988536 1.2149262 4028352
-0.042423066 -0.11096578 1.2147862 4094143
0.069618523 -0.11640602 1.2093573 4159936
0.078969344 -0.11558514 1.2077917 4028352
0.087061211 -0.11461036 1.2076772 3962559
-0.066992223 -0.099279694 1.2103424 4093628
-0.060089778 -0.099691041 1.2109771 4028352
-0.049808282 -0.10058037 1.2147396 4094401
-0.043014061 -0.09931466 1.2149624 4225986
0.071566693 -0.10734617 1.2116643 4357317
0.07986436 -0.10672034 1.2107176 4225732
0.088667035 -0.10664438 1.2077657 4159938
-0.067504801 -0.089498937 1.2104905 4028609
-0.059317287 -0.089989595 1.2117175 3963330
-0.049940538 -0.090553917 1.2151977 4160708
-0.04368012 -0.093935914 1.2150499 4292035
0.074864291 -0.09390974 1.2131683 4620236
0.080153346 -0.09688358 1.2116525 4488649
0.088527061 -0.097876452 1.2078935 4357318
-0.068158083 -0.079215266 1.2106481 4160449
-0.059517737 -0.079864591 1.2141981 4160708
-0.050220501 -0.080367342 1.2153479 4489161
0.081720285 -0.087677583 1.212077 4555212
0.089987084 -0.086800471 1.2080288 4620489
-0.15970093 -0.066191763 1.217289 14082013
-0.066422269 -0.071914271 1.2107251 4226242
-0.058177438 -0.07005842 1.2131213 4620234
-0.050950926 -0.068399489 1.2155309 5079759
-0.0169225 -0.069672666 1.2149724 6791922
-0.0087497653 -0.068909273 1.2148535 5608162
0.0016849572 -0.069418482 1.2146807 5016279
0.011671925 -0.071922526 1.2131222 5608413
0.020207157 -0.07090348 1.2143654 4950485
0.027192062 -0.070663229 1.2142578 5016277
0.08499223 -0.076970562 1.2132499 4752847
0.09083616 -0.077223003 1.2099175 4620747
-0.058437932 -0.06110679 1.2117531 4948687
-0.048056152 -0.064666659 1.2155383 5408980
-0.026396368 -0.062561154 1.2133011 6134248
-0.017733946 -0.062499538 1.2125874 5344990
-0.0088139912 -0.063124433 1.2127941 4884696
0.0023390306 -0.063713312 1.2126926 4818902
0.012677163 -0.065434337 1.2095619 4818646
0.021858413 -0.064807162 1.2101396 4818646
0.03199251 -0.064875521 1.2110138 4884696
0.042090703 -0.064874098 1.2108892 5344733
0.051324591 -0.065300807 1.2103792 5936870
0.061106063 -0.065292269 1.2129629 5608416
0.070245013 -0.064861074 1.2136574 5082072
0.082942329 -0.066215411 1.2104357 5016278
0.089172155 -0.068009838 1.2083107 4884178
-0.026680786 -0.056105923 1.2103204 5082331
0.0021856679 -0.057514604 1.209842 4687574
0.025278833 -0.058641553 1.2094592 4687574
0.033228837 -0.058368102 1.2093369 4819159
0.040289387 -0.059374068 1.2092104 4950233
0.052990627 -0.059993889 1.2089999 5542369
0.06177761 -0.059136625 1.2088727 5805540
0.074714079 -0.057581607 1.2086896 5213659
0.082026914 -0.057938475 1.2085683 5147866
0.090784945 -0.060294967 1.2083956 5081557
-0.0017984817 -0.14182603 1.2177004 3633335
-0.028774299 -0.12990923 1.2182992 3699641
-0.021281984 -0.13072382 1.2181686 3765177
-0.011560191 -0.13139552 1.2196521 3830714
-0.0013116719 -0.13286981 1.2207016 3962299
0.009252362 -0.13078384 1.2183498 4028092
0.018014669 -0.13199922 1.2178123 3962300
0.027540762 -0.13210751 1.2181011 3962299
0.037175179 -0.13129421 1.2194551 3962299
0.049579356 -0.13080719 1.2170424 3896509
0.059373196 -0.13081869 1.2168868 3830714
-0.037994966 -0.11907089 1.2186007 3962813
-0.031500883 -0.12114371 1.2202462 3962813
-0.020586014 -0.12292364 1.2222701 4028350
-0.011459948 -0.12549599 1.2220885 4093886
-0.0044578118 -0.12583768 1.2219725 4093886
0.0097181024 -0.12301993 1.2217877 4291263
0.019054286 -0.12347553 1.221633 4291265
0.028390463 -0.12393114 1.2214782 4291265
0.03889367 -0.12444369 1.2213042 4225471
0.049263906 -0.12466469 1.2186357 4159424
0.058495115 -0.12494565 1.2169847 4028351
-0.038701952 -0.10970806 1.2187459 4159681
-0.033213053 -0.11176909 1.2215391 4159937
0.010118604 -0.11485048 1.2218983 4685507
0.019733964 -0.11438383 1.2217523 4685766
0.028603334 -0.11481665 1.2216053 4685768
0.040608898 -0.11548761 1.2214051 4685254
0.049840849 -0.11559185 1.221007 4553924
0.05896562 -0.11566607 1.2173601 4357059
0.064881496 -0.11359689 1.2170458 4291524
-0.039287772 -0.10174273 1.2192026 4291267
-0.033420704 -0.10118247 1.221985 4291525
0.020965096 -0.10836066 1.2218189 5080013
0.027967233 -0.10870236 1.2217029 5013964
0.04336739 -0.10477447 1.2215147 5014215
0.05036952 -0.10511617 1.2213986 4948424
0.059656467 -0.10548875 1.2204456 4686025
0.067269616 -0.10523757 1.2187279 4554696
-0.045817979 -0.088372052 1.2191644 4423366
-0.040370964 -0.090824112 1.2209098 4489158
-0.034479853 -0.093956389 1.2229054 4554697
0.043882314 -0.0942709 1.2216568 6725605
0.051106412 -0.09485741 1.2215338 5541334
0.060220629 -0.095068209 1.2213861 4949456
0.070109889 -0.096690863 1.2196816 4752076
-0.046524975 -0.079009213 1.2193096 4751821
-0.040821187 -0.080670223 1.2218626 4817612
-0.015006482 -0.078528717 1.2228171 6133729
-0.012672436 -0.078642622 1.2227783 5804510
0.011796897 -0.080616623 1.2223617 6726116
0.0200042 -0.08023724 1.2222368 6791913
0.032841451 -0.080863699 1.222024 5673696
0.04137671 -0.084399834 1.2218379 5344728
0.052509192 -0.085333049 1.2216477 5475805
0.060678348 -0.085731708 1.2215124 5147095
0.071094528 -0.086143687 1.2201408 4949712
0.079769745 -0.083423331 1.2172414 4621777
0.18805547 -0.088438146 1.2194514 11781308
-0.048566263 -0.073079392 1.2194269 4883150
-0.039553221 -0.071575828 1.2193053 6001884
-0.028620478 -0.070554629 1.2191464 6133474
-0.017127518 -0.074036323 1.2205144 6067939
-0.0092631159 -0.073702753 1.2198851 6594284
0.0018092506 -0.072971039 1.2197199 6002915
0.012584792 -0.07676319 1.2184033 6857704
0.021701673 -0.075199068 1.2189478 6397928
0.030936968 -0.075001486 1.2200043 6397674
0.039963242 -0.075637206 1.2203853 6002659
0.051971909 -0.075950518 1.2207237 5476060
0.061029073 -0.076264746 1.2198919 5213402
0.071524642 -0.078010842 1.2206506 5081814
0.081593223 -0.077413477 1.217914 4818898
0.19121617 -0.083620504 1.2194703 12896707
0.044890381 -0.069477797 1.2179947 6331369
0.05419613 -0.069931909 1.2178404 5805025
0.061175432 -0.070272505 1.2177248 5213658
0.072212085 -0.069774613 1.2175567 5213658
0.080530494 -0.070284195 1.2174174 5082070
-0.027508777 -0.11824761 1.2274481 4160192
-0.020735443 -0.119048 1.2273291 4159936
-0.011218783 -0.1213918 1.2271445 4225472
-0.00032048021 -0.12270673 1.2269527 4225471
-0.02772126 -0.1106022 1.227561 4160194
-0.020133425 -0.11155979 1.2274268 4291265
-0.010759198 -0.11201726 1.2272714 4422851
-0.0001920592 -0.1127313 1.2290138 4685254
0.010505155 -0.10953109 1.2269694 4882628
0.016364047 -0.10981701 1.2268723 4817092
0.032768942 -0.11061756 1.2266004 4948684
0.037898324 -0.11380443 1.2264733 4816582
-0.028004561 -0.10040832 1.2277113 4291525
-0.019616731 -0.10103682 1.2278192 4422855
-0.010233614 -0.10166141 1.2294117 4619977
0.00034604687 -0.10233378 1.2308345 4883149
0.010849841 -0.10250018 1.2270646 5146063
0.020224068 -0.10295764 1.2269092 5211603
0.029598296 -0.1034151 1.2267538 5145806
0.03780074 -0.10381538 1.2266179 5014214
-0.035246927 -0.089209206 1.2279867 4555210
-0.028531037 -0.091181412 1.2278517 4686540
-0.019519869 -0.092278525 1.2294077 4883407
-0.0098257074 -0.093628094 1.2315207 5014738
0.0007545352 -0.094144404 1.2313453 5541336
0.011335632 -0.093237258 1.2284397 5672923
0.020690037 -0.093605377 1.2272857 5935587
0.030057877 -0.09404055 1.2268808 6132702
0.038260322 -0.094440833 1.2267448 7120103
0.047806896 -0.091382846 1.226637 8699647
-0.035274472 -0.084979221 1.2280476 4818381
-0.028243799 -0.08532232 1.2279311 4752589
-0.019260172 -0.08576072 1.2277822 5081042
-0.012152902 -0.084541395 1.2276869 6462440
-0.0023497855 -0.084236704 1.2275356 6857199
0.011654109 -0.086094715 1.2272866 6396899
0.021438077 -0.086180627 1.2271301 6199269
0.030460011 -0.085837819 1.2269918 5804767
0.03970404 -0.086288929 1.2268386 5410263
0.048036687 -0.086695559 1.2267004 5541596
