# .PCD v0.7 - Point Cloud Data file format
VERSION 0.7
FIELDS x y z rgba
SIZE 4 4 4 4
TYPE F F F U
COUNT 1 1 1 1
WIDTH 174
HEIGHT 1
VIEWPOINT 0 0 0 1 0 0 0
POINTS 174
DATA ascii
0.048748322 -0.13433443 1.1178919 5134174
0.055032607 -0.13659927 1.1160423 5134176
0.049027596 -0.13221523 1.1220828 4871515
0.03670685 -0.14608659 1.1058998 4936281
0.046427246 -0.1496183 1.102984 5199967
0.051161822 -0.15076047 1.1026764 5397348
0.029869894 -0.14102098 1.1122582 4673880
0.037634753 -0.14138262 1.1104344 4870232
0.046791747 -0.14421377 1.1102244 5068382
0.056273535 -0.14682603 1.1101862 5068384
0.063949451 -0.14883016 1.1114997 4476504
0.031253532 -0.13568243 1.1200728 4607822
0.038362507 -0.13616611 1.1190403 4673623
0.048906721 -0.13906009 1.117681 5134174
0.059174355 -0.14111885 1.1178192 4739419
0.066464819 -0.14416841 1.1176968 4081746
0.032121822 -0.13350448 1.1282881 4410445
0.040942997 -0.13238114 1.1273568 4213839
0.051034179 -0.1345761 1.1271622 4345429
0.060745582 -0.1371119 1.1261598 4016211
0.068383142 -0.14017363 1.1258618 3621193
0.04241617 -0.13019332 1.1321566 3884109
0.051686592 -0.13197087 1.1324377 3752784
0.06179307 -0.1344406 1.1317203 3621192
0.068693027 -0.13661464 1.1302913 3686459
0.024704894 -0.15844068 1.1003271 4673626
0.032956555 -0.15825471 1.097716 4870741
0.041623879 -0.16106015 1.0961845 5265754
0.051465444 -0.16334614 1.0963045 5397604
0.059658997 -0.16675603 1.0995421 4608350
0.025910608 -0.15091765 1.1066248 4673629
0.034177329 -0.15164618 1.1037453 4870744
0.042184576 -0.15400536 1.101667 5134174
0.054368239 -0.1566091 1.1029599 5397606
0.06178382 -0.16184899 1.1050242 4476760
0.068119437 -0.16348705 1.1092139 4015442
0.01969536 -0.14967713 1.1164558 3883351
0.024018511 -0.14594847 1.1138904 4475995
0.05644086 -0.15346301 1.1084052 5068641
0.065481111 -0.15603521 1.1115921 4082513
0.070645571 -0.16082251 1.1142491 3752531
0.024682472 -0.14033791 1.1223087 4079443
0.068986848 -0.15211789 1.119314 3621705
0.072429731 -0.15689741 1.1183265 3751503
0.0689331 -0.14718676 1.1254761 3490378
0.030815272 -0.17906559 1.0885885 5002588
0.033916462 -0.17982343 1.0883684 5528419
0.022085184 -0.17244104 1.0978534 4739163
0.029166784 -0.17281574 1.0934663 5002333
0.038331192 -0.17514743 1.0925157 5397092
0.047353081 -0.17764735 1.0943004 5332066
0.05309682 -0.18001938 1.0956521 4740695
0.02231954 -0.16582221 1.0991081 4082256
0.029181929 -0.16643405 1.0968115 5068120
0.051114604 -0.17337945 1.0966135 5200736
0.059251759 -0.17575394 1.100005 4345175
0.066037387 -0.17861055 1.1022723 4278096
0.064035818 -0.16947755 1.1067647 4147028
0.06788668 -0.17438351 1.107867 3819087
0.069639139 -0.16786015 1.1128724 3687502
0.03379333 -0.19545957 1.0824829 5528423
0.038058989 -0.19625002 1.0826651 5397348
0.02607958 -0.18500346 1.0877658 4804702
0.035342399 -0.18683133 1.0866684 5462626
0.044098847 -0.19103697 1.0877602 5003105
0.052366413 -0.19225112 1.0907838 4804440
0.018640326 -0.17969874 1.0979465 3817824
0.024521722 -0.17921907 1.0923964 4673622
0.040069111 -0.18301839 1.0912927 5660265
0.047490731 -0.18410423 1.0921669 5069150
0.056356866 -0.18678842 1.0949526 4475986
0.062350556 -0.18624637 1.09839 4014924
0.06051638 -0.18301156 1.0994728 4606547
0.066391714 -0.18376753 1.1014671 3620428
0.025036352 -0.20293285 1.0800391 4079956
0.031685371 -0.20292284 1.0776727 5266270
0.037024487 -0.20611593 1.0787002 5002845
0.02364267 -0.19787183 1.0848134 4079963
0.030948536 -0.19903821 1.0810751 5330781
0.041223891 -0.20201999 1.0830722 5002331
0.045719653 -0.1988079 1.0874182 5001816
0.05002635 -0.1996267 1.0902089 4540755
0.055719987 -0.19670437 1.0954616 4213074
0.02691081 -0.21937959 1.075597 5265766
0.026923077 -0.21466789 1.0783697 5068639
0.035724141 -0.21560703 1.0790268 4214103
0.020980038 -0.20556325 1.0821785 1580089
0.041700494 -0.21038169 1.0826497 4145996
0.04544314 -0.20797957 1.0872982 4212054
0.019965097 -0.22092545 1.0764638 3618132
0.025102174 -0.22269452 1.0751103 5199718
0.031671088 -0.22378606 1.0756329 4214875
0.017243933 -0.2629512 1.0297707 528927
0.022095259 -0.26444924 1.0288248 1517876
0.017409708 -0.27893984 1.025528 4419983
0.0042558592 -0.27069861 1.0317265 1651559
0.010233004 -0.2689178 1.0306097 1782104
0.02192786 -0.27101892 1.0265888 4154236
0.026804136 -0.27412111 1.0309937 3028033
0.013317375 -0.27109924 1.038986 2369321
0.021530587 -0.26985267 1.0367258 2040105
0.017338207 -0.25943637 1.0542195 4146252
0.0019111596 -0.28159976 1.0318624 5077683
0.0083267651 -0.28315252 1.0284951 4617364
0.017398791 -0.28554606 1.0275112 4549258
0.023918327 -0.28217188 1.0307286 6582660
0.0035554599 -0.27297193 1.0403047 7695014
0.011519797 -0.27378026 1.0434002 2040625
0.019698776 -0.27459377 1.0436306 2172202
0.02542977 -0.27831739 1.038752 2760198
0.0038513336 -0.29490697 1.0246671 4683677
0.0093752928 -0.29625687 1.0242751 3831442
-0.0021809265 -0.28916103 1.0307976 3299734
0.0045350268 -0.29054898 1.0277147 4683420
0.012587567 -0.29361838 1.027108 3960460
-0.017378632 -0.33571291 0.96631235 3829135
-0.0094195195 -0.33743244 0.96618134 4223637
-0.00346113 -0.33909857 0.96535408 3960467
-0.016598936 -0.33151588 0.97470284 3498881
-0.0082840994 -0.33296683 0.97434866 3895695
-0.00052382797 -0.33460718 0.97517288 3631246
-0.014073692 -0.32414836 0.98327649 3499128
-0.0071851201 -0.32620698 0.9820652 4025235
0.0011701677 -0.32950509 0.98315001 3499655
-0.011552393 -0.3185423 0.99066353 3826560
-0.0051196031 -0.32059395 0.99038643 4156303
0.0020563826 -0.32489717 0.99048328 3630985
-0.010269228 -0.3171553 1.0004629 3893387
-0.0035411306 -0.31722599 0.99958307 4157333
0.0032959376 -0.32054576 1.0004574 3762828
-0.0075664632 -0.31568339 1.0087869 3762325
-0.00095023215 -0.31273678 1.0090144 4420507
0.0046236757 -0.3163169 1.0094956 3828877
-0.0063682422 -0.30950677 1.0211551 4222878
0.00095798075 -0.30873343 1.0173357 4552347
0.0063581318 -0.31293753 1.0178697 3631755
-0.0057250671 -0.3008267 1.025769 3627913
0.0027407892 -0.30180234 1.0227139 4683676
0.009364292 -0.30551395 1.0246981 3892613
0.012198784 -0.29951429 1.0301607 3563127
-0.021567661 -0.34427118 0.96013886 3033484
-0.014093403 -0.34875774 0.95977026 2897991
-0.0041078031 -0.35037285 0.9595685 3891064
0.0030313041 -0.35329294 0.96047503 2638186
-0.023690794 -0.33818886 0.96784794 666715
-0.013502311 -0.34172952 0.96510184 4813457
0.0001568906 -0.34368813 0.96678728 3499654
0.0064614229 -0.34855264 0.96806765 3561592
-0.022423171 -0.3331669 0.9780212 6722
0.0016263817 -0.33958483 0.97527289 3694979
0.0076727085 -0.34277844 0.97595167 3233144
0.0048962943 -0.33551577 0.98441154 3104639
0.0088597052 -0.33939704 0.9855414 2640231
0.0058498606 -0.33120525 0.99308991 2907007
0.0092296973 -0.33625773 0.99473983 3099492
-0.013835784 -0.32066107 1.0055239 4089741
0.0070034303 -0.32733047 1.0017971 3496061
0.010529235 -0.33192587 1.0045999 4278874
-0.010239933 -0.31775349 1.0125571 2972810
0.0079131927 -0.32363373 1.0114964 3757171
0.010764588 -0.32818151 1.0119016 3748927
-0.0081516765 -0.3155593 1.0176148 3630740
0.0099695455 -0.31944668 1.0173697 3953004
-0.016694609 -0.3557896 0.95661283 984897
-0.0058855526 -0.35661465 0.95934194 4350584
0.0079928562 -0.34938744 0.98026752 4674411
0.0089363232 -0.34777212 0.98890036 6974583
0.009094473 -0.34262162 0.99887788 3815753
-0.01936182 -0.32789224 1.009248 5799072
0.012049214 -0.3361131 1.0059694 5064001
0.0048678517 -0.36273009 0.98053873 7039097
0.00538937 -0.36106822 0.98615164 7565430
0.0062289927 -0.35691231 0.99375159 8223350
0.0081847161 -0.34924364 0.9990015 9076613
