# .PCD v0.7 - Point Cloud Data file format
VERSION 0.7
FIELDS x y z rgba
SIZE 4 4 4 4
TYPE F F F U
COUNT 1 1 1 1
WIDTH 1128
HEIGHT 1
VIEWPOINT 0 0 0 1 0 0 0
POINTS 1128
DATA ascii
0.15416241 -0.1017049 1.1189684 3631790
0.15532689 -0.10334796 1.1216232 3434923
-0.12752853 -0.09175767 1.1256815 3302823
0.1538052 -0.090251669 1.1190016 3566513
-0.12755889 -0.081773356 1.124223 3368614
0.15288076 -0.080997095 1.1189507 3632560
-0.12703414 -0.074049979 1.1254448 3565995
0.15162286 -0.070847578 1.1175873 3895728
-0.12408759 -0.058976475 1.1267709 3697842
0.14922008 -0.060913529 1.1160648 4158132
-0.12248087 -0.05068526 1.1253831 3502262
0.14810014 -0.050232902 1.1171638 4027837
-0.11987481 -0.041173637 1.1246018 3698611
0.14333679 -0.038747147 1.1211597 4619197
0.14898685 -0.041905146 1.1154943 4946612
-0.12625538 -0.034793388 1.1209271 7180220
-0.11846863 -0.03169053 1.1278659 4815032
0.14321773 -0.032274298 1.1204149 5209534
0.14772405 -0.030604832 1.1129261 8425655
0.018852185 0.091677234 1.1151291 9474444
-0.058993716 -0.21764888 1.1362798 8300241
-0.077326283 -0.20953479 1.1330715 7642055
-0.069772795 -0.21015108 1.1349976 4815810
-0.062964946 -0.21356922 1.1363437 5210825
-0.086499378 -0.19764397 1.1328245 932767
-0.079475656 -0.20105328 1.1343486 2382238
-0.0707867 -0.20404735 1.1364511 2251168
0.11265337 -0.20044672 1.1310841 6518691
0.1184448 -0.19942752 1.129474 11319227
-0.088187546 -0.19088277 1.1346562 2447513
-0.082725674 -0.19431652 1.1366752 2513045
0.12028056 -0.19119743 1.1296935 4617903
0.12723659 -0.19123727 1.1265434 10929103
-0.097677872 -0.17987975 1.1343811 2971544
-0.091743678 -0.18362659 1.1348016 2774929
0.12231354 -0.18193406 1.1289039 2909086
0.12714794 -0.18100551 1.1264175 3105187
-0.10528165 -0.16672209 1.1329811 2709911
-0.10058227 -0.17174307 1.1352619 2644371
0.12866154 -0.17118005 1.1268659 3368356
-0.10757403 -0.16008916 1.1347834 2775444
-0.10257235 -0.16419235 1.1355387 2709910
0.13308579 -0.16129375 1.1275984 3368613
0.13723776 -0.15834074 1.1258402 3499683
-0.110815 -0.1515298 1.1344515 2841497
0.13493696 -0.15380403 1.1298518 3237027
0.13958101 -0.1511192 1.1270155 3302821
-0.11679685 -0.13996287 1.1335508 2645144
-0.11323555 -0.14165053 1.1360096 2775964
0.14270161 -0.14116912 1.1276488 3237542
0.14675556 -0.13759258 1.1266375 3106215
-0.11862029 -0.13155693 1.1343817 2907291
0.14406691 -0.1316088 1.1279743 3499683
0.14711899 -0.1296415 1.1263365 3303338
-0.11960047 -0.12162185 1.1352313 3039134
0.14872165 -0.12114437 1.1264523 3499947
-0.12484811 -0.10736389 1.1328033 3236770
-0.1225833 -0.11160775 1.1361258 3236770
0.15044051 -0.11062931 1.1266769 3500458
-0.12486281 -0.10088441 1.1327224 3237027
-0.12302099 -0.10119278 1.1366748 3302821
0.15279591 -0.1000709 1.1269438 3632048
-0.12488484 -0.091165192 1.1326009 3302824
-0.12304188 -0.091981143 1.1365596 3302569
0.15104568 -0.091187157 1.1267791 3632047
-0.12533726 -0.082094744 1.1325001 3434408
-0.12245075 -0.079671979 1.1363878 3434665
0.14761862 -0.080152147 1.126376 4026292
-0.12492892 -0.071726754 1.1323581 3631531
-0.12308981 -0.070848562 1.1362956 3631531
0.14766757 -0.072191499 1.1249002 4157366
-0.12494361 -0.065247282 1.1322771 4025255
-0.12173982 -0.060090281 1.1344062 3632304
0.14709148 -0.060409419 1.1243243 4289211
-0.11831756 -0.051099475 1.1336223 3568048
0.14393152 -0.049639668 1.1249478 4094399
0.14631057 -0.054005448 1.1262676 4224702
-0.11707267 -0.045073822 1.1317954 3764911
-0.11357093 -0.040721472 1.1341404 3895729
0.14137962 -0.041213974 1.1257043 4487616
-0.11824052 -0.026934221 1.1346029 6458567
-0.11331563 -0.030704819 1.1339071 3895996
0.14125374 -0.030190811 1.1245143 5735616
0.1480951 -0.026930064 1.1238748 9477559
-0.11777872 -0.024238192 1.1355561 6852289
-0.11452869 -0.024232 1.1354618 5933254
0.051778223 0.077638492 1.1253557 9474701
-0.021873258 -0.22787857 1.1473374 7248329
0.010941261 -0.22941756 1.1456044 5801654
0.018942954 -0.22827968 1.1448244 5210039
0.031773202 -0.22887154 1.1457936 6328255
0.039436623 -0.22885694 1.1455711 7379645
0.050992306 -0.22871326 1.145234 8430007
0.05882046 -0.2269749 1.140983 8625323
-0.060014289 -0.21992609 1.1403401 9678537
-0.04900394 -0.21982536 1.146549 4422071
-0.039625499 -0.2204653 1.1477593 2778029
-0.029862247 -0.22226153 1.1474986 2513574
-0.0222448 -0.22495885 1.1473116 2315684
0.0076806983 -0.22563194 1.1464518 2120102
0.019723222 -0.225609 1.1461022 2185635
0.03285804 -0.22448884 1.145707 2186146
0.038334392 -0.22557355 1.1455618 2316696
0.05365628 -0.22335404 1.1450894 4486314
0.06115482 -0.22296987 1.142866 5997746
0.072317824 -0.2199785 1.1433622 6063288
0.081014723 -0.21848327 1.1442345 6589614
0.089116544 -0.21868688 1.1440021 8757678
-0.065477207 -0.2079736 1.1403484 1855898
-0.058658753 -0.21042871 1.1434212 2249885
-0.050856125 -0.21267338 1.1472596 2381985
-0.042703778 -0.21477638 1.1477772 3039902
0.074980795 -0.21290949 1.1443396 2841504
0.08100082 -0.21235044 1.144158 3302564
0.090519652 -0.21009359 1.1425195 4420011
0.10018998 -0.20929682 1.1378458 6984117
0.10955293 -0.20655265 1.1352528 6254993
-0.076620191 -0.19746563 1.1413401 2710418
-0.068785697 -0.20066974 1.1447358 2775447
-0.061977986 -0.20285067 1.1473862 2906776
0.092975974 -0.20218483 1.1432827 3171492
0.10139932 -0.20083015 1.1402198 3237285
0.10960773 -0.19965315 1.1357362 3629215
-0.079406366 -0.19047254 1.1453351 2775191
-0.071191534 -0.19391677 1.1476747 2906012
0.10337979 -0.19160259 1.1415806 3040421
0.11021911 -0.18994901 1.1379738 3105703
0.11603889 -0.19022727 1.1348596 2777257
-0.094902024 -0.17649111 1.1408067 2710677
-0.088026896 -0.18031842 1.1441865 2709909
-0.081731781 -0.1838838 1.1465205 2709910
0.11145529 -0.1815232 1.1414129 3368100
0.11890352 -0.17972901 1.1367791 3302561
-0.096054494 -0.16991058 1.1438701 2710421
-0.091146171 -0.17270207 1.1478537 2644886
0.11353768 -0.17373902 1.1427292 3040936
0.12151012 -0.17065118 1.140371 3237031
0.12782156 -0.16777474 1.1372373 3368615
-0.10581799 -0.15693626 1.1408777 2776209
-0.10024028 -0.16134734 1.1455237 2841240
0.12358336 -0.16213559 1.1422919 3237287
0.1298833 -0.15996149 1.1369364 3302822
-0.10670185 -0.15022935 1.1453547 2710683
-0.10191929 -0.15347743 1.1480582 2841499
0.13220026 -0.1515085 1.1393189 3237541
0.13705388 -0.1488321 1.1353308 3237798
-0.10883157 -0.14167072 1.1459188 2907293
0.13393971 -0.14270727 1.1417475 3237797
0.13852099 -0.1402179 1.1365808 3303334
-0.11527972 -0.13003646 1.1419579 2907805
-0.11290231 -0.13159236 1.1479686 2907805
0.14041376 -0.13081983 1.1389647 3434407
-0.11575553 -0.1207117 1.1433791 3039392
-0.11298044 -0.12182211 1.1486486 3039391
0.14233133 -0.12124574 1.1386617 3500202
0.14631659 -0.11839221 1.1330791 3631274
-0.11887066 -0.11152735 1.1452217 3170979
0.14432101 -0.1109487 1.1406028 3631791
0.14754331 -0.11044592 1.1347224 3566510
-0.11926386 -0.10116409 1.1462846 3105957
0.14343835 -0.099852324 1.1392661 3632305
0.14850374 -0.10101441 1.1331308 3501227
-0.1197342 -0.091168463 1.1438859 3237546
0.14293498 -0.090793699 1.1382878 3698099
0.1474048 -0.091227964 1.1331065 3698094
-0.1191265 -0.081416771 1.143984 3434923
0.14416566 -0.081511259 1.1386813 3895479
0.14623767 -0.083591193 1.1326443 3895477
-0.11875342 -0.0709517 1.144461 3566256
0.14443748 -0.070192248 1.1398652 4027579
0.14683244 -0.069653511 1.1364539 4157882
-0.11780116 -0.062050045 1.1435649 3567024
0.14236212 -0.06066541 1.1392957 4159422
0.14656195 -0.060859457 1.1347505 4289724
-0.11557336 -0.052236944 1.1411798 3567791
-0.1123209 -0.050230265 1.1463963 3764403
0.14058711 -0.050650567 1.1377305 4356797
-0.11077715 -0.041368589 1.140142 3830196
0.13787669 -0.041085269 1.1367552 4619718
-0.10926165 -0.030435741 1.1422995 3896507
0.13377468 -0.029195018 1.1372139 4817095
0.13820836 -0.029804051 1.1338692 4948420
-0.11685605 -0.021263525 1.143496 6916535
-0.10937765 -0.021783374 1.1429778 5210049
0.13297521 -0.022779323 1.1392688 5013440
0.13736564 -0.022383012 1.136802 5998788
0.032404095 0.051047608 1.1371143 5859448
0.040544428 0.051117301 1.1350192 6122362
0.046188764 0.051294103 1.1378547 6319482
0.05740957 0.052632049 1.1415144 5330522
0.032931533 0.055476502 1.1355188 5792108
0.040736616 0.056329817 1.1347481 5527648
0.04617887 0.055659458 1.1378002 5067354
-0.016044542 -0.22780249 1.1501688 4354997
-0.0086277388 -0.22879076 1.151967 4684224
0.00122259 -0.228496 1.1502101 4289976
0.012176691 -0.22618012 1.1493297 2054307
0.022605427 -0.22670926 1.1490338 2777510
0.028096072 -0.22779682 1.1488881 4026798
0.044560529 -0.22776547 1.1484101 5604271
0.048398502 -0.22611113 1.148278 4881326
-0.035041351 -0.21748599 1.1505903 3039902
-0.027078371 -0.21838234 1.1508708 2710943
-0.018527307 -0.22023992 1.1534519 2645152
-0.0085491277 -0.22303686 1.1565615 2514339
0.001372491 -0.22292103 1.1557386 2514851
0.011236438 -0.22041592 1.1538869 2842787
0.021053331 -0.22000104 1.1513958 2908579
0.030734237 -0.21958157 1.1515988 3039651
0.0409583 -0.22025123 1.1524223 2908578
0.050295584 -0.21936473 1.1518902 2778020
0.060252573 -0.2177134 1.1492579 2646433
0.069789439 -0.22039734 1.1475856 5012145
0.081317469 -0.22165637 1.147267 8955830
-0.048078347 -0.20908858 1.1511489 2841242
-0.038175143 -0.21111678 1.1529357 2775960
-0.029111087 -0.21235052 1.1546227 2841500
-0.01959382 -0.21445775 1.1581081 2907551
0.012088242 -0.21366031 1.157179 3105184
0.021297794 -0.21327424 1.156907 3170722
0.031245012 -0.21325529 1.1566182 3302053
0.041375186 -0.21268317 1.1563171 3170723
0.051872943 -0.21174181 1.1560007 3105188
0.061149862 -0.21095212 1.1540066 3170467
0.070639797 -0.21077299 1.1498413 3236258
0.080716863 -0.20733625 1.1475493 3171236
-0.064722195 -0.19777831 1.1512039 2906776
-0.058155883 -0.19998768 1.1521846 2907033
-0.049599972 -0.20091027 1.1556404 2841497
-0.040246818 -0.20491496 1.1585875 2775704
0.062174365 -0.20545694 1.155623 3105443
0.071016341 -0.2054401 1.1553662 3105443
0.081761837 -0.20171785 1.153744 3105956
0.090016082 -0.19887559 1.1499302 3105956
-0.075723395 -0.18681914 1.1513854 2644884
-0.068561792 -0.19033614 1.1542233 2775705
-0.060110066 -0.19315904 1.1566817 2841497
0.085359469 -0.19435649 1.1548109 3172006
0.092979923 -0.19197243 1.1535594 3040421
0.098762959 -0.18964292 1.1508611 2974628
-0.084524363 -0.17805181 1.1515306 2645144
-0.077791452 -0.17976893 1.1544173 2710425
-0.072440296 -0.18246114 1.1558092 2776216
0.1022169 -0.18099399 1.1509025 3171493
0.10709761 -0.17879358 1.1475817 3237026
-0.087505102 -0.17000818 1.1541057 2710424
-0.081018418 -0.17215565 1.1579037 2710937
0.10520878 -0.17441735 1.1539847 3302823
0.1114368 -0.17035994 1.1505935 3172005
0.11719891 -0.16721901 1.1495445 3172006
-0.096276402 -0.158676 1.1516283 2841498
-0.091734737 -0.1611262 1.1564528 2907290
0.11402568 -0.16334425 1.1535898 3303592
0.12022518 -0.15996712 1.1520336 3237544
0.12617093 -0.15569025 1.1451373 3303337
-0.098010361 -0.15020093 1.1532873 2973342
-0.093231857 -0.15323555 1.1594756 3038879
0.12385722 -0.15218866 1.1524975 3237544
0.12807807 -0.1492081 1.147802 3303336
-0.10607994 -0.13867292 1.1526619 2973342
-0.099879235 -0.14176926 1.1570232 2973600
0.13150021 -0.14006166 1.1487885 3368872
-0.10763623 -0.13079655 1.1539618 3039392
-0.10204415 -0.13153461 1.1594588 3236259
0.13282998 -0.13059774 1.1503819 3500460
0.13708499 -0.12821917 1.1444757 3434923
-0.10874227 -0.12114968 1.1544089 3170978
0.13387772 -0.12165579 1.1511563 3500719
0.13846818 -0.11918842 1.1476572 3500718
-0.11541241 -0.11003395 1.1515725 3237029
-0.11142413 -0.11132174 1.1574759 3237286
0.13886619 -0.11029668 1.1503073 3697329
-0.11543234 -0.10124989 1.1514628 3237543
-0.11265786 -0.10071567 1.1588793 3172263
0.14004867 -0.10118998 1.1496531 3697843
-0.11566991 -0.09157645 1.1543497 3303340
-0.113453 -0.090437435 1.1592735 3303852
0.13981092 -0.09074042 1.1499289 3764149
-0.11584221 -0.081852466 1.1512311 3500716
-0.11289687 -0.08038041 1.1591311 3501229
0.14268604 -0.080316782 1.1482854 3764661
-0.11549458 -0.073799722 1.1511198 3566512
-0.11220589 -0.070317104 1.1553465 3632306
0.13967955 -0.070116006 1.1481435 3896764
-0.11162622 -0.060695957 1.1552088 3698357
0.13373806 -0.060060117 1.1503868 4291265
0.13741274 -0.06129086 1.1447691 4225217
-0.11004679 -0.051690333 1.1546861 3764408
0.13447917 -0.050464597 1.1495779 4554434
0.13690822 -0.050260693 1.1435018 4488640
-0.10709339 -0.040963184 1.1552662 3895997
-0.10288845 -0.037715618 1.1583049 4027323
0.13403419 -0.039680906 1.1484548 4817354
-0.10567303 -0.031470537 1.1516373 3962044
-0.10153086 -0.030184172 1.1573706 4093118
0.12476976 -0.027331293 1.15157 5014224
0.1300516 -0.030103251 1.1474495 4751563
-0.10463777 -0.021074496 1.1501427 4290235
-0.099626899 -0.020880111 1.1545305 4158908
-0.093353108 -0.0185332 1.1577874 4028609
0.12303907 -0.02031891 1.1497535 4817874
0.12956832 -0.020086855 1.1443362 5145287
-0.097320721 -0.014254883 1.152246 4487616
-0.091824889 -0.011528127 1.156321 4356800
0.1141538 -0.0078246742 1.149632 5276623
0.12039185 -0.010870934 1.1457731 5604813
0.12975423 -0.012087807 1.1441193 6720449
-0.089700714 -0.0045216009 1.1575054 5671109
0.11232407 -0.0022452772 1.1510442 5802961
0.11857194 -0.0030534416 1.1467758 6787017
0.036257286 0.013408415 1.1536261 12972031
-0.019053143 0.023190632 1.1531069 5869264
0.013401318 0.019630112 1.154211 7515376
0.020893268 0.019275822 1.1539981 8764660
0.03049764 0.018851891 1.1537248 10146554
0.037131455 0.017832592 1.1535451 10870005
-0.076949805 0.031316787 1.1486814 8028800
-0.07182835 0.03169255 1.1485281 7305855
-0.014609125 0.024367824 1.1549642 5671370
-0.011293387 0.024374135 1.1548679 5869265
0.011916791 0.024418354 1.154194 6988787
0.016337778 0.024426773 1.1540656 7185904
0.10252696 0.033435985 1.1514521 6314850
-0.070620105 0.036696896 1.1484302 8028802
0.099424243 0.036968112 1.1514977 6117979
0.075219303 0.047344819 1.1440656 5593178
0.077414557 0.047349006 1.1440018 5658970
-0.013998186 -0.21736258 1.1619844 2973083
-0.0084503982 -0.21846145 1.1618372 2973595
0.00099301524 -0.21800488 1.1622245 2973598
-0.03398633 -0.20630628 1.1624254 2842012
-0.027606118 -0.20768094 1.1622576 2776219
-0.018218938 -0.21012431 1.1635405 2907806
-0.0085773822 -0.2114647 1.1649125 2907807
0.0019828798 -0.21198297 1.1647881 2973599
0.010777131 -0.20966037 1.1618359 3039136
0.021533482 -0.20864147 1.162178 3170723
0.031488389 -0.20851147 1.1612206 3236770
0.041263014 -0.20804048 1.1602641 3170979
0.05030559 -0.2078099 1.1599989 3170980
0.056956142 -0.20613305 1.1597849 3171236
-0.045096997 -0.19745192 1.1626365 2842012
-0.038343348 -0.19968633 1.163924 2842011
-0.02869875 -0.20191413 1.1646795 2842012
-0.02036621 -0.20332843 1.1659948 2907805
0.026098948 -0.20463148 1.1646632 3302309
0.032072891 -0.20347774 1.163332 3302308
0.040683307 -0.20335719 1.1617229 3171236
0.051405843 -0.20392475 1.1599182 3171236
0.062072746 -0.20251021 1.1612585 3105443
0.071867645 -0.2005772 1.160283 3171492
0.078381091 -0.19869597 1.1590699 3040420
-0.066194192 -0.18639773 1.1631098 2841497
-0.057399895 -0.18912332 1.1634225 2907291
-0.048919793 -0.19174087 1.164559 2907549
-0.042183537 -0.19288689 1.1664966 2907551
0.07503964 -0.19340575 1.1631024 3040420
0.081994414 -0.19157484 1.160982 3106213
0.089745417 -0.18898523 1.1586183 3106214
-0.06765385 -0.1798892 1.1650714 2907290
-0.061019462 -0.18273702 1.1664153 2973340
0.086148068 -0.18447861 1.162668 3302823
0.092116237 -0.18211247 1.160064 3237030
0.098251179 -0.17869201 1.1600209 3237031
-0.085093394 -0.16646382 1.1634077 2841497
-0.076676264 -0.16992061 1.1637405 2842012
-0.070482209 -0.17211398 1.1660563 2907547
0.10339226 -0.17100891 1.1589202 3368361
0.10844038 -0.16775933 1.1578094 3237285
-0.086585552 -0.16054966 1.1633767 2973085
-0.07972765 -0.1607272 1.1659181 3039135
0.10565895 -0.16388159 1.1578413 3368615
0.11219439 -0.16052991 1.1583372 3237799
0.1167344 -0.15720385 1.1574361 3303337
-0.09400861 -0.14762034 1.1634296 2973857
-0.088528693 -0.15112023 1.164871 3039137
-0.082525045 -0.15195908 1.167153 3104930
0.11420259 -0.15301067 1.1594579 3172264
0.12037775 -0.15012521 1.1579086 3238059
-0.095189139 -0.13940834 1.1643612 3039650
-0.091114536 -0.14295813 1.1672891 3105700
0.12363626 -0.14035745 1.1591793 3369132
0.1277872 -0.14054121 1.1569062 3434410
-0.097942993 -0.1308421 1.1650482 3171236
0.12553914 -0.13221908 1.1600685 3500719
0.12887003 -0.12992376 1.1587424 3435183
-0.10516456 -0.11879616 1.1633914 3302823
-0.10043342 -0.12073329 1.1659464 3171495
0.12960352 -0.11982785 1.1584125 3566514
-0.10688806 -0.11014652 1.1647879 3368873
-0.10315692 -0.11129405 1.1664404 3368875
0.13226773 -0.11064298 1.1572012 3697588
-0.10777719 -0.10106742 1.1659124 3303850
0.1338892 -0.10100797 1.159663 3763892
0.13701218 -0.10036194 1.156134 3698099
-0.10917442 -0.090878442 1.1647578 3435181
-0.10325058 -0.09132652 1.1669928 3435438
0.13490197 -0.090872869 1.160078 3829942
0.13766348 -0.090354517 1.1571329 3764149
-0.10814908 -0.081198767 1.1650066 3501229
0.13487168 -0.077513948 1.1599112 3896505
0.13920911 -0.080415331 1.1576389 3830455
-0.10758682 -0.071343035 1.1644049 3632563
-0.1033036 -0.067948408 1.1667007 3567542
0.13242257 -0.070392653 1.15732 4027837
0.13761775 -0.073956124 1.1557848 3896505
-0.10685687 -0.061286256 1.1640521 3829940
-0.10331874 -0.061268941 1.1666173 3699127
0.13093568 -0.060767002 1.158481 4291009
-0.10647692 -0.051151726 1.1633803 3895737
-0.10270768 -0.050294325 1.1664617 4027576
0.13118964 -0.050736569 1.1576806 4422849
-0.10533312 -0.044464055 1.1624627 4158911
-0.10079761 -0.040731467 1.1642852 4093372
0.13109688 -0.040999215 1.1570609 4817355
-0.097085357 -0.031331658 1.1635977 4093630
-0.092265844 -0.027850434 1.1658769 4094397
0.12364371 -0.030257247 1.1578647 5080014
0.12809896 -0.033479728 1.1555526 4883149
-0.095028907 -0.02373489 1.1619034 4028348
-0.090487227 -0.021150231 1.16324 4028864
0.11911857 -0.020628348 1.1574304 4949202
-0.086938441 -0.011547334 1.1633347 4029123
-0.082663104 -0.0092780069 1.165365 3963586
0.11303927 -0.010764584 1.1583722 5146069
0.11641239 -0.015196241 1.1556621 5080276
-0.086201742 -0.0037481636 1.1613963 5342665
-0.078971118 -0.0015353262 1.1651607 4882633
-0.015546497 0.0023534149 1.1632718 6070261
-0.0088693202 0.002366133 1.163078 6528744
-0.0021921452 0.0023788512 1.1628841 8827627
0.013387927 0.0024085268 1.1624317 10340848
0.022133287 0.0017890483 1.1621858 8895736
0.029638747 0.0011035874 1.1619767 6266608
0.10396899 0.0020119548 1.1588084 5475287
0.10840881 -0.0015180856 1.1570565 5475028
-0.075570822 0.004436776 1.162986 5999306
-0.068915203 0.0055588931 1.1627789 5540557
-0.06037714 0.0089014992 1.1618222 5803727
-0.047591265 0.010703586 1.1640966 4950220
-0.038629629 0.0095961913 1.1638505 5016280
-0.028918061 0.0089986175 1.1631761 5411294
-0.018927366 0.0089811012 1.1610456 5806569
-0.0088950023 0.0090335086 1.1623946 7120874
0.00070566311 0.009806022 1.1627067 12379901
0.011224172 0.0092702508 1.1598808 13891069
0.021017073 0.0090418532 1.1589255 12969723
0.030993449 0.0093089342 1.1595174 9946095
0.041073672 0.0091016069 1.1596305 10013177
0.050795212 0.010997564 1.1590837 7449069
0.05750791 0.012882881 1.1610203 5411552
0.10100697 0.0058763102 1.1573451 6526426
-0.045624074 0.0156551 1.1639774 6264275
-0.038106598 0.016441695 1.1612482 5803990
-0.028577875 0.01707112 1.159463 5345755
-0.018577501 0.018351883 1.1591569 5412839
-0.0089776181 0.018969484 1.1593709 5676266
0.00012702309 0.018095016 1.161476 7253489
0.0099023525 0.017908938 1.1593367 8436213
0.019854195 0.015684128 1.1580755 12051453
0.034261838 0.020149335 1.1576014 10082302
0.042100836 0.019424647 1.1573831 10607102
0.05058438 0.018595517 1.1571474 7515119
0.057660371 0.018012002 1.1582835 6068200
-0.0067832395 0.024508901 1.1587374 6001365
-0.0023470223 0.02451735 1.1586086 6396124
0.11009803 0.030500636 1.1552713 6447199
-0.0049613845 -0.20758328 1.1696035 3039391
0.0026211925 -0.20697799 1.1708766 3039135
0.014022012 -0.20754713 1.1690522 3104930
-0.034020144 -0.19646806 1.1703068 2776478
-0.027585905 -0.19732647 1.1721319 2842271
-0.017619763 -0.19891959 1.1740457 2907807
-0.0083769802 -0.20075479 1.1743147 2908063
0.0016719485 -0.20157158 1.1751384 2973600
0.011973347 -0.20057537 1.1743602 3105187
0.021870522 -0.20021686 1.1731485 3236773
0.03154929 -0.19886762 1.1721699 3237029
0.042494882 -0.19893155 1.1719198 3171237
0.052078459 -0.1998917 1.1693528 3171236
0.061575223 -0.19832131 1.1684803 3105444
0.070389792 -0.19682771 1.1672823 3171493
-0.046136983 -0.18758136 1.1737484 2841758
-0.038011767 -0.18986315 1.1743417 2907551
-0.029020347 -0.19091731 1.176919 2842271
-0.018301547 -0.19207084 1.1777996 2908064
-0.011553282 -0.19318268 1.1776178 2973857
0.0098081566 -0.19314197 1.1769975 3105444
0.02267272 -0.19211775 1.1766115 3237030
0.032696985 -0.19252443 1.1755254 3302823
0.042349786 -0.19172621 1.1751121 3171495
0.051691562 -0.19030496 1.1743549 3105703
0.061392497 -0.19054772 1.1738677 3105703
0.071139708 -0.19005467 1.1716777 3105702
0.079384267 -0.1875695 1.1686202 3105958
-0.057474528 -0.17992467 1.1724274 2973598
-0.049351972 -0.18157567 1.1765676 2907551
-0.039401688 -0.1833948 1.1783028 2908065
0.073001742 -0.18160182 1.1750194 3237288
0.08174637 -0.18090203 1.1723112 3302823
0.090316027 -0.17888027 1.1690515 3237287
-0.066866115 -0.16865963 1.173769 3105183
-0.059303608 -0.17197853 1.1768534 2974112
-0.050946657 -0.17413822 1.1785215 2842786
0.083293632 -0.17410743 1.1746266 3171750
0.091873392 -0.17049783 1.1729984 3172008
0.099807173 -0.16878146 1.1684111 3303081
-0.07507363 -0.15902045 1.1716945 3104930
-0.068670034 -0.16125439 1.1775398 3170978
0.0943809 -0.16213262 1.1741546 3303337
0.10208745 -0.16062631 1.1716609 3368873
0.10893081 -0.15934683 1.1682402 3237543
-0.084874764 -0.14622687 1.1738192 3040164
-0.078113139 -0.14995667 1.1747932 3105701
-0.071603641 -0.15430829 1.1788718 3302822
0.10370465 -0.15157503 1.1737515 3303597
0.11097313 -0.14918837 1.1691449 3238059
0.11798961 -0.14613733 1.1672658 3303852
-0.087297663 -0.13988326 1.1749215 3106213
-0.079408199 -0.14185798 1.1789417 3172007
0.11197306 -0.14006533 1.173167 3369387
0.11979783 -0.1398585 1.1691355 3435181
-0.094542488 -0.12969051 1.172558 3237030
-0.08784461 -0.13029735 1.1767068 3237800
-0.081394196 -0.13370787 1.178897 3303594
0.11378342 -0.13401088 1.1732385 3500972
0.12208571 -0.12975746 1.1696926 3500976
0.12662333 -0.12690447 1.1647727 3500977
-0.095650911 -0.12041354 1.1742523 3237545
-0.090869442 -0.12201972 1.1781358 3303852
0.12394568 -0.12019551 1.1727703 3566772
0.12715156 -0.12057014 1.1686798 3566515
-0.098180234 -0.11070751 1.1743428 3369389
0.12478065 -0.11066094 1.1726263 3763639
0.12799913 -0.10978025 1.1676304 3763639
-0.10504928 -0.096907943 1.172451 3435181
-0.099576697 -0.10054439 1.1755776 3435438
0.12539797 -0.099573672 1.1724691 3895737
0.13023037 -0.099509105 1.1671491 3764149
-0.10453294 -0.090417422 1.1734217 3435438
-0.099044293 -0.090987638 1.1773332 3501231
0.12538521 -0.093950316 1.1723988 3961530
0.13060296 -0.090024754 1.1670191 3961528
0.13769886 -0.086669303 1.1639462 3895735
-0.1042552 -0.081158385 1.1738977 3501489
-0.099905908 -0.080891997 1.176652 3501490
0.12534441 -0.07595557 1.172174 4159679
0.13092676 -0.08068011 1.1673417 3962041
0.13769379 -0.084435202 1.1639183 3895735
-0.10476969 -0.073830992 1.1728201 3501747
-0.099892914 -0.070598468 1.1753061 3567541
0.12458043 -0.069583863 1.1721162 4225473
0.12815768 -0.070129223 1.1680171 4159424
-0.098173484 -0.060457353 1.1740617 3764919
0.12431048 -0.060711928 1.1720126 4422597
0.12813479 -0.060041465 1.1678911 4357059
-0.097708181 -0.050686754 1.1737539 3896505
-0.092825785 -0.050503604 1.1781837 3962298
0.12416147 -0.050090272 1.1718835 4685767
0.12811191 -0.049953707 1.1677651 4422851
-0.09632127 -0.041581605 1.1717699 4027836
-0.091159284 -0.039741118 1.1769087 4028094
0.12220183 -0.039527498 1.1696889 4948684
0.12796111 -0.041473556 1.1646615 4751818
-0.094690159 -0.033493202 1.1700201 4093632
-0.088959113 -0.029959664 1.1756586 4094399
0.11549433 -0.029112831 1.1718715 5080784
0.11966862 -0.030231953 1.166962 5211343
-0.085774079 -0.021530122 1.173977 4094402
-0.07917887 -0.018420957 1.1763843 4226244
-0.07266514 -0.016724907 1.1771746 4620744
-0.018701945 -0.015497446 1.1755936 5412064
0.0037837783 -0.015454605 1.1749408 6463211
0.011860885 -0.019276373 1.1747545 6397929
0.021542912 -0.018617228 1.1744653 6397929
0.03076956 -0.016688555 1.1741734 6003432
0.11239798 -0.019871593 1.1693439 5081042
0.11745441 -0.023035571 1.1637343 5081041
-0.077986047 -0.010671414 1.1711165 4160963
-0.069761708 -0.0096536279 1.176144 4752075
-0.054699514 -0.0065686032 1.1765258 4949201
-0.047952522 -0.0071180984 1.176337 5016022
-0.038391929 -0.0082278103 1.1754066 5213659
-0.028579663 -0.0091202557 1.1745688 5411552
-0.018723439 -0.0098780096 1.1747233 5740773
-0.008596126 -0.0098548084 1.1752295 6003172
0.0015097056 -0.0098375231 1.174536 6331366
0.01152827 -0.0098253936 1.1716439 6989552
0.0216377 -0.0098053366 1.1717505 6792432
0.031701043 -0.0097867623 1.170808 5937640
0.040248722 -0.0088275298 1.1727991 5806054
0.050985947 -0.007491976 1.1734715 5674725
0.057729114 -0.0063544437 1.1732615 5674983
0.10354951 -0.0087976903 1.1719629 5146841
0.10940415 -0.010919847 1.1661025 5080789
-0.074661016 -0.0021774247 1.1690458 4554184
-0.071130455 -0.0013068467 1.1719339 4751049
-0.055797424 -0.00097231567 1.1744864 4818129
-0.04838093 -0.00096589327 1.1734707 5015507
-0.038943015 -0.00097669661 1.1697954 5147609
-0.02887699 -0.00096930563 1.1682026 5346018
-0.019163646 -0.0013004169 1.1705374 5937898
-0.0087106172 -0.0020241141 1.1704655 6462952
0.0017139977 -0.0012676939 1.1692643 8303605
0.011054961 -0.001365602 1.1679782 8501495
0.020887002 -0.0023349598 1.1668915 7252467
0.032214466 -0.0017601922 1.1673952 6069484
0.041381612 -0.00064442307 1.167977 6135528
0.051580343 -0.00097001344 1.1707827 5741031
0.061011665 -0.00073634833 1.1720952 5543655
0.07051298 0.00059099495 1.1728034 5477092
0.080570906 0.0019367039 1.1724946 5739747
0.091939241 0.0017084181 1.1721678 5280481
0.10105479 -0.00094544142 1.1682425 5015513
0.10647909 -0.0029358789 1.1658013 4949463
-0.067976192 0.0045376644 1.1687675 4818122
-0.058548782 0.0055485442 1.1684813 5147606
-0.049865257 0.0063097849 1.1682198 4818639
-0.041176118 0.0045887157 1.1679894 5344472
0.0034894357 0.0052323267 1.1666855 12971007
0.0079573849 0.0046823025 1.1665628 12905215
0.032524131 0.0047290996 1.1658494 5807584
0.045924179 0.0047546253 1.1654605 6004710
0.05198393 0.0057236403 1.1652725 5807083
0.060828473 0.0082429275 1.1671185 5477863
0.069403455 0.0078555346 1.1694093 5542628
0.08131361 0.004937239 1.1724355 5673698
0.091830269 0.0068971887 1.1706049 5804766
0.097291023 0.0048524663 1.163969 5147865
0.063765571 0.015959181 1.1648021 5412324
-0.0047078058 -0.19603941 1.181457 3039650
0.0017399071 -0.19667196 1.181278 3039650
-0.025031414 -0.18817873 1.1819479 2842271
-0.018262852 -0.18816584 1.1817514 2973857
-0.0079027954 -0.18922171 1.1827279 2973857
0.0018858565 -0.19094001 1.1837293 3039395
0.012515223 -0.18899465 1.1826476 3171237
0.021793928 -0.18756774 1.181649 3237030
0.032147791 -0.18699169 1.1818134 3302569
0.040477779 -0.18711957 1.1813681 3237546
-0.044716246 -0.17773744 1.1823878 2908065
-0.037139706 -0.17869028 1.18218 2973857
-0.028428257 -0.18042491 1.1829495 2973857
-0.018649135 -0.18229333 1.1838075 2973858
-0.010303469 -0.18308297 1.1854587 3105444
0.021389784 -0.18302259 1.1845384 3237030
0.033082679 -0.18149059 1.1841799 3302825
0.042000718 -0.18102235 1.1836075 3171754
0.051806089 -0.18154308 1.1816365 3171752
0.062127452 -0.18110734 1.180743 3171753
0.070542708 -0.17797892 1.1800476 3237546
0.078725085 -0.17556775 1.1787795 3303592
-0.055911187 -0.16830099 1.1825942 2908579
-0.047657941 -0.17043009 1.1843824 2908579
-0.037797634 -0.17186983 1.185024 3105444
-0.029114611 -0.17360753 1.1858853 3105443
0.065513417 -0.17388019 1.1831435 3303339
0.073499702 -0.17160833 1.1815493 3303082
0.081827462 -0.16951028 1.1791852 3237545
0.08772938 -0.16652271 1.1784047 3303850
-0.064961538 -0.15703335 1.1827152 3302822
-0.058276813 -0.16129777 1.1848259 3040165
-0.051093008 -0.16504395 1.1864154 3040167
0.076811895 -0.16480032 1.1827017 3303598
0.082835734 -0.16080572 1.1815351 3238061
0.091335729 -0.15875153 1.1793141 3303596
0.098987296 -0.15634489 1.1779503 3369131
-0.074762225 -0.1465195 1.1828674 3171751
-0.068290114 -0.1501224 1.1841373 3368615
-0.061305802 -0.15374045 1.1865697 3171751
0.10082985 -0.14974789 1.1793146 3369134
-0.07675238 -0.13947025 1.1828367 3369130
-0.070544571 -0.14138086 1.1856821 3434922
0.10197826 -0.14006157 1.1807081 3435183
-0.078457817 -0.13085887 1.184112 3434923
0.1047177 -0.13295996 1.1806918 3501232
0.1114506 -0.12982252 1.1798451 3435694
0.11810091 -0.12809634 1.1770409 3501232
-0.086711973 -0.11973577 1.1838783 3369646
-0.080938965 -0.12345778 1.185425 3435182
0.11519644 -0.1205677 1.1810327 3567282
0.11923568 -0.12005269 1.1787261 3567027
-0.095157489 -0.10706136 1.1829636 3501231
-0.090485767 -0.1109485 1.1856282 3435439
0.11517847 -0.11264167 1.1809336 3829686
0.12022293 -0.10984169 1.1789734 3829431
-0.095165163 -0.10367592 1.1829213 3501231
-0.090739369 -0.10040659 1.1844193 3567024
0.12252107 -0.10045226 1.1792336 3830201
-0.095197156 -0.089569911 1.1827451 3632818
-0.091909364 -0.090259075 1.1846594 3698612
0.12459445 -0.089846663 1.1783732 3896507
-0.095218897 -0.079977825 1.1826253 3633333
-0.091293946 -0.080131143 1.1853147 3764919
0.12439239 -0.0796455 1.1777507 4093886
-0.095690101 -0.071176536 1.1825284 3633334
-0.09156324 -0.070195228 1.1855979 3830201
0.12138902 -0.070018061 1.1784395 4291523
-0.091207862 -0.059912313 1.1839243 3896506
0.12085775 -0.059542987 1.1777008 4619975
-0.087949306 -0.050355144 1.1837574 4028348
0.11503211 -0.048101161 1.1801273 5146320
0.11943485 -0.050326049 1.179027 4883148
-0.086294994 -0.040955327 1.1821622 3962814
-0.081244916 -0.039554629 1.1845707 3963072
0.11397687 -0.039295208 1.1785465 5146577
0.1176843 -0.040935401 1.1764586 5080527
-0.084949449 -0.031884782 1.1817234 4028607
-0.078715369 -0.030099586 1.1836544 4291526
-0.02876566 -0.027993776 1.1840464 5147865
-0.021295618 -0.027753085 1.1838267 5344731
-0.0049982853 -0.026816204 1.1833421 5345501
0.0017931256 -0.026803263 1.1831449 5739743
0.011935218 -0.029032186 1.1815448 5936862
0.02099631 -0.02901902 1.1816152 5871068
0.031225145 -0.027879491 1.1823046 5739228
0.049333006 -0.026712708 1.1817646 5213656
0.1120782 -0.030418791 1.1783901 4949970
-0.077017233 -0.022672519 1.1813775 4422856
-0.068546385 -0.017871529 1.1828905 4686797
-0.058177937 -0.016721368 1.1827571 4884690
-0.047739144 -0.018120967 1.1839726 4950486
-0.037310451 -0.018870525 1.1828458 5213659
-0.028795827 -0.020049095 1.180746 5279707
-0.018624995 -0.021161966 1.180865 5345244
-0.0084703006 -0.019511558 1.1804608 5411808
0.0013817037 -0.020609036 1.1799867 5806052
0.010694847 -0.023727961 1.1788461 6068964
0.022728702 -0.0240812 1.1785015 6068963
0.032782897 -0.021669954 1.179103 6003173
0.041257679 -0.019924484 1.1797125 5608417
0.051471278 -0.019906819 1.1800164 5411038
0.058372814 -0.019901715 1.1814169 5279709
0.10301547 -0.01807157 1.1791753 5212630
0.10861678 -0.021673165 1.1773136 5015248
-0.064913899 -0.01221098 1.180895 4949712
-0.058145333 -0.012198083 1.1806984 4949713
-0.047992479 -0.012178749 1.1804037 5016279
-0.038590856 -0.012536995 1.1801354 5213659
-0.029940423 -0.013272829 1.1798937 5345501
0.042820364 -0.012569994 1.1777741 5871590
0.051279791 -0.011989646 1.1775213 5871847
0.06158565 -0.0097125322 1.1791947 5543139
0.068873882 -0.0085660443 1.1792548 5280225
0.093436107 -0.0085119903 1.1802566 5411294
0.099224746 -0.00994616 1.17756 5279196
0.071002245 -0.0034884363 1.1768423 5411556
0.080587223 -0.0017774403 1.1765428 5412066
0.091868162 -0.0017559528 1.1762153 5477344
0.098641828 -0.0040000305 1.176047 5213404
0.0030280063 -0.1862832 1.1891141 3105189
-0.017324608 -0.17784449 1.1905991 3039906
-0.00761039 -0.17995501 1.1907725 3039908
0.0019780751 -0.1810739 1.192414 3105447
0.012506232 -0.18030941 1.1895145 3105702
0.021561619 -0.17905256 1.1884856 3171750
0.030543119 -0.17862234 1.1882197 3237289
0.041999243 -0.17674145 1.1878637 3237548
0.052220635 -0.17672196 1.1875669 3171752
0.061306316 -0.17670466 1.1873031 3171752
-0.045019828 -0.16645503 1.190259 3039909
-0.037146073 -0.16716014 1.1909287 3105701
-0.028939001 -0.16977343 1.1923809 3105443
-0.019289259 -0.17513023 1.1936234 3040163
0.011475652 -0.17415971 1.1927187 3105960
0.022868304 -0.1730234 1.192374 3105958
0.031935737 -0.17150481 1.1912915 3237545
0.042295523 -0.17043784 1.1898822 3237547
0.052319102 -0.17011216 1.1890818 3237544
0.062381059 -0.16986473 1.188871 3237545
0.070996024 -0.16787298 1.1875781 3303339
-0.056284752 -0.15704682 1.1904676 3172009
-0.047788788 -0.1601647 1.1926615 3105961
-0.038405266 -0.16234262 1.1940174 3171752
0.045637406 -0.16360742 1.1915951 3303337
0.052474514 -0.16359439 1.1913966 3303593
0.062565163 -0.16259812 1.1910914 3303594
0.071726717 -0.15998171 1.1895421 3303596
0.078462988 -0.15849429 1.1865766 3238062
-0.063686177 -0.14854017 1.1905755 3434409
-0.057861116 -0.15025662 1.193253 3237547
-0.049485918 -0.15259676 1.1942165 3237805
0.072707906 -0.15266335 1.1906724 3238318
0.081962004 -0.14972699 1.1892464 3238572
0.09203288 -0.14951435 1.1872708 3434926
0.098494738 -0.14891289 1.1858752 3369134
-0.066010922 -0.13949773 1.1917608 3435179
-0.059997771 -0.14146754 1.1939369 3369388
0.086613521 -0.14301094 1.1901478 3500977
0.092196018 -0.139474 1.1889409 3435186
0.097564876 -0.13952287 1.1857842 3500720
-0.074554101 -0.1287751 1.1916431 3566511
-0.068799138 -0.13162217 1.1931794 3566767
-0.061544467 -0.13417384 1.1943349 3500977
0.093656644 -0.13183247 1.1893027 3501234
0.10145721 -0.12941037 1.1862947 3501490
-0.084203675 -0.11563224 1.1907575 3566770
-0.077360258 -0.12016978 1.1932172 3632306
-0.070681304 -0.12507193 1.1944857 3632563
0.1032919 -0.1207203 1.1879715 3699127
0.11066833 -0.11944564 1.1856228 3633076
-0.085395411 -0.11003386 1.1917223 3566770
-0.079303727 -0.1108833 1.1945577 3763892
0.10420495 -0.11162981 1.1892432 3633335
0.11080359 -0.10945351 1.1865789 3764407
-0.085497826 -0.09993194 1.1933992 3698868
-0.081119299 -0.10052036 1.1944802 3699126
0.10474758 -0.099659689 1.1890771 3962811
0.11125103 -0.099750288 1.1877224 3830969
0.11889157 -0.099989116 1.184669 3830714
-0.086747929 -0.09000244 1.191433 3699126
-0.081395209 -0.090514988 1.1943625 3830712
0.11194365 -0.089802235 1.1881443 4028606
0.12000448 -0.089924358 1.1845104 3962300
-0.086169794 -0.080507986 1.1919742 3830970
-0.081201687 -0.080146842 1.1942266 3962813
0.11221212 -0.080736332 1.188623 4291522
0.11998436 -0.080354296 1.1847545 4094399
-0.086490691 -0.070438869 1.1919713 3962044
-0.081548661 -0.070702508 1.1941181 4093630
0.11376338 -0.06999287 1.1881763 4554438
0.11850084 -0.070775747 1.1843134 4357059
-0.085900977 -0.060399514 1.191447 4093886
-0.081248209 -0.05962849 1.1939703 4291009
0.1118896 -0.059460361 1.1874758 4686026
0.11782645 -0.0595783 1.1841924 4685769
-0.084345356 -0.053146791 1.1899768 4159935
-0.079268321 -0.050633024 1.1926565 4225985
0.10463385 -0.049503729 1.1884506 5015248
0.11064425 -0.050799903 1.1856245 5014991
-0.076297164 -0.040819038 1.1917071 4292037
-0.070867404 -0.04299856 1.1934603 4619977
-0.048092563 -0.036115699 1.1927131 5279449
-0.040115934 -0.036100503 1.1924815 5016538
-0.027578652 -0.037216533 1.1921319 4950743
-0.018056516 -0.038874745 1.1918764 4950488
-0.008963082 -0.038700964 1.1916105 5147351
0.0014803438 -0.037731141 1.1912953 5278422
0.012024395 -0.04003654 1.190129 5212886
0.021345872 -0.039366946 1.1889887 5278423
0.031327348 -0.038504373 1.1891885 5147094
0.042261571 -0.038874794 1.1901265 4885460
0.051720254 -0.037361909 1.1891055 4950741
0.060847413 -0.036820117 1.1895616 5016279
0.10308166 -0.039671414 1.1869714 5212370
0.11040184 -0.040846728 1.1841725 5212369
-0.074235305 -0.033849716 1.1914421 4423370
-0.072181687 -0.030656002 1.1909423 4554187
-0.047645207 -0.031095959 1.1923703 5147610
-0.037842721 -0.030369699 1.1903427 5081818
-0.02873522 -0.032626942 1.1901067 5016538
-0.017588291 -0.031167507 1.1898985 5278938
-0.0084872283 -0.030543752 1.1896266 5344730
0.0019496307 -0.031415597 1.1882676 5673948
0.012146185 -0.033649217 1.1869327 5805277
0.021231864 -0.03363191 1.1866689 5541848
0.031450678 -0.032476321 1.1863579 5475544
0.04166691 -0.030184671 1.1860328 5213397
0.052339252 -0.030778505 1.1864368 5082070
0.062073641 -0.02995716 1.187839 5016536
0.071049988 -0.027746499 1.1891516 5213915
0.081791803 -0.026748985 1.1888274 5279453
0.092732191 -0.027184099 1.1885155 5213659
0.10212578 -0.030105785 1.1866789 5212628
0.1086738 -0.030057035 1.1840872 5146833
-0.071916968 -0.024720512 1.1892593 4554443
-0.046708327 -0.02285473 1.1885045 5016281
-0.039437715 -0.023749754 1.1883048 5147611
-0.0083172042 -0.024599366 1.1874126 5411294
0.062465075 -0.019920126 1.1853005 5148123
0.071189784 -0.019905582 1.1852472 5213915
0.08126682 -0.02009692 1.1864972 5213917
0.092035383 -0.020003371 1.1867605 5213659
0.099984139 -0.0217456 1.1845684 5212887
0.092735216 -0.013045833 1.1843359 5279708
0.097278059 -0.013037182 1.184204 5411037
-0.013511645 -0.17579953 1.1984667 3106213
-0.0077902544 -0.17578864 1.1983006 3105959
0.0034905365 -0.17642125 1.1979812 3105706
0.013951022 -0.17574722 1.1976694 3105960
-0.024397861 -0.16895223 1.1986965 3105700
-0.016946889 -0.17017904 1.1992462 3105957
-0.0077879094 -0.17016159 1.1989802 3106216
0.0025433199 -0.17025223 1.1995322 3106217
0.013174526 -0.1697188 1.1990454 3171752
0.021058235 -0.16921389 1.1984726 3303337
0.032238699 -0.16655499 1.1970234 3369130
0.039104365 -0.1665419 1.196824 3369132
-0.037010826 -0.15775993 1.1992553 3171753
-0.027265422 -0.16012709 1.2013903 3171752
-0.016915951 -0.16036473 1.2031741 3172010
-0.0077040456 -0.16161531 1.203873 3172012
0.0023520105 -0.16117123 1.2043716 3237802
0.012998383 -0.16045542 1.2035079 3303338
0.022204544 -0.16046357 1.2034411 3369133
0.03246497 -0.16023028 1.2014196 3369388
0.042575285 -0.15988334 1.2004311 3303853
0.051795442 -0.15871453 1.1981084 3369643
0.061853398 -0.15790784 1.196291 3303851
-0.054773118 -0.1461166 1.199291 3303598
-0.046611045 -0.14890879 1.2008044 3303341
-0.037946671 -0.15059462 1.2040045 3303340
-0.028519463 -0.1519852 1.206607 3369132
-0.020347215 -0.15385519 1.2063935 3303600
0.013057695 -0.15379156 1.2054235 3303598
0.025728524 -0.15376742 1.2050556 3435186
0.033215832 -0.15375316 1.2048383 3369391
0.043006927 -0.15373451 1.204554 3369392
0.052791506 -0.15080744 1.2036177 3369390
0.062249992 -0.14975981 1.1997437 3435184
0.071518719 -0.14816537 1.1956528 3369392
-0.0557178 -0.13910511 1.2000307 3369646
-0.048444916 -0.14135911 1.2046504 3303853
-0.041102204 -0.14467639 1.2068803 3173034
0.054731157 -0.14265016 1.2040746 3566773
0.062891424 -0.14133258 1.2031543 3566516
0.072609611 -0.13946363 1.1999141 3500977
0.082445413 -0.14012772 1.19692 3500975
-0.065931991 -0.12716895 1.1993767 3632562
-0.056963127 -0.13019368 1.2021561 3501236
-0.049319502 -0.13030715 1.2064935 3501494
0.07491906 -0.13033979 1.2033343 3698612
0.08241497 -0.1306904 1.2007564 3567283
0.091189593 -0.12826139 1.197767 3567283
0.098513365 -0.12522046 1.1945815 3501747
-0.073146462 -0.11753473 1.199465 3895478
-0.067488179 -0.12003489 1.2018336 3698613
-0.058479961 -0.12092809 1.2057521 3633080
0.076343901 -0.12371139 1.2032098 3699128
0.082893595 -0.12050796 1.2029796 3830713
0.092334971 -0.12011563 1.2015001 3699126
0.098956555 -0.11880944 1.1944882 3633333
-0.074472383 -0.10952453 1.1994029 3961271
-0.067582041 -0.10991288 1.2042104 3896247
-0.060757559 -0.11244962 1.2070458 3764921
0.08277151 -0.11355897 1.2028958 3962300
0.093611002 -0.11103167 1.2020787 3896506
0.10098518 -0.10918572 1.1963094 3764920
-0.075812101 -0.10019094 1.2008253 3830712
-0.068807244 -0.099693388 1.2057852 4093627
0.09656392 -0.1001661 1.2023275 4028352
0.1017994 -0.099612534 1.1968327 3962812
-0.076220885 -0.089869805 1.2012078 3962556
-0.069623396 -0.090927035 1.206588 4028606
0.096013755 -0.089763582 1.2022128 4357317
0.10230751 -0.089988306 1.1980311 4225985
0.10757934 -0.08628425 1.1938295 4225985
-0.075749844 -0.080860883 1.201081 4028606
-0.070812061 -0.080972761 1.2069421 4094655
0.096522108 -0.081729487 1.2020971 4554695
0.10221717 -0.079615526 1.1973031 4554182
0.10832314 -0.077888548 1.1937025 4619462
-0.07650055 -0.070228696 1.199439 4159424
-0.068348721 -0.069151476 1.2054908 4160448
-0.062011357 -0.067512579 1.2065178 4554440
0.096952558 -0.068362065 1.2019167 4620747
0.10245919 -0.069396287 1.1995189 4686026
0.10868728 -0.070256695 1.1935961 4619977
-0.075916275 -0.060570426 1.19883 4291265
-0.067703769 -0.060500707 1.2038435 4357573
-0.062027041 -0.060598847 1.2064314 4751563
0.012072022 -0.057769015 1.2042462 4818903
0.019749571 -0.056986194 1.2040136 4819160
0.095090196 -0.059838641 1.2018638 4752590
0.10243593 -0.060195129 1.199404 4817869
0.10752483 -0.062246192 1.1935292 4752076
-0.073951259 -0.050981604 1.1986525 4291778
-0.067858502 -0.050224598 1.202047 4554440
-0.062045332 -0.052532833 1.2063307 4883149
-0.04359474 -0.045473929 1.2017047 5674209
-0.03785431 -0.045462992 1.2015381 5082331
-0.026434612 -0.04825706 1.2031095 4950745
-0.017186645 -0.05000601 1.2003952 4884953
-0.0080085471 -0.049981881 1.1999285 4753366
0.0023485338 -0.04885048 1.2008145 4884692
0.012910595 -0.05046352 1.1996834 4884692
0.021684488 -0.049716327 1.2000748 4884692
0.031946335 -0.04847572 1.2022189 4950484
0.04283157 -0.049427401 1.2001364 4950488
0.051635966 -0.049138285 1.2008713 4950489
0.062265914 -0.047657531 1.2015958 5411037
0.071275249 -0.047381625 1.2023982 5542623
0.085381359 -0.045338243 1.2019633 5213404
0.093163177 -0.048204158 1.2017735 5081558
0.10140397 -0.050458845 1.1991615 5015248
-0.068744004 -0.040506087 1.1983699 4685772
-0.046495628 -0.039986189 1.1988094 5542365
-0.037527155 -0.040148828 1.1986033 4951002
-0.028796624 -0.04117329 1.1972194 4884951
-0.01953413 -0.043028753 1.1969739 4753366
-0.00580539 -0.041857928 1.196561 4950484
0.0030634096 -0.042127199 1.1963071 5015763
0.033102646 -0.042928487 1.1954457 5015764
0.039968312 -0.042915408 1.1952463 4885461
0.051899269 -0.041911531 1.1948876 4884950
0.062735364 -0.040804282 1.1964064 5082072
0.072190955 -0.039610535 1.1990725 5542624
0.081839442 -0.040719911 1.2012076 5279197
0.091903105 -0.039487068 1.1980988 5213144
0.099087596 -0.04203967 1.1935202 5212627
0.066265941 -0.033707917 1.1943678 5016538
0.071983427 -0.031980015 1.1941803 5213917
0.08151345 -0.029481724 1.1938723 5345245
0.091884121 -0.0317633 1.1942672 5213917
0.18326619 -0.033628855 1.1989765 13158081
-0.0075882543 -0.15661117 1.21006 3303598
0.0051244609 -0.15658696 1.2096908 3303850
-0.036042631 -0.14602922 1.2107525 3303853
-0.026262205 -0.14760214 1.2108458 3304111
-0.016640108 -0.14968073 1.2123418 3303857
-0.0075463168 -0.14998008 1.2127268 3303856
0.0028851591 -0.1499885 1.2126744 3369903
0.013196021 -0.14847885 1.2093549 3435441
0.022261225 -0.14937431 1.2091031 3435187
0.032733504 -0.1487169 1.208791 3500978
0.043244261 -0.14842162 1.2084824 3369649
0.049943656 -0.14679031 1.2082676 3435441
-0.044226542 -0.1385687 1.2108963 3370159
-0.03767582 -0.13932694 1.2107158 3370416
-0.027258646 -0.13954183 1.2126673 3436469
-0.016807798 -0.13981037 1.2151189 3502005
-0.0075241085 -0.1397927 1.2148494 3501749
0.0029279413 -0.14325537 1.2145896 3501493
0.013316903 -0.13961864 1.212992 3567542
0.022634577 -0.13970165 1.2136606 3567541
0.033008158 -0.13955568 1.2121698 3633333
0.043281056 -0.13926814 1.2093043 3567541
0.051845185 -0.13853392 1.2081087 3633079
0.06187325 -0.13632965 1.2077901 3632566
-0.044631004 -0.13009137 1.2108015 3501750
-0.03770401 -0.13031775 1.2131047 3567798
-0.029236257 -0.13081503 1.2153665 3633848
-0.015660502 -0.13400388 1.2150127 3633591
-0.0086977314 -0.13399062 1.2148105 3699128
0.013348404 -0.13278775 1.2141559 3830714
0.023792557 -0.13276786 1.2138526 3764921
0.033285089 -0.13179997 1.2135651 3830712
0.043824457 -0.13086981 1.2128903 3830713
0.052521735 -0.13055699 1.2123244 3830458
0.062788844 -0.13029581 1.2100574 3764409
0.070853978 -0.12876759 1.2079904 3764407
-0.053670112 -0.11924123 1.2109275 3698874
-0.046990689 -0.11988471 1.2129929 3764923
-0.038354289 -0.12052645 1.2155018 3765435
-0.031928018 -0.12474795 1.2153684 3699641
0.061682537 -0.12456963 1.2126504 3896252
0.071721151 -0.12011492 1.2096829 3831226
0.079005465 -0.11945094 1.2070811 3830458
-0.05630808 -0.10979202 1.2116753 3896508
-0.047048237 -0.10968552 1.2156179 4028352
-0.03915552 -0.110367 1.2153975 4094143
0.072941557 -0.11021904 1.2085704 4159936
0.082217664 -0.10896283 1.2068563 4028352
0.090246692 -0.10757948 1.2066059 3962559
-0.064346075 -0.10007027 1.2109965 4093628
-0.057424258 -0.10011199 1.2115465 4028352
-0.047064725 -0.10037695 1.2151887 4094401
-0.040342305 -0.09876062 1.2152861 4225986
0.074450016 -0.10101454 1.2106199 4357317
0.082692161 -0.099990726 1.2095437 4225732
0.091441959 -0.09954229 1.2064703 4159938
-0.065358773 -0.090327904 1.2109035 4028609
-0.057142261 -0.090367772 1.2120299 3963330
-0.047706429 -0.090361804 1.2153943 4160708
-0.04128278 -0.093422443 1.2152463 4292035
0.077071115 -0.087392673 1.211737 4620236
0.082486793 -0.090131037 1.2102247 4488649
0.090853155 -0.090792604 1.2063775 4357318
-0.066537708 -0.080090389 1.2108091 4160449
-0.057831999 -0.080205068 1.2142555 4160708
-0.048507649 -0.080202356 1.21529 4489161
0.083583668 -0.080849119 1.210394 4555212
0.091743574 -0.079656757 1.2062118 4620489
-0.1585394 -0.071589381 1.2183739 14082013
-0.065178603 -0.07271076 1.210677 4226242
-0.057010923 -0.070374615 1.212912 4620234
-0.049849872 -0.068286702 1.2151792 5079759
-0.015810542 -0.067834914 1.2141861 6791922
-0.0076899473 -0.066658579 1.2139357 5608162
0.0027542068 -0.066638686 1.2136325 5016279
0.012836553 -0.068669267 1.2120011 5608413
0.021322906 -0.067183748 1.2131006 4950485
0.028284358 -0.066590056 1.2128912 5016277
0.086315319 -0.069962107 1.2112499 4752847
0.092122689 -0.070002511 1.2078451 4620747
-0.057748098 -0.06148662 1.211321 4948687
-0.047150891 -0.06441202 1.2150522 5408980
-0.025657397 -0.06126231 1.2124652 6134248
-0.017019115 -0.060777094 1.2116312 5344990
-0.0080769546 -0.060940143 1.2117312 4884696
0.0030894736 -0.060961246 1.2114916 4818902
0.013462733 -0.062233113 1.208264 4818646
0.022606079 -0.061123151 1.2086995 4818646
0.032740362 -0.060651217 1.2094357 4884696
0.042822815 -0.060137447 1.2091725 5344733
0.052059386 -0.060105275 1.2085468 5936870
0.061858814 -0.059530061 1.2109947 5608416
0.070971444 -0.058614865 1.2115526 5082072
0.083680615 -0.059402563 1.2081923 5016278
0.089967564 -0.06093128 1.2060281 4884178
-0.026310172 -0.054909818 1.2093258 5082331
0.0025823601 -0.054854784 1.2084869 4687574
0.025696391 -0.054810755 1.2078159 4687574
0.033619702 -0.054135025 1.2075775 4819159
0.040720508 -0.054782134 1.2073796 4950233
0.053433228 -0.054757919 1.2070105 5542369
0.062162284 -0.053456735 1.2067409 5805540
0.074998453 -0.051248532 1.2063408 5213659
0.082317904 -0.051234592 1.2061282 5147866
0.091182649 -0.053144541 1.2058951 5081557
0.003034451 -0.13902645 1.2185354 3633335
-0.024508651 -0.12849097 1.2192022 3699641
-0.016986575 -0.12892509 1.2189894 3765177
-0.0072254445 -0.12906069 1.2203557 3830714
0.0030975379 -0.12998195 1.2213014 3962299
0.013510396 -0.12742126 1.2187527 4028092
0.022316238 -0.12820126 1.2181259 3962300
0.031838156 -0.12781547 1.2182866 3962299
0.041434105 -0.12647633 1.2194871 3962299
0.053765949 -0.1254196 1.2168927 3896509
0.06354475 -0.1249351 1.2166029 3830714
-0.034269709 -0.11813338 1.2193552 3962813
-0.027657755 -0.11982839 1.2209634 3962813
-0.016641542 -0.1209954 1.2228818 4028350
-0.0073982961 -0.12310229 1.2226402 4093886
-0.00038983487 -0.12308895 1.2224367 4093886
0.013619144 -0.11955683 1.2219858 4291263
0.022963762 -0.11953902 1.2217145 4291265
