# .PCD v0.7 - Point Cloud Data file format
VERSION 0.7
FIELDS x y z rgba
SIZE 4 4 4 4
TYPE F F F U
COUNT 1 1 1 1
WIDTH 1126
HEIGHT 1
VIEWPOINT 0 0 0 1 0 0 0
POINTS 1126
DATA ascii
0.14556184 -0.12693244 1.1282822 3499947
-0.12744313 -0.10374416 1.1293951 3236770
-0.12539658 -0.10813823 1.1326636 3236770
0.14763713 -0.11649159 1.1287857 3500458
-0.12723269 -0.097267948 1.1294643 3237027
-0.12548639 -0.097729303 1.133445 3302821
0.15034904 -0.10603065 1.1293453 3632048
-0.126917 -0.087553635 1.129568 3302824
-0.1251872 -0.088522308 1.1335433 3302569
0.14891005 -0.0970897 1.1293511 3632047
-0.12705415 -0.078472942 1.1296685 3434408
-0.12416849 -0.076240577 1.1336693 3434665
0.1458748 -0.085935369 1.1291349 4026292
-0.12628566 -0.068124995 1.1297754 3631531
-0.12450084 -0.067400381 1.1337688 3631531
0.14622934 -0.077950127 1.1278455 4157366
-0.12607522 -0.061648782 1.1298445 4025255
-0.12274113 -0.056656096 1.1321573 3632304
0.14607212 -0.066145137 1.1275315 4289211
-0.11899512 -0.047775056 1.1316519 3568048
0.14327297 -0.055288259 1.1283404 4094399
0.14547168 -0.059763096 1.1296065 4224702
-0.11750492 -0.041757047 1.1299909 3764911
-0.11390546 -0.037583586 1.1325068 3895729
0.14099772 -0.046797656 1.1292402 4487616
-0.11810558 -0.023655422 1.1331943 6458567
-0.11330003 -0.027579263 1.1325114 3895996
0.14127713 -0.035752855 1.1283041 5735616
0.14823881 -0.032719679 1.1278794 9477559
-0.11757129 -0.020999297 1.1342191 6852289
-0.11432171 -0.021104597 1.1341909 5933254
0.055575099 0.075091936 1.1298304 9474701
-0.029014606 -0.22808096 1.1432168 7248329
0.0037565911 -0.23072666 1.1421152 5801654
0.011807436 -0.2298519 1.1415244 5210039
0.024586335 -0.23091352 1.14274 6328255
0.032248691 -0.2311618 1.1426735 7379645
0.043806992 -0.23141459 1.1425745 8430007
0.051778384 -0.22985581 1.1385249 8625323
-0.066702604 -0.21864481 1.1356329 9678537
-0.055828795 -0.21906863 1.1420647 4422071
-0.046505615 -0.22006306 1.1434501 2778029
-0.036806781 -0.22219315 1.1433461 2513574
-0.029284623 -0.2251502 1.1432512 2315684
0.00061134528 -0.22684941 1.1429839 2120102
0.012652193 -0.22723955 1.1428795 2185635
0.025823234 -0.22657058 1.1427772 2186146
0.031260774 -0.22784254 1.1427181 2316696
0.046656631 -0.22614989 1.1426085 4486314
0.054209206 -0.22597817 1.1405474 5997746
0.065455765 -0.22339073 1.1413394 6063288
0.074178711 -0.22222039 1.1424226 6589614
0.082271785 -0.22270179 1.1423501 8757678
-0.071749106 -0.20651188 1.1358076 1855898
-0.065085709 -0.20927231 1.1389604 2249885
-0.057447843 -0.21187407 1.1429034 2381985
-0.049385592 -0.21427184 1.1435374 3039902
0.068339676 -0.21644288 1.1425344 2841504
0.074377894 -0.21609068 1.142488 3302564
0.084001333 -0.21413165 1.141096 4420011
0.093789846 -0.21356851 1.1366394 6984117
0.10329446 -0.21109569 1.1343014 6254993
-0.082541563 -0.19564578 1.1368164 2710418
-0.074895598 -0.19919735 1.1402953 2775447
-0.068224594 -0.20167394 1.143032 2906776
0.086712241 -0.20633274 1.1420922 3171492
0.095240042 -0.2052048 1.1392334 3237285
0.10357692 -0.20421495 1.1349459 3629215
-0.085168622 -0.18865117 1.1409152 2775191
-0.077128634 -0.19243218 1.1433406 2906012
0.097508363 -0.19608504 1.1408478 3040421
0.10447521 -0.19459084 1.1374199 3105703
0.11034635 -0.19500227 1.134419 2777257
-0.10007398 -0.17403838 1.1363987 2710677
-0.093407735 -0.17817868 1.1398276 2709909
-0.087289967 -0.18201351 1.1422056 2709910
0.10592835 -0.18629286 1.141078 3368100
0.11353012 -0.1846564 1.1366392 3302561
-0.10106322 -0.16749212 1.13959 2710421
-0.096339218 -0.17054233 1.1436065 2644886
0.10824969 -0.17861779 1.1426165 3040936
0.11637183 -0.17575827 1.140493 3237031
0.12284341 -0.17303446 1.1375557 3368615
-0.11030824 -0.15412045 1.1367018 2776209
-0.10498519 -0.15882716 1.1413565 2841240
0.11869647 -0.16736569 1.1426528 3237287
0.12517923 -0.16529328 1.1374781 3302822
-0.11105458 -0.1474891 1.1413144 2710683
-0.10644496 -0.15096234 1.1440383 2841499
0.1277355 -0.15698214 1.1401027 3237541
0.13276157 -0.15438804 1.1362772 3237798
-0.11289933 -0.13887611 1.1420336 2907293
0.12972575 -0.14830393 1.1427697 3237797
0.13449813 -0.14586067 1.1377562 3303334
-0.11885746 -0.12693745 1.1382135 2907805
-0.11666246 -0.12871026 1.1442336 2907805
0.13666311 -0.1365905 1.1403955 3434407
-0.11904134 -0.11763607 1.1398408 3039392
-0.116418 -0.118961 1.1451384 3039391
0.13891566 -0.12708488 1.1403538 3500202
0.14311384 -0.12424759 1.1349208 3631274
-0.12187612 -0.10839219 1.1418324 3170979
0.14121781 -0.11690994 1.1425732 3631791
0.14457887 -0.116388 1.1367726 3566510
-0.12193409 -0.098048039 1.1431272 3105957
0.14074668 -0.10576224 1.1414769 3632305
0.1458973 -0.10696241 1.1354203 3501227
-0.12200879 -0.087990671 1.140952 3237546
0.14057671 -0.096671842 1.1406989 3698099
0.14513724 -0.097145475 1.1356008 3698094
-0.12106737 -0.078270853 1.1412886 3434923
0.14211817 -0.087449297 1.1413325 3895479
0.14424415 -0.089464113 1.1352923 3895477
-0.12034382 -0.067838602 1.1420159 3566256
0.14275508 -0.076176181 1.1427841 4027579
0.14523862 -0.075644925 1.1394355 4157882
-0.11906648 -0.05895777 1.1413462 3567024
0.14102194 -0.066572234 1.1423938 4159422
0.14530753 -0.066810712 1.1379316 4289724
-0.11645181 -0.049177393 1.1392351 3567791
-0.11324289 -0.047403432 1.1445618 3764403
0.1396267 -0.0564688 1.1410257 4356797
-0.11126288 -0.038462739 1.1385473 3830196
0.13726892 -0.046795096 1.1402178 4619718
-0.10941717 -0.02764082 1.1409883 3896507
0.13357058 -0.034782059 1.1408689 4817095
0.1380502 -0.035470322 1.1376016 4948420
-0.11671436 -0.018237986 1.1422429 6916535
-0.10924905 -0.019007131 1.1418648 5210049
0.13294962 -0.028390154 1.1430554 5013440
0.13740218 -0.028092183 1.1406881 5998788
0.03505183 0.048936866 1.1405729 5859448
0.043232113 0.048769049 1.1386458 6122362
0.048818111 0.048684649 1.1415986 6319482
0.059998654 0.04954692 1.1455154 5330522
0.035765208 0.053379335 1.1390916 5792108
0.043609597 0.053976439 1.1384996 5527648
0.048959896 0.053047813 1.1416452 5067354
-0.023247767 -0.22827235 1.1461669 4354997
-0.015909046 -0.22955945 1.148092 4684224
-0.0060195364 -0.22956973 1.1465428 4289976
0.005024041 -0.22761899 1.145939 2054307
0.01543225 -0.22850555 1.1458427 2777510
0.020883979 -0.22978079 1.1457833 4026798
0.037346143 -0.23031422 1.1456406 5604271
0.041240811 -0.22879252 1.1456249 4881326
-0.041882213 -0.21731019 1.1464419 3039902
-0.033962574 -0.21849045 1.1468632 2710943
-0.025537003 -0.22070335 1.1495736 2645152
-0.015729034 -0.22391659 1.1528194 2514339
-0.0057941675 -0.22412914 1.1522011 2514851
0.0041871611 -0.22192937 1.1506087 2842787
0.014062895 -0.22180197 1.1483277 2908579
0.02374607 -0.22172582 1.148737 3039651
0.033921313 -0.22277078 1.149752 2908578
0.043292753 -0.22219947 1.1494304 2778020
0.053354081 -0.22083843 1.1470399 2646433
0.062825888 -0.2238158 1.1454997 5012145
0.074307799 -0.22546953 1.1453861 8955830
-0.054630786 -0.2084769 1.1469305 2841242
-0.044843309 -0.2108897 1.1488705 2775960
-0.035864796 -0.21247713 1.1507119 2841500
-0.02650151 -0.21499358 1.1543401 2907551
0.0052017523 -0.21528338 1.1540732 3105184
0.014422828 -0.21521345 1.1539973 3170722
0.024368662 -0.2155357 1.1539111 3302053
0.034516633 -0.21531144 1.1538291 3170723
0.045044944 -0.21473071 1.1537479 3105188
0.054383583 -0.21422112 1.1519613 3170467
0.063959822 -0.2142802 1.147995 3236258
0.074195519 -0.21114713 1.1459883 3171236
-0.070872195 -0.19659588 1.1469098 2906776
-0.064408116 -0.19905491 1.1479721 2907033
-0.055963919 -0.20035347 1.1515785 2841497
-0.046818696 -0.20474792 1.1546212 2775704
0.055562623 -0.20880285 1.1537253 3105443
0.06440337 -0.20908931 1.1536486 3105443
0.075302675 -0.2057094 1.1523317 3105956
0.083728626 -0.20307237 1.1487533 3105956
-0.081490353 -0.18526572 1.1471221 2644884
-0.074515745 -0.18909383 1.1500226 2775705
-0.066220127 -0.19226499 1.1525857 2841497
0.079128683 -0.19850415 1.1536421 3172006
0.086851507 -0.19636038 1.1526011 3040421
0.092767082 -0.19417435 1.1500757 2974628
-0.089984879 -0.1762016 1.147292 2645144
-0.083377585 -0.17821747 1.1502742 2710425
-0.078152992 -0.1811257 1.1517117 2776216
0.096515536 -0.18565455 1.1503878 3171493
0.10153819 -0.183552 1.1472187 3237026
-0.092740156 -0.16811863 1.149992 2710424
-0.086412936 -0.17057636 1.15387 2710937
0.099666722 -0.17925748 1.1536819 3302823
0.1061011 -0.17534503 1.1505129 3172005
0.11198893 -0.17238463 1.1496543 3172006
-0.10106127 -0.15643394 1.1476005 2841498
-0.096709594 -0.15914924 1.1524582 2907290
0.10886656 -0.16849327 1.1537231 3303592
0.11521026 -0.16530076 1.1523719 3237544
0.12144414 -0.16108035 1.1456989 3303337
-0.10253657 -0.14794289 1.1494203 2973342
-0.097997174 -0.15128104 1.1556323 3038879
0.11909775 -0.15766641 1.1530899 3237544
0.12351701 -0.15473039 1.1485515 3303336
-0.11018885 -0.13612869 1.1488988 2973342
-0.10419201 -0.13953719 1.1533121 2973600
0.12723091 -0.14573364 1.1498191 3368872
-0.11149972 -0.12823395 1.1503493 3039392
-0.10605363 -0.12929046 1.1559401 3236259
0.12885231 -0.1363602 1.1516584 3500460
0.13331047 -0.13399963 1.1458967 3434923
-0.11228164 -0.11856683 1.1509976 3170978
0.13019119 -0.12748003 1.1526613 3500719
0.13493679 -0.12509657 1.1493143 3500718
-0.11850318 -0.10716376 1.148285 3237029
-0.11468714 -0.10872259 1.1542368 3237286
0.13558516 -0.11628601 1.1521775 3697329
-0.11821789 -0.098384134 1.1483787 3237543
-0.11558376 -0.098114118 1.1558605 3172263
0.1370945 -0.1072138 1.1517589 3697843
-0.11818264 -0.088775657 1.151484 3303340
-0.11603217 -0.087825835 1.1564769 3303852
0.13721144 -0.096771166 1.1522723 3764149
-0.11795369 -0.078983933 1.1485889 3500716
-0.11512671 -0.077793732 1.1565791 3501229
0.14047831 -0.086420082 1.1509297 3764661
-0.11732632 -0.070947796 1.1486716 3566512
-0.11400944 -0.067678183 1.1530439 3632306
0.13782901 -0.076119833 1.1509637 3896764
-0.11309558 -0.058082514 1.1531414 3698357
0.13219178 -0.065915391 1.1533185 4291265
0.13593955 -0.067147203 1.1477495 4225217
-0.1111959 -0.049128119 1.1528599 3764408
0.1332802 -0.056335881 1.1527476 4554434
0.1358425 -0.056080438 1.1467285 4488640
-0.10788726 -0.038526516 1.1537485 3895997
-0.10363789 -0.035497069 1.1569467 4027323
0.13323113 -0.045520701 1.1518663 4817354
-0.10606419 -0.029010125 1.1503705 3962044
-0.10200201 -0.027998574 1.1562151 4093118
0.12433439 -0.032927968 1.1550784 5014224
0.12960325 -0.035789512 1.151003 4751563
-0.10463977 -0.018625647 1.1491389 4290235
-0.099718869 -0.018705241 1.1536309 4158908
-0.093437985 -0.016652897 1.157068 4028609
0.12288521 -0.025820307 1.1533904 4817874
0.12953144 -0.025694862 1.1481137 5145287
-0.097137921 -0.012114987 1.151548 4487616
-0.091638535 -0.0096743181 1.1557961 4356800
0.11444061 -0.013023548 1.1533785 5276623
0.12064994 -0.016198464 1.1495774 5604813
0.1299976 -0.017704353 1.1480862 6720449
-0.089299485 -0.0027747303 1.1571856 5671109
0.11277496 -0.0074167699 1.1548824 5802961
0.11907992 -0.008346647 1.1507242 6787017
0.037255637 0.010824226 1.1562817 12972031
-0.017661318 0.022543006 1.1548667 5869264
0.014620546 0.017826311 1.1565466 7515376
0.022098647 0.017215237 1.1564778 8764660
0.031686313 0.016462095 1.1563897 10146554
0.038283356 0.015215844 1.1563213 10870005
-0.075137071 0.032785408 1.1494563 8028800
-0.070003629 0.032985263 1.1494157 7305855
-0.013219526 0.023522079 1.1568406 5671370
-0.0099042505 0.023414649 1.1568118 5869265
0.013302698 0.022662684 1.1566106 6988787
0.017723069 0.022519447 1.1565722 7185904
0.10420759 0.028566949 1.1559191 6314850
-0.068621747 0.037945248 1.1494585 8028802
0.10122824 0.032203443 1.1559836 6117979
0.07755769 0.043584354 1.1483043 5593178
0.079752646 0.043513231 1.1482853 5658970
-0.0210924 -0.21817866 1.1582607 2973083
-0.015583932 -0.21946719 1.1582009 2973595
-0.0061406624 -0.2193498 1.1587902 2973598
-0.04069227 -0.20644316 1.1585522 2842012
-0.034361131 -0.20803586 1.1584821 2776219
-0.025092945 -0.2108341 1.1598983 2907806
-0.015534436 -0.21254121 1.1614344 2907807
-0.0049980544 -0.21342534 1.1615125 2973599
0.0039313827 -0.21134576 1.158794 3039136
0.014706855 -0.21071142 1.1593782 3170723
0.024678309 -0.210908 1.1586263 3236770
0.034481365 -0.21075755 1.1578797 3170979
0.043530092 -0.21083727 1.1578035 3170980
0.050237544 -0.20938954 1.1577636 3171236
-0.051492997 -0.19721282 1.1587431 2842012
-0.044849075 -0.19971031 1.1601151 2842011
-0.035305128 -0.20229031 1.1610146 2842012
-0.027055912 -0.20402423 1.1624656 2907805
0.019354427 -0.20692036 1.1620479 3302309
0.025391353 -0.20594651 1.1608653 3302308
0.034032844 -0.20609085 1.1594347 3171236
0.044765115 -0.20699213 1.1578354 3171236
0.055443797 -0.20598182 1.1594244 3105443
0.065317921 -0.20437093 1.1586932 3171492
0.071916506 -0.20269172 1.1576566 3040420
-0.072201774 -0.18544137 1.1590443 2841497
-0.063515246 -0.18847904 1.1594721 2907291
-0.055156313 -0.19141631 1.1607195 2907549
-0.048505954 -0.19284037 1.1627665 2907551
0.068675131 -0.19737995 1.1617421 3040420
0.075732082 -0.19574602 1.1598064 3106213
0.083615907 -0.19337644 1.1576612 3106214
-0.073477186 -0.17893156 1.1611263 2907290
-0.066974781 -0.18203904 1.1625383 2973340
0.080091454 -0.18883905 1.1617405 3302823
0.086191274 -0.186625 1.1593139 3237030
0.092440054 -0.18342099 1.1594747 3237031
-0.090404473 -0.16487077 1.1594208 2841497
-0.082120433 -0.16862628 1.1598442 2842012
-0.076055929 -0.17108636 1.1622337 2907547
0.097865075 -0.17589948 1.1586572 3368361
0.10304457 -0.17280416 1.1577249 3237285
-0.091690823 -0.15890887 1.1594968 2973085
-0.084898263 -0.15938312 1.1621722 3039135
0.10039843 -0.16883327 1.1577903 3368615
0.10703365 -0.1657241 1.1584965 3237799
0.11170363 -0.16253933 1.1577652 3303337
-0.098663107 -0.14573245 1.159699 2973857
-0.093338758 -0.14945327 1.1611696 3039137
-0.087417088 -0.15055257 1.163553 3104930
0.10927583 -0.15830673 1.1598319 3172264
0.11557812 -0.15560478 1.1584755 3238059
-0.099579155 -0.13750722 1.1607968 3039650
-0.095692068 -0.1412622 1.1637236 3105700
0.11914397 -0.14598794 1.1600385 3369132
0.12333313 -0.14626552 1.1578466 3434410
-0.10204989 -0.12886757 1.1616262 3171236
0.12130714 -0.1379431 1.1611547 3500719
0.12474244 -0.13573639 1.1599503 3435183
-0.10881524 -0.11654235 1.160103 3302823
-0.10420866 -0.11870064 1.1627079 3171495
0.12583041 -0.12566742 1.1598697 3566514
-0.11026854 -0.10787135 1.1616646 3368873
-0.1066149 -0.10918547 1.1633655 3368875
0.12883469 -0.11655638 1.1589261 3697588
-0.1108676 -0.098794296 1.1629813 3303850
0.13073514 -0.10704172 1.1616433 3763892
0.1339523 -0.10642606 1.1581943 3698099
-0.11188798 -0.088539325 1.1620352 3435181
-0.1060316 -0.089244336 1.164379 3435438
0.1320878 -0.096960112 1.1623138 3829942
0.13492706 -0.096472517 1.1594381 3764149
-0.11053499 -0.078909449 1.1625293 3501229
0.13252169 -0.08360792 1.1624564 3896505
0.13680348 -0.086607315 1.160206 3830455
-0.10962065 -0.069068357 1.1621679 3632563
-0.1052723 -0.065878004 1.1646284 3567542
0.13037479 -0.076348916 1.1599821 4027837
0.13547525 -0.080056384 1.1584704 3896505
-0.10853709 -0.059037849 1.1620636 3829940
-0.10505536 -0.059201896 1.1646997 3699127
0.12919654 -0.066705711 1.1613356 4291009
-0.10779381 -0.048910249 1.1616349 3895737
-0.10406312 -0.048254631 1.1648113 4027576
0.12981305 -0.056674827 1.1607735 4422849
-0.10640099 -0.042247709 1.1608962 4158911
-0.10177892 -0.038717862 1.1628965 4093372
0.1300692 -0.046928704 1.1603781 4817355
-0.097731091 -0.02944047 1.1625028 4093630
-0.092843562 -0.026181974 1.1649595 4094397
0.12297555 -0.03595357 1.1612794 5080014
0.12736481 -0.039277013 1.1589842 4883149
-0.09537863 -0.021884054 1.1610274 4028348
-0.090779737 -0.019490436 1.1625154 4028864
0.11879528 -0.026165046 1.1609769 4949202
-0.086904734 -0.010022007 1.1629051 4029123
-0.082597479 -0.0079497471 1.1650739 3963586
0.1130412 -0.016118489 1.1620238 5146069
0.11631593 -0.020603284 1.1592805 5080276
-0.085858822 -0.0022117496 1.1611636 5342665
-0.078637213 -0.00033820421 1.1651243 4882633
-0.015090501 0.0013726577 1.1646144 6070261
-0.0084142555 0.0011563301 1.1645565 6528744
-0.0017380081 0.0009400025 1.1644987 8827627
0.013839895 0.00043523312 1.1643635 10340848
0.022561938 -0.00048387796 1.1642809 8895736
0.030042036 -0.0014263839 1.1642084 6266608
0.10440969 -0.0030457526 1.162572 5475287
0.10876112 -0.0066885427 1.1608291 5475028
-0.074987888 0.0055587739 1.1631583 5999306
-0.068294644 0.006451942 1.1631124 5540557
-0.059628136 0.0095147118 1.1624072 5803727
-0.046838555 0.010817185 1.164982 4950220
-0.03791723 0.0094030201 1.1648922 5016280
-0.028219983 0.0084816739 1.1644014 5411294
-0.018193103 0.0081628561 1.1624744 5806569
-0.0081955977 0.0078342035 1.1640278 7120874
0.0014172737 0.0082634613 1.1645526 12379901
0.011968333 0.0074240193 1.1619291 13891069
0.021765508 0.0068749785 1.1611679 12969723
0.031730451 0.0067798048 1.1619682 9946095
0.041792899 0.0062177703 1.1622812 10013177
0.051583406 0.0077845752 1.161976 7449069
0.058314767 0.0093900859 1.1640916 5411552
0.10161421 0.00095171481 1.1611389 6526426
-0.044699714 0.015698344 1.1650176 6264275
-0.037103683 0.016282849 1.1624606 5803990
-0.027523383 0.016618811 1.1608844 5345755
-0.017480562 0.017555788 1.1608112 5412839
-0.0078717433 0.017832473 1.1612343 5676266
0.0011508875 0.016593173 1.1635031 7253489
0.010956946 0.016113676 1.1615589 8436213
0.02085055 0.013571292 1.1604487 12051453
0.035410382 0.01753968 1.1603711 10082302
0.043222591 0.016546525 1.1602951 10607102
0.051675584 0.015426874 1.1602126 7515119
0.058701701 0.014570966 1.1614783 6068200
-0.0054747853 0.023304649 1.1607742 6001365
-0.0010391865 0.02316092 1.1607357 6396124
0.11159067 0.025283612 1.1598221 6447199
-0.011886531 -0.208895 1.1662866 3039391
-0.0043161418 -0.20858392 1.1677271 3039135
0.0070942231 -0.20951003 1.166122 3104930
-0.040553115 -0.19678947 1.1666576 2776478
-0.034192242 -0.19791308 1.1685925 2842271
-0.024329551 -0.1998962 1.1706707 2907807
-0.015163286 -0.20205896 1.1710848 2908063
-0.0051681101 -0.20324481 1.172093 2973600
0.0051756389 -0.20259205 1.1715474 3105187
0.015102649 -0.20255254 1.1705457 3236773
0.024840675 -0.20152077 1.1697954 3237029
0.035780393 -0.20196164 1.1697663 3171237
0.045377187 -0.20319824 1.1673727 3171236
0.054938745 -0.20194155 1.1667299 3105444
0.063822895 -0.2007304 1.1657462 3171493
-0.052426226 -0.18756428 1.1700575 2841758
-0.044398855 -0.19014145 1.1707627 2907551
-0.035505511 -0.19156694 1.1734968 2842271
-0.024853829 -0.19311395 1.1745679 2908064
-0.01814558 -0.19445662 1.1744975 2973857
0.003212885 -0.19514871 1.1743122 3105444
0.016110394 -0.19456635 1.1742113 3237030
0.026135359 -0.19529864 1.1733198 3302823
0.035816513 -0.19482923 1.1731213 3171495
0.045215633 -0.19371873 1.172587 3105703
0.054910544 -0.19428942 1.1722914 3105703
0.064713001 -0.19408825 1.1703118 3105702
0.073101014 -0.19182467 1.1674809 3105958
-0.06346263 -0.17948821 1.1686846 2973598
-0.055490993 -0.1815148 1.1729496 2907551
-0.045648172 -0.18371919 1.1748438 2908065
0.06679447 -0.18578292 1.1738858 3237288
0.075613223 -0.18532851 1.1713728 3302823
0.084314346 -0.18353477 1.1683356 3237287
-0.072486401 -0.16793478 1.1700964 3105183
-0.065109596 -0.17158455 1.1732559 2974112
-0.056869142 -0.17407197 1.1750426 2842786
0.077344641 -0.17864594 1.1738762 3171750
0.086076222 -0.17530276 1.1725067 3172008
0.094159469 -0.17376202 1.1681225 3303081
-0.08031106 -0.15797043 1.1680799 3104930
-0.074113071 -0.16055769 1.1740006 3170978
0.088845715 -0.16705841 1.1739074 3303337
0.096650518 -0.1657667 1.1716063 3368873
0.10360458 -0.16465062 1.1683558 3237543
-0.089707866 -0.14489307 1.1703013 3040164
-0.083100952 -0.14887789 1.1713257 3105701
-0.076832861 -0.15354498 1.1754334 3302822
0.098534383 -0.15682679 1.1739388 3303597
0.10597643 -0.15459266 1.1695373 3238059
0.11313201 -0.15174726 1.1678723 3303852
-0.091933325 -0.13849503 1.1715012 3106213
-0.084203221 -0.14083421 1.1756339 3172007
0.10720525 -0.1456029 1.1737895 3369387
0.11511581 -0.14557911 1.1699235 3435181
-0.098770894 -0.1280047 1.1692282 3237030
-0.09218695 -0.12893842 1.173497 3237800
-0.085905619 -0.13262071 1.175738 3303594
0.10922138 -0.13961858 1.1740383 3500972
0.11773835 -0.1355793 1.1707613 3500976
0.12247445 -0.13277677 1.1660022 3500977
-0.09959428 -0.1187351 1.1711144 3237545
-0.094954029 -0.12059434 1.1750559 3303852
0.11986159 -0.12615982 1.1740971 3566772
0.12313823 -0.12655422 1.170065 3566515
-0.10178877 -0.10895108 1.1713787 3369389
0.12102769 -0.11665945 1.1741914 3763639
0.12437929 -0.11577969 1.1692837 3763639
-0.10813647 -0.094880797 1.1696687 3435181
-0.10285971 -0.098775692 1.1728206 3435438
0.12203011 -0.1055998 1.1743041 3895737
0.12697303 -0.10558458 1.1690862 3764149
-0.10741721 -0.088435754 1.1708 3435438
-0.10203525 -0.089285284 1.1748079 3501231
0.12221275 -0.099979274 1.1743641 3961530
0.12767509 -0.096118525 1.169184 3961528
0.13494574 -0.092944913 1.1663344 3895735
-0.10683049 -0.079205133 1.1714962 3501489
-0.10253368 -0.079152927 1.1743437 3501490
0.12279721 -0.081993602 1.1745561 4159679
0.12831405 -0.086800538 1.1697298 3962041
0.13501829 -0.090711944 1.1663582 3895735
-0.10706916 -0.071841858 1.1705787 3501747
-0.10213736 -0.068838485 1.1732374 3567541
0.12225478 -0.075599387 1.1746306 4225473
0.12589677 -0.076177157 1.1705936 4159424
-0.10004339 -0.05873825 1.1722639 3764919
0.12229314 -0.066723362 1.1747274 4422597
0.1262244 -0.066094473 1.1707013 4357059
-0.099235065 -0.04898544 1.1721925 3896505
-0.09444382 -0.049072713 1.1767235 3962298
0.12251323 -0.056102771 1.1748419 4685767
0.12655205 -0.0560118 1.1708089 4422851
-0.09749347 -0.039892022 1.1704488 4027836
-0.09238068 -0.038349111 1.1757327 4028094
0.12096571 -0.045431282 1.1728537 4948684
0.12675926 -0.047463927 1.1679004 4751818
-0.095547885 -0.031828284 1.1689208 4093632
-0.089818656 -0.0286249 1.1747549 4094399
0.11457677 -0.034840226 1.1751407 5080784
0.11881264 -0.035993904 1.1702924 5211343
-0.086310081 -0.020276166 1.1733344 4094402
-0.079663843 -0.017454356 1.1759466 4226244
-0.073113628 -0.016005225 1.1769081 4620744
-0.019118868 -0.016629532 1.1764522 5412064
0.0033637267 -0.017358027 1.1762571 6463211
0.011306383 -0.021454632 1.1761463 6397929
0.021009326 -0.021127991 1.1760691 6397929
0.030301092 -0.01951693 1.1760094 6003432
0.11185491 -0.025441907 1.172766 5081042
0.11691647 -0.028653778 1.1671882 5081041
-0.078093633 -0.0096347556 1.1708853 4160963
-0.069946997 -0.0090183616 1.176101 4752075
-0.054798797 -0.00647109 1.1768601 4949201
-0.048072278 -0.0072516948 1.1767956 5016022
-0.038538143 -0.0086737126 1.176034 5213659
-0.028746992 -0.0098895207 1.1753751 5411552
-0.018928211 -0.010994621 1.1757121 5740773
-0.0088190641 -0.011336841 1.1764244 6003172
0.0012937384 -0.011657208 1.1759367 6331366
0.011365552 -0.01193025 1.1732496 6989552
0.02146516 -0.012265973 1.173562 6792432
0.031540804 -0.012577981 1.1728247 5937640
0.04007256 -0.011963144 1.1750107 5806054
0.050832871 -0.01101917 1.1759317 5674725
0.057614181 -0.010113604 1.1758852 5674983
0.10334028 -0.014127173 1.1754609 5146841
0.10924059 -0.016320378 1.169673 5080789
-0.074434757 -0.0012177676 1.1690801 4554184
-0.070937999 -0.00053628534 1.1720588 4751049
-0.055659816 -0.00079538673 1.1749291 4818129
-0.048227731 -0.0010253862 1.1740648 5015507
-0.038720362 -0.001283437 1.1705825 5147609
-0.028628703 -0.0015920922 1.1691951 5346018
-0.018983979 -0.0023149326 1.1717182 5937898
-0.0085629318 -0.0034017786 1.171842 6462952
0.0019045901 -0.0029833913 1.1708705 8303605
0.011261676 -0.003378801 1.1697724 8501495
0.021075184 -0.0046665594 1.1688634 7252467
0.032402575 -0.0044995695 1.1696103 6069484
0.041588426 -0.0037182719 1.1704037 6135528
0.0517084 -0.0044631511 1.1734077 5741031
0.061112374 -0.0045888796 1.1749164 5543655
0.070636757 -0.0036107153 1.175848 5477092
0.080739364 -0.0026108101 1.1757749 5739747
0.092097431 -0.0032289252 1.1756737 5280481
0.10119684 -0.006110847 1.1718738 5015513
0.10659959 -0.0082342774 1.1694976 4949463
-0.067517981 0.0052641109 1.1690936 4818122
-0.058057375 0.0059510171 1.1690224 5147606
-0.049349189 0.0064139515 1.1689551 4818639
-0.040721629 0.0043958277 1.1688612 5344472
0.0039571151 0.0035069287 1.1684798 12971007
0.0084050354 0.0028039664 1.1684351 12905215
0.032968361 0.0020080432 1.1682221 5807584
0.046366539 0.0015739053 1.1681058 6004710
0.052458718 0.0023345053 1.1680635 5807083
0.061343953 0.0045009404 1.1701468 5477863
0.069850229 0.0037626401 1.1726016 5542628
0.08158619 0.00036251545 1.1758004 5673698
0.092200436 0.0019943193 1.1742299 5804766
0.097726226 -9.0301037e-005 1.1676605 5147865
0.064593583 0.012159944 1.1680702 5412324
-0.011485212 -0.19763649 1.1784075 3039650
-0.0050607994 -0.19848984 1.1783447 3039650
-0.031531513 -0.18908325 1.1786679 2842271
-0.024763893 -0.18930255 1.1786093 2973857
-0.014469318 -0.19074157 1.1797711 2973857
-0.004769044 -0.19282305 1.1809309 3039395
0.0059415358 -0.1912266 1.1801107 3171237
0.015282925 -0.19010282 1.1793342 3237030
0.025644716 -0.18989289 1.1797221 3302569
0.033972882 -0.19030181 1.1794431 3237546
-0.050849505 -0.17797279 1.1789502 2908065
-0.043307628 -0.17918497 1.1788743 2973857
-0.034679346 -0.1812399 1.17978 2973857
-0.024990752 -0.18346784 1.1807928 2973858
-0.016713969 -0.18458563 1.1825942 3105444
0.014974873 -0.18561244 1.1823194 3237030
0.026718598 -0.18448241 1.182234 3302825
0.03565757 -0.18431342 1.1818539 3171754
0.045478553 -0.18513215 1.1800708 3171752
0.055825353 -0.18503746 1.1793975 3171753
0.064356275 -0.18219027 1.1789459 3237546
0.072641864 -0.18003868 1.1779004 3303592
-0.061714269 -0.1681578 1.1791481 2908579
-0.053578906 -0.1706138 1.1810536 2908579
-0.043789849 -0.17241135 1.1818618 3105444
-0.035192009 -0.17447042 1.1828587 3105443
0.059407108 -0.17798889 1.1820333 3303339
0.067498833 -0.1759623 1.1806546 3303082
0.075942017 -0.17410398 1.1785094 3237545
0.081958592 -0.17130777 1.1779184 3303850
-0.070371248 -0.15658629 1.1793467 3302822
-0.063883573 -0.16112813 1.1814933 3040165
-0.056868352 -0.16515791 1.1831409 3040167
0.071018755 -0.16930184 1.1820318 3303598
0.077200018 -0.16549504 1.1810808 3238061
0.085810758 -0.16368981 1.1790811 3303596
0.093567826 -0.16152205 1.177929 3369131
-0.079804607 -0.14574236 1.1795439 3171751
-0.073488817 -0.14959694 1.180861 3368615
-0.066686295 -0.15351069 1.1833501 3171751
0.095607571 -0.15502584 1.1794833 3369134
-0.081549421 -0.13862894 1.1796362 3369130
-0.075472601 -0.14081888 1.182562 3434922
0.097059637 -0.14541934 1.1811241 3435183
-0.082983434 -0.12999408 1.1810762 3434923
0.10004206 -0.13841926 1.1813283 3501232
0.1068955 -0.13550083 1.1806915 3435694
0.11365907 -0.13394557 1.1780638 3501232
-0.090842366 -0.11858681 1.180933 3369646
-0.085235067 -0.12254217 1.1825099 3435182
0.11093233 -0.12641165 1.1821693 3567282
0.11503471 -0.12598641 1.1799577 3567027
-0.09882465 -0.10560757 1.1801414 3501231
-0.094347008 -0.10971457 1.1828095 3435439
0.11118977 -0.11848962 1.1822538 3829686
0.11636801 -0.11582431 1.180462 3829431
-0.098714694 -0.10222384 1.1801776 3501231
-0.0942114 -0.09914571 1.1818407 3567024
0.11898255 -0.10652917 1.1809865 3830201
-0.098256543 -0.088124938 1.1803281 3632818
-0.095035605 -0.088971466 1.1822922 3698612
0.12143807 -0.09598586 1.1804148 3896507
-0.097945005 -0.078537688 1.1804304 3633333
-0.094085291 -0.078888543 1.1831948 3764919
0.12160108 -0.085772455 1.1800252 4093886
-0.098110296 -0.06972535 1.1805283 3633334
-0.094017722 -0.068958163 1.1837029 3830201
0.11891758 -0.076063842 1.180876 4291523
-0.093272768 -0.058658924 1.182276 3896506
0.11876354 -0.065562651 1.18037 4619975
-0.089683808 -0.049220163 1.1823971 4028348
0.11328598 -0.053981625 1.1829425 5146320
0.11763162 -0.056333747 1.1818806 4883148
-0.087673061 -0.039850421 1.1810542 3962814
-0.082629651 -0.038681619 1.1835967 3963072
0.1125686 -0.045110855 1.1815455 5146577
0.1162605 -0.046832275 1.1794958 5080527
-0.086006604 -0.030824885 1.1808535 4028607
-0.079756804 -0.029302552 1.1829516 4291526
-0.029783588 -0.028953344 1.1844065 5147865
-0.022306718 -0.028969042 1.1843442 5344731
-0.0059801787 -0.028591737 1.1842126 5345501
0.00081028696 -0.028811768 1.1841537 5739743
0.010900995 -0.031357288 1.1827084 5936862
0.019953648 -0.031662442 1.1829631 5871068
0.030198865 -0.030896947 1.1838864 5739228
0.048343554 -0.030351989 1.1837415 5213656
0.11098086 -0.036172222 1.1815566 4949970
-0.077755928 -0.021890067 1.1808826 4422856
-0.069158383 -0.017423347 1.1826783 4686797
-0.058755942 -0.016633607 1.1827823 4884690
-0.048399586 -0.018424213 1.1841767 4950486
-0.03798148 -0.019512303 1.1832447 5213659
-0.029470153 -0.020940274 1.1812915 5279707
-0.019348521 -0.022410378 1.1815912 5345244
-0.0091366898 -0.021107256 1.1814317 5411808
0.00067942217 -0.0225375 1.1811322 5806052
0.0099014705 -0.025953621 1.180109 6068964
0.02192058 -0.026719444 1.1800007 6068963
0.032037005 -0.02467525 1.1808619 6003173
0.040552191 -0.023241214 1.1816839 5608417
0.050751638 -0.023587421 1.1821953 5411038
0.05761816 -0.023855045 1.1837354 5279709
0.10233472 -0.023536541 1.1824437 5212630
0.10784654 -0.027288958 1.180613 5015248
-0.065291576 -0.011849783 1.1808889 4949712
-0.058523953 -0.012069076 1.1808301 4949713
-0.048372522 -0.012398012 1.1807421 5016279
-0.038985264 -0.013078555 1.1806566 5213659
-0.030362178 -0.014110692 1.1805736 5345501
0.042408086 -0.015904121 1.1799486 5871590
0.050885946 -0.015614279 1.1798812 5871847
0.061226591 -0.013737001 1.181816 5543139
0.06854713 -0.01284761 1.1820506 5280225
0.09307 -0.013674684 1.1835519 5411294
0.098861344 -0.015249334 1.1809409 5279196
0.070899732 -0.0077945441 1.1798004 5411556
0.080542192 -0.0064133331 1.1797353 5412066
0.091821559 -0.0067788213 1.1796374 5477344
0.098515868 -0.0092539415 1.1795547 5213404
-0.0035808682 -0.18833129 1.1864444 3105189
-0.023657195 -0.17922184 1.1877112 3039906
-0.014027353 -0.18167397 1.1880329 3039908
-0.0045199431 -0.18316397 1.1898425 3105447
0.0060871458 -0.18270296 1.1871756 3105702
0.015200177 -0.18174061 1.1863604 3171750
0.024194779 -0.18161871 1.1862869 3237289
0.035713907 -0.18013188 1.1862073 3237548
0.045933876 -0.18046303 1.1861187 3171752
0.055018295 -0.1807574 1.1860399 3171752
-0.050929882 -0.16686651 1.1870732 3039909
-0.043101002 -0.16786128 1.1878862 3105701
-0.035021387 -0.17079183 1.1894436 3105443
-0.025590464 -0.17650926 1.1907573 3040163
0.0052018547 -0.17659459 1.1905001 3105960
0.016631648 -0.17584975 1.1904132 3105958
0.02576687 -0.17462507 1.1895506 3237545
0.036184713 -0.17388946 1.1883771 3237547
0.046228215 -0.17389646 1.1877882 3237544
0.056294922 -0.1739962 1.1877877 3237545
0.064998806 -0.17227823 1.1867164 3303339
-0.061865583 -0.15707737 1.1872714 3172009
-0.053530373 -0.16053885 1.1895643 3105961
-0.044258218 -0.16307336 1.1910596 3171752
0.039723244 -0.16722028 1.1903156 3303337
0.046559401 -0.16744179 1.1902564 3303593
0.056682598 -0.16679221 1.1901792 3303594
0.065959565 -0.16446348 1.1888775 3303596
0.072804183 -0.16314614 1.1860847 3238062
-0.068969928 -0.14832175 1.1874263 3434409
-0.063265294 -0.15030055 1.190181 3237547
-0.054997951 -0.15295307 1.1912597 3237805
0.067168452 -0.15721115 1.1901969 3238318
0.076546311 -0.15456873 1.1890278 3238572
0.086657986 -0.15466388 1.1872624 3434926
0.093164749 -0.15425743 1.1860126 3369134
-0.071005978 -0.13923253 1.1887736 3435179
-0.065111585 -0.14145976 1.1910251 3369388
0.081406601 -0.14804134 1.1901789 3500977
0.087131955 -0.14467546 1.189168 3435186
0.092561334 -0.14484097 1.1861207 3500720
-0.079169951 -0.12821791 1.1887313 3566511
-0.073550284 -0.13129821 1.1903176 3566767
-0.066413902 -0.13412723 1.1915607 3500977
0.088847235 -0.13709973 1.1897367 3501234
0.096788406 -0.13488474 1.1869447 3501490
-0.088339768 -0.11472917 1.1879551 3566770
-0.081710309 -0.11955731 1.1904473 3632306
-0.075232595 -0.12471721 1.1917372 3632563
0.098885879 -0.12630402 1.1888596 3699127
0.10634979 -0.1252355 1.1866913 3633076
-0.089357845 -0.10911568 1.1890252 3566770
-0.083360262 -0.11024106 1.1919632 3763892
0.1000848 -0.11728189 1.1903602 3633335
0.1068093 -0.11527823 1.1878816 3764407
-0.089147232 -0.099056609 1.1909337 3698868
-0.084815383 -0.09982188 1.1920893 3699126
0.10104324 -0.10533735 1.190483 3962811
0.10756681 -0.10562474 1.1892588 3830969
0.1152573 -0.10606177 1.1863565 3830714
-0.090012453 -0.089047775 1.1891733 3699126
-0.084743589 -0.08981286 1.1921983 3830712
0.10859299 -0.095718972 1.1899254 4028606
0.11671969 -0.096041046 1.1864541 3962300
-0.089118823 -0.079593912 1.1899464 3830970
-0.08418984 -0.07945738 1.1923071 3962813
0.10916375 -0.086681046 1.1906197 4291522
0.11702444 -0.086484037 1.1869198 4094399
-0.08909221 -0.069522217 1.1901706 3962044
-0.084208593 -0.070006639 1.1924107 4093630
0.11109362 -0.075991049 1.1904539 4554438
0.1158817 -0.076852001 1.186671 4357059
-0.088145725 -0.059500355 1.1898916 4093886
-0.083523415 -0.058949362 1.192526 4291009
0.10959931 -0.0653864 1.1899601 4686026
0.11559653 -0.065637931 1.1867962 4685769
-0.08631029 -0.052275214 1.1886219 4159935
-0.08120726 -0.050001338 1.1914618 4225985
0.10267226 -0.05520666 1.1910182 5015248
0.10869268 -0.056648262 1.1882855 5014991
-0.077880099 -0.040278345 1.1908009 4292037
-0.072566919 -0.042685192 1.1926129 4619977
-0.049557596 -0.036587562 1.1924883 5279449
-0.041582085 -0.036845993 1.1924191 5016538
-0.029086161 -0.03839143 1.1922982 4950743
-0.019623592 -0.040375307 1.1921978 4950488
-0.01052599 -0.040513553 1.1921207 5147351
-5.1009469e-005 -0.039902527 1.1920402 5278422
0.010429535 -0.042548276 1.191035 5212886
0.019790541 -0.04217945 1.1901001 5278423
0.029789386 -0.041671008 1.1905226 5147094
0.0406821 -0.042444397 1.1916735 4885460
0.050206758 -0.041240495 1.1908802 4950741
0.059335522 -0.041028455 1.1915339 5016279
0.10149157 -0.045295332 1.1897364 5212370
0.1088243 -0.046662573 1.1870602 5212369
-0.075574018 -0.033381157 1.1907396 4423370
-0.073401421 -0.030250743 1.1903558 4554187
-0.048930302 -0.031580091 1.1922712 5147610
-0.039067999 -0.031151518 1.1904603 5081818
-0.030040801 -0.033719845 1.1903572 5016538
-0.018848266 -0.032646626 1.1904092 5278938
-0.0097273961 -0.032335423 1.1903367 5344730
0.00069954153 -0.03354077 1.18917 5673948
0.010838909 -0.036098856 1.1879909 5805277
0.019923322 -0.036393221 1.1879121 5541848
0.03018019 -0.035588834 1.1878356 5475544
0.040473953 -0.033648945 1.1877712 5213397
0.051108561 -0.034624405 1.188378 5082070
0.060833734 -0.03417556 1.1899962 5016536
0.069851272 -0.032310091 1.1915418 5213915
0.080625542 -0.03168162 1.1914591 5279453
0.09154857 -0.032491766 1.1913594 5213659
0.10087247 -0.035697974 1.1896466 5212628
0.10747151 -0.035819877 1.1871902 5146833
-0.072896734 -0.024291791 1.1888167 4554443
-0.04762844 -0.023291811 1.1886175 5016281
-0.040390424 -0.024435714 1.1885448 5147611
-0.0093058273 -0.026352331 1.1882652 5411294
0.061624501 -0.024103813 1.1876998 5148123
0.070343703 -0.024393037 1.1878241 5213915
0.080379523 -0.024964564 1.1892736 5213917
0.091136955 -0.025253415 1.1897577 5213659
0.099065386 -0.0272227 1.1876875 5212887
0.092127278 -0.018271841 1.1875099 5279708
0.096669488 -0.01841902 1.1874704 5411037
-0.019942835 -0.17748883 1.1957 3106213
-0.014222242 -0.1776742 1.1956505 3105959
-0.0029657502 -0.17869341 1.1955457 3105706
0.0075160083 -0.17837858 1.1954619 3105960
-0.030588899 -0.17027208 1.1958675 3105700
-0.023197915 -0.17177065 1.1965398 3105957
-0.014040209 -0.17206737 1.1964604 3106216
-0.003732197 -0.17253149 1.1972196 3106217
0.0069189812 -0.17235917 1.1969614 3171752
0.014825742 -0.17211738 1.1965606 3303337
0.026119329 -0.169819 1.1954008 3369130
0.032984033 -0.17004144 1.1953413 3369132
-0.042817414 -0.15866114 1.1964297 3171753
-0.033206649 -0.16141492 1.1987066 3171752
-0.022911467 -0.16205423 1.2006942 3172010
-0.013764961 -0.16364142 1.2015508 3172012
-0.00371233 -0.16356045 1.2022636 3237802
0.0069682417 -0.16319798 1.2016332 3303338
0.016168008 -0.16352642 1.2017531 3369133
0.026470739 -0.16360652 1.1999464 3369388
0.036605611 -0.16359106 1.1991717 3303853
0.045907538 -0.16269332 1.1970644 3369643
0.056023434 -0.16219804 1.1954708 3303851
-0.060164474 -0.14640781 1.1963748 3303598
-0.052137271 -0.14951691 1.1979885 3303341
-0.043605629 -0.1515761 1.2013239 3303340
-0.034288988 -0.15335351 1.2040843 3369132
-0.026183393 -0.15550275 1.2039933 3303600
0.007216868 -0.15658502 1.2037036 3303598
0.019885933 -0.15699553 1.2035939 3435186
0.0273722 -0.15723811 1.2035289 3369391
0.037161931 -0.15755533 1.203444 3369392
0.047059197 -0.15495177 1.2027748 3369390
0.05662781 -0.15414853 1.199119 3435184
0.066030249 -0.15278748 1.1952553 3369392
-0.060882218 -0.139386 1.1972578 3369646
-0.053790472 -0.14199613 1.2019707 3303853
-0.046615187 -0.14561734 1.2042716 3173034
0.049268894 -0.1468796 1.2034601 3566773
0.057487335 -0.1458277 1.2027366 3566516
0.06733039 -0.14422721 1.1997386 3500977
0.077198431 -0.1451672 1.1969302 3500975
-0.070662685 -0.12708841 1.1966736 3632562
-0.061864078 -0.13048652 1.1995635 3501236
-0.054322138 -0.13096461 1.2040516 3501494
0.069880396 -0.13526887 1.2034158 3698612
0.077412471 -0.13582323 1.2009833 3567283
0.086326756 -0.13363582 1.1982298 3567283
0.093816601 -0.13078189 1.1952651 3501747
-0.077540927 -0.11721231 1.196839 3895478
-0.072023451 -0.11996135 1.1992632 3698613
-0.063136064 -0.12125678 1.2033422 3633080
0.071535252 -0.12869321 1.203474 3699128
0.078194924 -0.1257163 1.2034512 3830713
0.087673306 -0.12562107 1.2021734 3699126
0.094482452 -0.1243898 1.1953294 3633333
-0.078588247 -0.10916129 1.1969358 3961271
-0.071818352 -0.10989825 1.2018719 3896247
-0.065146744 -0.1127351 1.2047856 3764921
0.078314304 -0.11876717 1.2035263 3962300
0.089249305 -0.11660258 1.2029884 3896506
0.096802853 -0.11488625 1.1974144 3764920
-0.079635032 -0.099820927 1.1985469 3830712
-0.072723404 -0.09968017 1.2036581 4093627
0.092569239 -0.1058552 1.203549 4028352
0.097935446 -0.10536157 1.198176 3962812
-0.079695672 -0.089503013 1.1991605 3962556
-0.073253557 -0.090910919 1.2046474 4028606
0.092380635 -0.095439866 1.2036647 4357317
0.098749734 -0.095790364 1.1996075 4225985
0.10423359 -0.092179313 1.195601 4225985
-0.078911692 -0.080515489 1.1992522 4028606
-0.074105471 -0.080931656 1.2052083 4094655
0.093168043 -0.087427877 1.2037457 4554695
0.099032484 -0.085407019 1.1991187 4554182
0.10526897 -0.08381401 1.195684 4619462
-0.079260543 -0.06982933 1.1978426 4159424
-0.071205907 -0.069174066 1.204082 4160448
-0.064838886 -0.067781195 1.2052752 4554440
0.094062865 -0.074083 1.2038844 4620747
0.099579915 -0.075254895 1.2015755 4686026
0.10589822 -0.076199085 1.195762 4619977
-0.078330867 -0.060186133 1.1974697 4291265
-0.07022845 -0.060516272 1.2026492 4357573
-0.064614333 -0.060870938 1.205349 4751563
0.0095678288 -0.060584515 1.204735 4818903
0.017271001 -0.060065504 1.2046766 4819160
0.092497051 -0.065500647 1.2039914 4752590
0.099876381 -0.066058286 1.2016736 4817869
0.10501433 -0.068153359 1.1958574 4752076
-0.076033071 -0.050670292 1.1975548 4291778
-0.069990814 -0.050203241 1.201089 4554440
-0.064352356 -0.052808985 1.205435 4883149
-0.045575857 -0.046297107 1.2013497 5674209
-0.039836224 -0.046483085 1.2013 5082331
-0.02855536 -0.049709242 1.2030376 4950745
-0.019317996 -0.051718906 1.2004719 4884953
-0.010136716 -0.052005123 1.2001923 4753366
0.0002322169 -0.051256649 1.2013144 4884692
0.010753888 -0.05321205 1.200361 4884692
0.019538116 -0.052780997 1.2009476 4884692
0.029789114 -0.051948365 1.2033279 4950484
0.040676575 -0.053232886 1.2014453 4950488
0.049468238 -0.053268299 1.2023654 4950489
0.060125265 -0.052176677 1.2033397 5411037
0.069119826 -0.052233972 1.204331 5542623
0.083294049 -0.050675649 1.2042302 5213404
0.090974681 -0.05380683 1.2041321 5081558
0.099186085 -0.056288894 1.2016363 5015248
-0.070462905 -0.040379487 1.1976211 4685772
-0.048224058 -0.040647604 1.1985242 5542365
-0.039264176 -0.041118953 1.1984965 4951002
-0.030546907 -0.042416584 1.1972668 4884951
-0.021350786 -0.044588692 1.1971666 4753366
-0.0075841844 -0.043889478 1.1970596 4950484
0.0012734365 -0.044462811 1.1969798 5015763
0.031278662 -0.046294045 1.1967101 5015764
0.038143374 -0.046516482 1.1966505 4885461
0.05010676 -0.045922451 1.1965575 4884950
0.060940132 -0.045229077 1.1983213 5082072
0.070372909 -0.044426821 1.2012058 5542624
0.079930201 -0.04592051 1.2035102 5279197
0.090093754 -0.044970606 1.2006358 5213144
0.097280942 -0.04766918 1.196146 5212627
0.064755522 -0.038216412 1.1965201 5016538
0.070531875 -0.036685638 1.1964887 5213917
0.080146752 -0.034515709 1.1964325 5345245
0.090421945 -0.0371667 1.1969848 5213917
0.18156563 -0.042330738 1.2035041 13158081
-0.013607251 -0.15878478 1.2078533 3303598
-0.00089630391 -0.15919665 1.207743 3303850
-0.041688103 -0.14723293 1.2082133 3303853
-0.031971872 -0.14914846 1.2084687 3304111
-0.022460882 -0.15159522 1.2101111 3303857
-0.013392968 -0.15222085 1.2106736 3303856
-0.0029692017 -0.15259272 1.2108328 3369903
0.0074553243 -0.15137014 1.2077593 3435441
0.016487552 -0.15257603 1.2076709 3435187
0.026980523 -0.15227821 1.2075869 3500978
0.037499383 -0.15234365 1.2074987 3369649
0.044254083 -0.1509431 1.2074578 3435441
-0.049611107 -0.13949601 1.2083639 3370159
-0.043088078 -0.14047854 1.2082989 3370416
-0.032727998 -0.14110124 1.2104561 3436469
-0.022346683 -0.14178997 1.2131125 3502005
-0.013064284 -0.14209077 1.213032 3501749
-0.0027346965 -0.14590995 1.2129042 3501493
0.0078048809 -0.14260358 1.2116027 3567542
0.017097969 -0.14302726 1.2124583 3567541
0.02749956 -0.14321049 1.2111821 3633333
0.037834428 -0.14321786 1.2085334 3567541
0.046442099 -0.14275673 1.2075292 3633079
0.056544695 -0.14089772 1.2074655 3632566
-0.049720928 -0.13100976 1.2084577 3501750
-0.042855997 -0.13152985 1.2108952 3567798
-0.03446003 -0.13237354 1.2133163 3633848
-0.020997867 -0.13602622 1.2131643 3633591
-0.014036067 -0.13625181 1.213104 3699128
0.0080473367 -0.13580588 1.2129252 3830714
0.018490035 -0.13614425 1.2128346 3764921
0.02801425 -0.13550255 1.2127624 3830712
0.03859131 -0.13492641 1.2123235 3830713
0.047304209 -0.13490513 1.2119417 3830458
0.057619758 -0.1349521 1.2098904 3764409
0.065774605 -0.13366064 1.2080235 3764407
-0.058381177 -0.11985586 1.2086519 3698874
-0.051772982 -0.12077871 1.210837 3764923
-0.043218702 -0.12177818 1.2135051 3765435
-0.036940433 -0.12621766 1.2134043 3699641
0.056657095 -0.1292505 1.2125926 3896252
0.066903718 -0.1250838 1.2099336 3831226
0.074259862 -0.12461652 1.2074964 3830458
-0.060706943 -0.11033942 1.2095649 3896508
-0.051534191 -0.11064533 1.2136962 4028352
-0.043666765 -0.11159716 1.2136203 4094143
0.068487823 -0.11521412 1.209076 4159936
0.077835828 -0.11424469 1.2075802 4028352
0.085911267 -0.11313756 1.2075251 3962559
-0.068388835 -0.10032984 1.2089489 4093628
-0.061485715 -0.10062584 1.2096382 4028352
-0.051220641 -0.10133459 1.213483 4094401
-0.044450026 -0.099956818 1.2137543 4225986
0.07026919 -0.10611638 1.2113688 4357317
0.078562602 -0.10535736 1.2104843 4225732
0.087385565 -0.10514605 1.2076004 4159938
-0.069062814 -0.09055841 1.2090614 4028609
-0.060878158 -0.09091077 1.2103533 3963330
-0.051520802 -0.091310278 1.2139077 4160708
-0.045204826 -0.094589487 1.2138193 4292035
0.073334277 -0.092623025 1.2128547 4620236
0.078683019 -0.095514327 1.2113897 4488649
0.087100893 -0.096381254 1.2076987 4357318
-0.069885783 -0.080286399 1.2091807 4160449
-0.061263859 -0.080782779 1.2127995 4160708
-0.051968873 -0.08112926 1.2140229 4489161
0.08009547 -0.086282574 1.2117964 4555212
0.088378057 -0.085282423 1.2078096 4620489
-0.16167875 -0.068746969 1.215071 14082013
-0.068270534 -0.072957687 1.2092475 4226242
-0.06007614 -0.070959315 1.2117014 4620234
-0.052896775 -0.069174498 1.2141615 5079759
-0.018848743 -0.069890589 1.2138704 6791922
-0.010688948 -0.068993494 1.2138124 5608162
-0.00024624635 -0.069331869 1.2137218 5016279
0.009792259 -0.071676448 1.2122489 5608413
0.018299699 -0.070513561 1.2135546 4950485
0.025280351 -0.070159011 1.2135004 5016277
0.083182231 -0.075519696 1.2129601 4752847
0.089055292 -0.075686499 1.2096739 4620747
-0.060472675 -0.062017452 1.2103025 4948687
-0.050063737 -0.065394647 1.2141793 5408980
-0.028424609 -0.062940791 1.2121029 6134248
-0.019759066 -0.062739193 1.2114561 5344990
-0.010831947 -0.06321691 1.2117337 4884696
0.00032968074 -0.063622922 1.2117205 4818902
0.010718704 -0.065183707 1.2086755 4818646
0.019883662 -0.0644041 1.2093222 4818646
0.0300104 -0.064303368 1.2102748 4884696
0.040107876 -0.06413655 1.2102284 5344733
0.049351212 -0.064413205 1.2097913 5936870
0.059110809 -0.06423606 1.2124504 5608416
0.068235777 -0.063652724 1.2132143 5082072
0.080978289 -0.064808428 1.2100954 5016278
0.087253049 -0.066506922 1.2080244 4884178
-0.028791577 -0.056500375 1.2090993 5082331
9.6935779e-005 -0.057436451 1.2088487 4687574
0.02320775 -0.058185309 1.2086482 4687574
0.031152915 -0.057781763 1.2085866 4819159
0.038229778 -0.058672071 1.208518 4950233
0.050940722 -0.059083942 1.2084078 5542369
0.059713196 -0.058082938 1.2083458 5805540
0.072623461 -0.056316331 1.2082577 5213659
0.079941891 -0.056553472 1.2081943 5147866
0.088738449 -0.058766391 1.2080969 5081557
-0.0025657061 -0.14177713 1.2169484 3633335
-0.029737085 -0.130303 1.2173001 3699641
-0.022231635 -0.13099487 1.21723 3765177
-0.012511991 -0.13150227 1.2187909 3830714
-0.0022491636 -0.13280484 1.2199243 3962299
0.0082972515 -0.13055304 1.2176477 4028092
0.017082224 -0.13162607 1.2171818 3962300
0.026606275 -0.13157706 1.2175448 3962299
0.036215223 -0.1306015 1.2189707 3962299
0.048628166 -0.1299184 1.2166524 3896509
0.058421791 -0.12976961 1.2165725 3830714
-0.039136246 -0.11961661 1.2174952 3962813
-0.032622077 -0.12157742 1.2191975 3962813
-0.021695584 -0.12317163 1.2213117 4028350
-0.012527443 -0.12559436 1.2212088 4093886
-0.0055199564 -0.12582143 1.2211481 4093886
0.0086088711 -0.1227719 1.221064 4291263
0.017952189 -0.12307465 1.2209829 4291265
0.027295504 -0.1233774 1.2209018 4291265
0.037806734 -0.12371799 1.2208107 4225471
0.048199669 -0.12377699 1.2182233 4159424
0.057446819 -0.12391149 1.2166448 4028351
-0.03999773 -0.11026624 1.2176048 4159681
-0.034497697 -0.1122282 1.2204468 4159937
0.00887453 -0.11459668 1.2211512 4685507
0.018481793 -0.11397269 1.2210782 4685766
0.027357941 -0.1142603 1.2210011 4685768
0.039374083 -0.11473468 1.220896 4685254
0.048609324 -0.1146886 1.2205696 4553924
0.057762213 -0.11462432 1.2169938 4357059
0.063645646 -0.11245928 1.2167186 4291524
-0.040717579 -0.10231022 1.2180312 4291267
-0.034882329 -0.10164508 1.2208569 4291525
0.019613469 -0.10792994 1.2211349 5080013
0.026620958 -0.108157 1.2210741 5013964
0.041955654 -0.10397742 1.2209923 5014215
0.048963144 -0.10420448 1.2209315 4948424
0.058262084 -0.10442751 1.2200516 4686025
0.065883234 -0.10405671 1.2183921 4554696
-0.047465585 -0.089048736 1.2178991 4423366
-0.041992866 -0.091405608 1.2196946 4489158
-0.036066923 -0.094434544 1.2217457 4554697
0.042297211 -0.093466423 1.2211045 6725605
0.049530692 -0.093934633 1.2210392 5541334
0.058648016 -0.093996234 1.2209628 4949456
0.068575516 -0.0954616 1.2193401 4752076
-0.048327073 -0.079698354 1.2180086 4751821
-0.042616881 -0.081257567 1.220611 4817612
-0.016848968 -0.078689605 1.2217582 6133729
-0.014513139 -0.078765295 1.221738 5804510
0.0099877659 -0.080338612 1.221517 6726116
0.018188469 -0.079824924 1.2214544 6791913
0.031035531 -0.080241211 1.2213429 5673696
0.039628796 -0.083637305 1.2212343 5344728
0.050776225 -0.084388226 1.2211334 5475805
0.058951627 -0.084653132 1.2210624 5147095
0.069383517 -0.084898308 1.2197728 4949712
0.078035302 -0.082044914 1.2169318 4621777
0.18636818 -0.08527445 1.2199957 11781308
-0.050466143 -0.073802516 1.2180909 4883150
-0.041478284 -0.072151572 1.2180343 6001884
-0.030562844 -0.070951521 1.2179565 6133474
-0.019025363 -0.074239805 1.2194248 6067939
-0.011162823 -0.073779128 1.2188553 6594284
-0.00010299031 -0.072866254 1.2187732 6002915
0.010743193 -0.07648506 1.2175524 6857704
0.019828692 -0.074769795 1.2181623 6397928
0.029050998 -0.074417345 1.2192897 6397674
0.038083233 -0.074903607 1.2197425 6002659
0.050092421 -0.075018689 1.2201748 5476060
0.05915973 -0.075186767 1.2194141 5213402
