# .PCD v0.7 - Point Cloud Data file format
VERSION 0.7
FIELDS x y z rgba
SIZE 4 4 4 4
TYPE F F F U
COUNT 1 1 1 1
WIDTH 1130
HEIGHT 1
VIEWPOINT 0 0 0 1 0 0 0
POINTS 1130
DATA ascii
0.15761267 -0.088448733 1.1063442 3436468
0.1720704 -0.085443251 1.1061201 10992842
-0.12560403 -0.066476777 1.1169862 3697068
0.1561894 -0.07546185 1.1107924 3765679
0.15909943 -0.078056946 1.1058418 3830452
0.1719 -0.081180684 1.1061615 11387079
-0.12425356 -0.058737349 1.1147983 3631022
-0.121961 -0.05562 1.1142387 3500456
0.15574569 -0.068500847 1.107975 3830449
0.16233858 -0.069261104 1.1052437 5207985
0.16895504 -0.070583843 1.109026 10334913
-0.1238959 -0.046731811 1.1169566 3434161
0.15526263 -0.059539132 1.1078124 3893939
0.16229539 -0.060319886 1.1067437 8428221
-0.12358683 -0.036729667 1.1206014 6194370
-0.11892219 -0.034831293 1.1213021 4421311
0.15371175 -0.047649682 1.1100209 5734064
0.15988652 -0.051598933 1.1108518 10203587
-0.11730357 -0.028228097 1.1212965 6852289
0.15240635 -0.041652713 1.1080079 8955077
0.027977716 0.093386136 1.1169224 9737616
-0.089428581 -0.20496133 1.1271524 7635861
-0.085971951 -0.20562047 1.1296877 8100012
-0.099144809 -0.19463348 1.1302652 10535920
-0.092330851 -0.1975894 1.1276343 5996227
-0.085817143 -0.2020334 1.1297115 6394567
-0.1089581 -0.18311425 1.1227171 8431615
-0.10197285 -0.18587849 1.1252073 1526185
-0.095751613 -0.18856773 1.129046 1262491
0.1277941 -0.1953869 1.121865 11717846
-0.11713158 -0.17419967 1.1230928 7571711
-0.11019906 -0.17677855 1.1243718 1917611
-0.10320114 -0.17962721 1.1278701 2379673
-0.096483156 -0.18288848 1.1302633 2644619
0.12967794 -0.18858835 1.1218512 5010097
0.13698259 -0.18591341 1.1184579 10599906
0.14409491 -0.18500134 1.1173446 14081762
-0.10978542 -0.16797528 1.1270857 2709143
0.13117623 -0.17804268 1.1218824 2909858
0.13769558 -0.17782158 1.1178222 4026283
0.14513686 -0.17830896 1.1138585 12307424
-0.11625545 -0.15389805 1.1232271 2775446
-0.11195365 -0.15831947 1.1259429 2775442
0.13936068 -0.16894269 1.1186523 3105445
0.14414889 -0.1682831 1.113477 2578854
-0.11789484 -0.14663602 1.1255029 2775449
-0.11362176 -0.14925729 1.1298394 2906778
0.14216153 -0.15926269 1.1200293 3564451
0.14540397 -0.15839651 1.1159136 3433893
-0.12132554 -0.13781036 1.1268435 2840984
0.14406787 -0.15116392 1.1216265 3565217
0.14773796 -0.14916731 1.1161699 3499430
-0.12573451 -0.12565872 1.1238098 2841497
-0.12261079 -0.12761222 1.1296827 2907290
0.1505549 -0.13867143 1.1184871 3237547
-0.12544718 -0.11621659 1.125478 2973083
-0.12257659 -0.11685164 1.1297698 3038877
0.15410396 -0.12913665 1.1196169 3827369
0.15657914 -0.12813807 1.1133472 3564710
-0.1260272 -0.10622194 1.1268396 3039391
-0.12333283 -0.1082788 1.1305354 3170977
0.15480061 -0.1190677 1.1194918 3565735
0.15694803 -0.11959003 1.1134038 3500198
-0.12572081 -0.098049775 1.1290399 3170977
0.15543197 -0.11006355 1.1188754 3631790
0.15654023 -0.11180901 1.1214886 3434923
-0.1254575 -0.087491401 1.1281161 3302823
0.15559626 -0.09860871 1.1191303 3566513
-0.12504461 -0.077489495 1.1268488 3368614
0.15509328 -0.089322507 1.1192636 3632560
-0.12416011 -0.069823071 1.1282134 3565995
0.15428816 -0.079101816 1.1181047 3895728
-0.12052134 -0.054927241 1.1298023 3697842
0.15232839 -0.069041349 1.1167922 4158132
-0.11854959 -0.04669195 1.1285598 3502262
0.15170351 -0.058344331 1.118104 4027837
-0.11551955 -0.037294835 1.1279387 3698611
0.14749724 -0.046734363 1.1223578 4619197
0.15295559 -0.050034437 1.1165864 4946612
-0.1216305 -0.0305617 1.1244396 7180220
-0.11365935 -0.027950481 1.1313714 4815032
0.14766712 -0.0402495 1.1217377 5209534
0.15218894 -0.038640697 1.1142452 8425655
0.029031284 0.089290775 1.1198519 9474444
-0.062641844 -0.2165418 1.13574 8300241
-0.080609769 -0.2075443 1.1328396 7642055
-0.073078014 -0.20853963 1.1346908 4815810
-0.066422857 -0.21228838 1.1359148 5210825
-0.089234203 -0.19524735 1.1328958 932767
-0.082361668 -0.19900051 1.1342962 2382238
-0.073802479 -0.20242563 1.1362689 2251168
0.10956661 -0.20703942 1.1294484 6518691
0.11538628 -0.20625263 1.12781 11319227
-0.090599507 -0.1884535 1.1348701 2447513
-0.085284583 -0.19216989 1.1367778 2513045
0.11759599 -0.19812003 1.1281713 4617903
0.12451942 -0.19841385 1.1249634 10929103
-0.099581406 -0.17702839 1.1348838 2971544
-0.093820773 -0.1810478 1.1351836 2774929
0.12004222 -0.18894473 1.1275418 2909086
0.12489524 -0.18818805 1.1250335 3105187
-0.10658915 -0.16351485 1.1337985 2709911
-0.10210615 -0.16878709 1.135944 2644371
0.12685739 -0.1784519 1.1256568 3368356
-0.10856406 -0.15682116 1.135746 2775444
-0.10374869 -0.16116074 1.1363814 2709910
0.13173197 -0.1687924 1.1265411 3368613
0.13600075 -0.16599697 1.1248051 3499683
-0.11141481 -0.14811885 1.1356046 2841497
0.13393852 -0.16143952 1.1289217 3237027
0.13867867 -0.15891328 1.1260986 3302821
-0.11687097 -0.13627736 1.1349745 2645144
-0.11337194 -0.13817219 1.1373709 2775964
0.14225316 -0.14912908 1.1268959 3237542
0.14645794 -0.14572097 1.1259192 3106215
-0.11830401 -0.12781517 1.1359808 2907291
0.14405419 -0.13964862 1.1273923 3499683
0.14718032 -0.13779019 1.1257671 3303338
-0.11882503 -0.11786427 1.137028 3039134
0.14916857 -0.12937829 1.1260318 3499947
-0.12343676 -0.1033386 1.1349162 3236770
-0.12134266 -0.10774455 1.1381383 3236770
0.15136547 -0.11895829 1.1264429 3500458
-0.12315737 -0.096864767 1.1349591 3237027
-0.12130217 -0.097333096 1.1388894 3302821
0.15420049 -0.1085247 1.1268916 3632048
-0.1227383 -0.087154016 1.1350234 3302824
-0.12090498 -0.088129483 1.1389503 3302569
0.15285489 -0.099569224 1.126911 3632047
-0.12277848 -0.078072146 1.1350995 3434408
-0.11975598 -0.075858757 1.1390088 3434665
0.14993033 -0.088384479 1.1267473 4026292
-0.12190014 -0.06773252 1.135152 3631531
-0.11999379 -0.06701532 1.1390902 3631531
0.15033028 -0.080407038 1.1254233 4157366
-0.12162076 -0.061258692 1.1351949 4025255
-0.11817001 -0.056294579 1.1373954 3632304
0.15028632 -0.068601988 1.1250772 4289211
-0.11434835 -0.047454584 1.1367549 3568048
0.14762414 -0.057714239 1.1259322 4094399
0.14981191 -0.062208202 1.1271487 4224702
-0.11284432 -0.041457165 1.135033 3764911
-0.10913096 -0.037314426 1.1374315 3895729
0.14546373 -0.049197845 1.1268706 4487616
-0.11316516 -0.023341298 1.1381959 6458567
-0.10842212 -0.027316995 1.1373874 3895996
0.14583042 -0.038159255 1.1258925 5735616
0.15280806 -0.035200112 1.1252584 9477559
-0.11257415 -0.020688012 1.1391965 6852289
-0.10932799 -0.020827301 1.1390753 5933254
0.06135989 0.073577903 1.129535 9474701
-0.025943873 -0.22865653 1.1462917 7248329
0.0067529287 -0.23164728 1.1442572 5801654
0.014792074 -0.2308583 1.1434326 5210039
0.027588973 -0.23204979 1.1442838 6328255
0.035243265 -0.23237821 1.1439979 7379645
0.046790708 -0.23275191 1.1435678 8430007
0.054658018 -0.23128784 1.1392858 8625323
-0.063734725 -0.21884894 1.1397644 9678537
-0.052685373 -0.2193681 1.1458825 4422071
-0.043336995 -0.2204559 1.1470025 2778029
-0.033667736 -0.22268739 1.1466265 2513574
-0.026182434 -0.22572303 1.1463246 2315684
0.0036742808 -0.22773495 1.1452038 2120102
0.015702458 -0.22825107 1.1447546 2185635
0.028871328 -0.2277199 1.144272 2186146
0.034291457 -0.2290487 1.1440605 2316696
0.049694493 -0.22751716 1.1435033 4486314
0.05718603 -0.22743008 1.1412255 5997746
0.068476893 -0.22495797 1.141686 6063288
0.077239037 -0.2238757 1.1425145 6589614
0.08532127 -0.22444174 1.1422108 8757678
-0.068648227 -0.20666356 1.1400462 1855898
-0.061925836 -0.20948449 1.1430149 2249885
-0.054205053 -0.2121547 1.1467448 2381985
-0.046153158 -0.21463472 1.1471545 3039902
0.071465768 -0.21803726 1.142776 2841504
0.077503465 -0.21774822 1.142555 3302564
0.087102652 -0.2158937 1.1408809 4420011
0.096764229 -0.21544532 1.1361431 6984117
0.10622276 -0.21307847 1.1335254 6254993
-0.07929413 -0.1956826 1.1413308 2710418
-0.071588449 -0.19930395 1.1445996 2775447
-0.064867467 -0.20184232 1.1471512 2906776
0.089921691 -0.20812073 1.1417745 3171492
0.098374955 -0.20708993 1.1386683 3237285
0.10659485 -0.20619923 1.13414 3629215
-0.081729643 -0.18864943 1.1454816 2775191
-0.07366281 -0.19250728 1.1476867 2906012
0.10078306 -0.19798982 1.1401885 3040421
0.10766352 -0.1965781 1.1365572 3105703
0.11344133 -0.19705924 1.1333901 2777257
-0.096606672 -0.17389461 1.1413497 2710677
-0.089887783 -0.1780946 1.1445986 2709909
-0.083744161 -0.18198636 1.1468117 2709910
0.10930712 -0.18828547 1.140146 3368100
0.11679459 -0.18674095 1.1354856 3302561
-0.097435892 -0.16732943 1.1445477 2710421
-0.09263014 -0.17041746 1.1484364 2644886
0.11175108 -0.18063073 1.1415933 3040936
0.11983795 -0.17786214 1.1392285 3237031
0.12625022 -0.17521434 1.1360979 3368615
-0.10662124 -0.15387018 1.1418847 2776209
-0.10121551 -0.15861906 1.1463991 2841240
0.1223105 -0.16948822 1.1412944 3237287
0.12866284 -0.1674982 1.1359291 3302822
-0.10716589 -0.14721844 1.1464961 2710683
-0.10251604 -0.15073191 1.1490973 2841499
0.13137946 -0.15920682 1.1384532 3237541
0.13632001 -0.15667613 1.1344768 3237798
-0.10889994 -0.13858466 1.1472411 2907293
0.13353536 -0.15054238 1.1410348 3237797
0.13818657 -0.14816321 1.1358788 3303334
-0.11484158 -0.12659527 1.1435566 2907805
-0.11249278 -0.12837392 1.1495166 2907805
0.14052244 -0.13890873 1.1384258 3434407
-0.11488226 -0.11728793 1.1451595 3039392
-0.11212149 -0.11862524 1.1503836 3039391
0.14287111 -0.12942731 1.1382898 3500202
0.14694045 -0.12664932 1.1327296 3631274
-0.11756273 -0.1080094 1.1472028 3170979
0.14534138 -0.11927073 1.1404104 3631791
0.14853942 -0.11880027 1.1345141 3566510
-0.11747631 -0.097661592 1.1484666 3105957
0.14495435 -0.10812186 1.1392932 3632305
0.14991592 -0.10939281 1.133095 3501227
-0.11750944 -0.08761017 1.146263 3237546
0.14485618 -0.099032417 1.1384921 3698099
0.14926302 -0.099568002 1.1332666 3698094
-0.11645815 -0.077899799 1.1465422 3434923
0.14651063 -0.089824714 1.1390525 3895479
0.14844102 -0.091878638 1.1329598 3895477
-0.11560602 -0.067473657 1.1472158 3566256
0.14730571 -0.078554817 1.14045 4027579
0.14969726 -0.078058951 1.1370299 4157882
-0.11425661 -0.058608569 1.146482 3567024
0.14566156 -0.068934441 1.1400797 4159422
0.14981435 -0.069230221 1.135497 4289724
-0.11160263 -0.048862007 1.1442662 3567791
-0.10822362 -0.047106624 1.1494929 3764403
0.14433223 -0.058820892 1.1387208 4356797
-0.10632497 -0.038204081 1.1433961 3830196
0.14205246 -0.049125422 1.1379507 4619718
-0.10429788 -0.027395181 1.1457493 3896507
0.13849895 -0.037072647 1.1386704 4817095
0.14287536 -0.037816841 1.1352779 4948420
-0.11145821 -0.017913185 1.1471838 6916535
-0.10401523 -0.018761292 1.1465937 5210049
0.13800734 -0.030668475 1.1408539 5013440
0.14239281 -0.030423671 1.1383587 5998788
0.040884439 0.047668867 1.1409442 5859448
0.049003728 0.047410257 1.1387833 6122362
0.054671176 0.047275864 1.1415747 6319482
0.065968089 0.04803244 1.145166 5330522
0.041600868 0.052099474 1.1394293 5792108
0.049430743 0.052612983 1.1386102 5527648
0.0548594 0.051637419 1.1416036 5067354
-0.020096859 -0.22889981 1.1490755 4354997
-0.012719514 -0.23025799 1.150793 4684224
-0.0028792955 -0.23037589 1.1489602 4289976
0.0081619462 -0.22854221 1.1480333 2054307
0.018553343 -0.22953764 1.1476407 2777510
0.023987615 -0.23086989 1.1474288 4026798
0.040432461 -0.23157552 1.1468147 5604271
0.044340603 -0.23009458 1.1466823 4881326
-0.038601197 -0.21774302 1.1498517 3039902
-0.030685352 -0.21900466 1.1500489 2710943
-0.022208674 -0.22129774 1.1525228 2645152
-0.012345187 -0.22460401 1.1554956 2514339
-0.0024349522 -0.224922 1.1545928 2514851
0.0075186817 -0.22283104 1.1527073 2842787
0.017325509 -0.22281316 1.1501431 2908579
0.027016714 -0.22283693 1.1502737 3039651
0.037205584 -0.22398517 1.1509993 2908578
0.04656931 -0.22351265 1.1504067 2778020
0.05657126 -0.22226343 1.1477239 2646433
0.065963522 -0.22534382 1.1459215 5012145
0.077419676 -0.22711766 1.1454833 8955830
-0.051238313 -0.2087758 1.1506788 2841242
-0.041424587 -0.21128513 1.1523442 2775960
-0.032413736 -0.212961 1.1539319 2841500
-0.022976508 -0.21556482 1.1572974 2907551
0.0087012602 -0.21618626 1.1561205 3105184
0.017916566 -0.21621278 1.1557795 3170722
0.027851935 -0.21663909 1.1554085 3302053
0.03799513 -0.21652099 1.1550343 3170723
0.048522193 -0.21605042 1.1546488 3105188
0.057810359 -0.21564338 1.152593 3170467
0.067267418 -0.21581359 1.1483533 3236258
0.077473044 -0.2127932 1.1460438 3171236
-0.067349724 -0.19672599 1.1510878 2906776
-0.060883567 -0.19924936 1.1519716 2907033
-0.052353032 -0.20062582 1.1553378 2841497
-0.043170042 -0.20510687 1.1581303 2775704
0.059095681 -0.21023276 1.1543055 3105443
0.067927122 -0.2106117 1.1539757 3105443
0.078818433 -0.20734948 1.1523356 3105956
0.087164827 -0.20481065 1.1485084 3105956
-0.077839509 -0.18528506 1.1515697 2644884
-0.07082437 -0.18917756 1.1542804 2775705
-0.06249173 -0.1924279 1.1566142 2841497
0.082754932 -0.20018089 1.153513 3172006
0.090466417 -0.19812077 1.152244 3040421
0.096329197 -0.19600375 1.1495427 2974628
-0.086231343 -0.17613232 1.1519554 2645144
-0.079562232 -0.17820865 1.1547527 2710425
-0.07432884 -0.18116719 1.1560485 2776216
0.10017309 -0.18752271 1.1497204 3171493
0.10512402 -0.18548161 1.1464019 3237026
-0.088823989 -0.16801345 1.1547081 2710424
-0.082413621 -0.17052616 1.1584104 2710937
0.10348378 -0.1811496 1.1529027 3302823
0.10986451 -0.17731348 1.149538 3172005
0.11575554 -0.17441714 1.1485013 3172006
-0.097089037 -0.15624933 1.1525204 2841498
-0.092627779 -0.15899621 1.1572595 2907290
0.11279195 -0.17048192 1.1526461 3303592
0.11912688 -0.16735965 1.1511031 3237544
0.12520958 -0.16322336 1.1442406 3303337
-0.098423399 -0.14773825 1.1543553 2973342
-0.093742013 -0.15110609 1.1604446 3038879
0.12311224 -0.15976429 1.1516852 3237544
0.12742928 -0.15688735 1.1470126 3303336
-0.10596479 -0.13584635 1.1540171 2973342
-0.099879108 -0.13930479 1.1582668 2973600
0.13127106 -0.14792633 1.1481451 3368872
-0.1071516 -0.12793431 1.1554799 3039392
-0.10155819 -0.12903182 1.1609151 3236259
0.13304162 -0.13856518 1.1499078 3500460
0.13735642 -0.13626753 1.1440129 3434923
-0.10781443 -0.11825775 1.1561203 3170978
0.13450068 -0.12969667 1.150844 3500719
0.13917246 -0.12737232 1.1473546 3500718
-0.11399305 -0.10679806 1.1535521 3237029
-0.11002374 -0.10837985 1.1593965 3237286
0.13999408 -0.11856098 1.1501706 3697329
-0.11361429 -0.098021656 1.1536102 3237543
-0.1107634 -0.097758055 1.1610123 3172263
0.14158459 -0.10950623 1.1496805 3697843
-0.11339027 -0.088405356 1.1566831 3303340
-0.11108735 -0.087463953 1.1616093 3303852
0.14182436 -0.099063978 1.1501577 3764149
-0.11314332 -0.078624755 1.1537522 3500716
-0.1100755 -0.077441603 1.1616542 3501229
0.14515826 -0.088751383 1.1486896 3764661
-0.11243068 -0.070595399 1.1537918 3566512
-0.10895573 -0.067348272 1.1580567 3632306
0.14261779 -0.078423992 1.1487675 3896764
-0.10794015 -0.057762429 1.158098 3698357
0.13715659 -0.06815467 1.1512516 4291265
0.14072967 -0.069441229 1.145581 4225217
-0.10595676 -0.048829187 1.1577342 3764408
0.13832726 -0.058588687 1.1506197 4554434
0.14071786 -0.058376972 1.1445287 4488640
-0.10251434 -0.038260236 1.1584942 3895997
-0.098143607 -0.035266303 1.1615595 4027323
0.13836482 -0.04777611 1.1497065 4817354
-0.10069076 -0.02877295 1.1550356 3962044
-0.096451901 -0.02778738 1.1607578 4093118
0.129695 -0.035082199 1.1531336 5014224
0.13481455 -0.038010057 1.1489173 4751563
-0.099194936 -0.018407427 1.1537311 4290235
-0.09414795 -0.01852572 1.1580801 4158908
-0.087749898 -0.016529359 1.161329 4028609
0.12827154 -0.027964592 1.1514658 4817874
0.13476416 -0.027923398 1.1459999 5145287
-0.091559894 -0.01196865 1.1559035 4487616
-0.085915618 -0.0095735565 1.1599841 4356800
0.119963 -0.015080459 1.1516566 5276623
0.12602723 -0.018330723 1.1476886 5604813
0.13531204 -0.019938298 1.1459341 6720449
-0.083466277 -0.0026948676 1.1612842 5671109
0.11839944 -0.0094523877 1.1531903 5802961
0.12457221 -0.010459743 1.1488554 6787017
0.043144502 0.0095797479 1.156702 12972031
-0.011666168 0.021867096 1.156829 5869264
0.020600101 0.016818449 1.1575954 7515376
0.0280664 0.016129158 1.1573136 8764660
0.03763926 0.015275732 1.1569525 10146554
0.044218339 0.013960496 1.1566983 10870005
-0.069164656 0.032693557 1.1530404 8028800
-0.064032704 0.032839708 1.1528517 7305855
-0.0071595404 0.022805296 1.1586714 5671370
-0.0038477499 0.022663198 1.1585478 5869265
0.019334776 0.021668471 1.1576821 6988787
0.023750495 0.021478988 1.1575172 7185904
0.11023841 0.026621573 1.1543604 6314850
-0.062598884 0.037785105 1.1528393 8028802
0.10729996 0.030289136 1.1544993 6117979
0.083537407 0.041894801 1.1474679 5593178
0.085730053 0.04180073 1.147386 5658970
-0.017490128 -0.21879512 1.1610708 2973083
-0.011999298 -0.22014123 1.1608567 2973595
-0.0025422722 -0.22012076 1.1611742 2973598
-0.036950961 -0.20685488 1.1618888 2842012
-0.030641286 -0.20851377 1.1616417 2776219
-0.021365663 -0.21140459 1.1627998 2907806
-0.011785114 -0.21320705 1.1640658 2907807
-0.00126056 -0.21420088 1.163844 2973599
0.0076080402 -0.21222231 1.1608636 3039136
0.018401843 -0.21169883 1.1611359 3170723
0.028344974 -0.21200159 1.1600984 3236770
0.038123533 -0.21195558 1.15907 3170979
0.047165014 -0.21212998 1.1587341 3170980
0.053883173 -0.21075246 1.158497 3171236
-0.047645599 -0.19751181 1.1623611 2842012
-0.040991165 -0.20007464 1.1635495 2842011
-0.031452514 -0.20275156 1.1641824 2842012
-0.02318337 -0.20456739 1.1654012 2907805
0.023163283 -0.20794897 1.1636591 3302309
0.029173456 -0.20704152 1.1623006 3302308
0.03776826 -0.2072801 1.1606226 3171236
0.048440184 -0.20829786 1.1587185 3171236
0.059170045 -0.20739457 1.1599969 3105443
0.069035195 -0.20588891 1.1589772 3171492
0.075618267 -0.2042816 1.1577462 3040420
-0.068214163 -0.18552405 1.1632205 2841497
-0.059550837 -0.18865101 1.163408 2907291
-0.051190339 -0.19167183 1.1644239 2907549
-0.04449895 -0.19315945 1.1662834 2907551
0.0725509 -0.19892478 1.1619065 3040420
0.079565793 -0.19737008 1.1597637 3106213
0.087408759 -0.19508898 1.1573856 3106214
-0.069361709 -0.17899543 1.165318 2907290
-0.062853888 -0.18216661 1.1665523 2973340
0.084050283 -0.19050355 1.1615504 3302823
0.090100363 -0.18836015 1.1589425 3237030
0.096384019 -0.18522111 1.1589139 3237031
-0.086184561 -0.1647636 1.1640558 2841497
-0.077931106 -0.16860415 1.1642526 2842012
-0.07182616 -0.17112064 1.1664746 2907547
0.10186086 -0.17775896 1.1579173 3368361
0.10704315 -0.17472053 1.1568269 3237285
-0.087406404 -0.15878838 1.1641501 2973085
-0.080544971 -0.15932597 1.1666306 3039135
0.10444125 -0.17072207 1.156956 3368615
0.11112586 -0.16768032 1.1574614 3237799
0.1158056 -0.16454658 1.1565863 3303337
-0.0942332 -0.14553939 1.1645114 2973857
-0.08890757 -0.14931142 1.1658401 3039137
-0.082931474 -0.15046576 1.1680558 3104930
0.11348219 -0.16028304 1.1587087 3172264
0.11977052 -0.15765086 1.1571635 3238059
-0.095032096 -0.137302 1.1656095 3039650
-0.091101512 -0.14108908 1.1684351 3105700
0.1234792 -0.14806738 1.1585933 3369132
0.12760049 -0.14839487 1.1562828 3434410
-0.097388364 -0.12863472 1.1664826 3171236
0.12575677 -0.14004245 1.1596218 3500719
0.12917864 -0.13787512 1.1583123 3435183
-0.10406677 -0.11624391 1.165116 3302823
-0.099409774 -0.1184428 1.1675942 3171495
0.13036804 -0.12781833 1.158169 3566514
-0.10538471 -0.10755383 1.1666917 3368873
-0.10169745 -0.10890123 1.168291 3368875
0.13343811 -0.11874184 1.1571112 3697588
-0.10585166 -0.098467343 1.1679966 3303850
0.13551432 -0.10923992 1.1597428 3763892
0.13863714 -0.1086676 1.156201 3698099
-0.10679261 -0.088204995 1.1670483 3435181
-0.10087884 -0.088964477 1.1692251 3435438
0.13699001 -0.099171124 1.1603428 3829942
0.13975027 -0.098721303 1.1573852 3764149
-0.10532632 -0.078588411 1.1674734 3501229
0.13756602 -0.085823841 1.1604313 3896505
0.14175002 -0.088874102 1.1580681 3830455
-0.10432093 -0.068758458 1.1670551 3632563
-0.099870816 -0.065606736 1.1693797 3567542
0.13542411 -0.078549825 1.157997 4027837
0.14044032 -0.082314581 1.156351 3896505
-0.10313702 -0.058740143 1.1668885 3829940
-0.099582806 -0.05893309 1.1694239 3699127
0.13438517 -0.068891071 1.1593537 4291009
-0.10230158 -0.048622102 1.166407 3895737
-0.09847448 -0.047996506 1.1694728 4027576
0.13508907 -0.058868796 1.158743 4422849
-0.1008617 -0.041976567 1.1656078 4158911
-0.096147716 -0.038489532 1.1674635 4093372
0.13543461 -0.049127035 1.1583099 4817355
-0.092017047 -0.029256053 1.1669247 4093630
-0.087027401 -0.026041828 1.1692299 4094397
0.12848385 -0.038075954 1.1593806 5080014
0.13277063 -0.041451488 1.1569705 4883149
-0.089629896 -0.021728799 1.1653588 4028348
-0.084965564 -0.019379117 1.1667066 4028864
0.12439816 -0.028245233 1.1591678 4949202
-0.080983147 -0.0099505931 1.1669552 4029123
-0.076594062 -0.0079172924 1.1689929 3963586
0.11878088 -0.018136233 1.1603481 5146069
0.12192874 -0.022662692 1.1575259 5080276
-0.079906955 -0.0021566153 1.1651599 5342665
-0.072555393 -0.00034739077 1.1689057 4882633
-0.0090353359 0.00069863349 1.1665648 6070261
-0.0023661144 0.00041246414 1.1663158 6528744
0.004303108 0.00012630224 1.1660668 8827627
0.019864619 -0.00054142624 1.1654857 10340848
0.028570693 -0.0015517548 1.1651554 8895736
0.036035452 -0.0025724918 1.1648709 6266608
0.11030451 -0.0049726292 1.1611034 5475287
0.11456607 -0.0086655468 1.1592475 5475028
-0.068903282 0.0055055991 1.1668173 5999306
-0.06220524 0.0063287094 1.1665764 5540557
-0.053531349 0.0092988685 1.1656128 5803727
-0.040660203 0.010475025 1.167815 4950220
-0.031760275 0.0089675784 1.1674733 5016280
-0.022091208 0.0079436749 1.166707 5411294
-0.012127748 0.0075147748 1.1644937 5806569
-0.0020936374 0.0070861727 1.1657602 7120874
0.0075342814 0.0074165389 1.1660072 12379901
0.017996259 0.0064596161 1.1630843 13891069
0.027761273 0.0058062077 1.1620436 12969723
0.037743594 0.0056092814 1.1625575 9946095
0.047804523 0.0049431249 1.1625829 10013177
0.057597898 0.0064067841 1.1619917 7449069
0.064403594 0.0079479069 1.163908 5411552
0.10751051 -0.00095026195 1.1597387 6526426
-0.038470812 0.015333675 1.1677738 6264275
-0.030945824 0.015831649 1.1649979 5803990
-0.021411857 0.016063139 1.1631461 5345755
-0.011366136 0.016895033 1.1627814 5412839
-0.0017467774 0.017072603 1.1629274 5676266
0.007324066 0.015745595 1.1649398 7253489
0.017064657 0.015158281 1.1627162 8436213
0.026895382 0.012509644 1.1613301 12051453
0.041487262 0.016325615 1.1608217 10082302
0.049283355 0.015250742 1.1605245 10607102
0.057718433 0.014042698 1.1602026 7515119
0.064768806 0.013117082 1.1612685 6068200
0.00069247931 0.022518136 1.1623815 6001365
0.0051234113 0.022328012 1.1622161 6396124
0.11769632 0.023272365 1.15806 6447199
-0.0079615954 -0.20958546 1.1687999 3039391
-0.00035008788 -0.20934935 1.1700213 3039135
0.010999188 -0.21039903 1.1680918 3104930
-0.03647878 -0.19718036 1.1699566 2776478
-0.03007686 -0.19836484 1.1717114 2842271
-0.020179531 -0.20044494 1.1735117 2907807
-0.011028029 -0.20270208 1.1736689 2908063
-0.0010207985 -0.20398936 1.1743933 2973600
0.0093091791 -0.20344612 1.1735486 3105187
0.019203143 -0.20351309 1.172262 3236773
0.028925721 -0.20258513 1.171229 3237029
0.039854921 -0.20314023 1.1708869 3171237
0.04936558 -0.20448369 1.1682224 3171236
0.058917195 -0.20332867 1.1673013 3105444
0.067781433 -0.20221311 1.1660588 3171493
-0.04815305 -0.18782219 1.1736676 2841758
-0.040135823 -0.19048102 1.1741498 2907551
-0.031182742 -0.19199155 1.1766318 2842271
-0.020521255 -0.19364664 1.1774012 2908064
-0.013832064 -0.19505945 1.1771421 2973857
0.0075039277 -0.19597495 1.1763455 3105444
0.020398537 -0.19552754 1.1758721 3237030
0.030385591 -0.19636694 1.1746953 3302823
0.04006137 -0.19599916 1.1742172 3171495
0.049452223 -0.19498834 1.1734096 3105703
0.059128195 -0.19566102 1.1728374 3105703
0.068871215 -0.19556777 1.1705763 3105702
0.077197313 -0.19339986 1.1674985 3105958
-0.059140161 -0.17963529 1.1725872 2973598
-0.051070563 -0.18173292 1.1766275 2907551
-0.041200683 -0.18403459 1.1782451 2908065
0.071140498 -0.18727458 1.1740631 3237288
0.079887547 -0.18691933 1.1712962 3302823
0.088515811 -0.18522507 1.1680048 3237287
-0.067999512 -0.16798435 1.1742216 3105183
-0.060573056 -0.171702 1.1771792 2974112
-0.052310809 -0.17427024 1.1787362 2842786
0.081759349 -0.18024817 1.1737281 3171750
0.090482056 -0.17700016 1.1720978 3172008
0.098451383 -0.17555627 1.1674784 3303081
-0.075775363 -0.15794459 1.1723998 3104930
-0.069436744 -0.1605797 1.1781479 3170978
0.093375906 -0.16878128 1.1733927 3303337
0.10112424 -0.16757759 1.1708643 3368873
0.10799312 -0.16654333 1.1674119 3237543
-0.084968492 -0.14476363 1.1748495 3040164
-0.07837645 -0.14881431 1.175696 3105701
-0.072041444 -0.15353498 1.1796365 3302822
0.10316687 -0.15865129 1.1731137 3303597
0.11050196 -0.15650739 1.1684933 3238059
0.11763578 -0.15374154 1.1666145 3303852
-0.087092161 -0.13833937 1.1760927 3106213
-0.079271004 -0.14074746 1.180009 3172007
0.11194559 -0.14751899 1.1726804 3369387
0.11974148 -0.14758867 1.1685888 3435181
-0.093883313 -0.1277847 1.1739845 3237030
-0.087189332 -0.12877506 1.1780652 3237800
-0.080884591 -0.13251637 1.1801363 3303594
0.11402989 -0.14155537 1.1728525 3500972
0.12249044 -0.13761446 1.1693195 3500976
0.12711644 -0.13487494 1.1644175 3500977
-0.094556093 -0.11850172 1.1758647 3237545
-0.089823887 -0.12039818 1.179677 3303852
0.12480615 -0.12820829 1.1725636 3566772
0.1279612 -0.12864824 1.1684403 3566515
-0.096640669 -0.10869463 1.1761614 3369389
0.12607278 -0.11872038 1.1725947 3763639
0.12929076 -0.11788949 1.16759 3763639
-0.10288891 -0.09456373 1.1745906 3435181
-0.097564287 -0.098504588 1.1776017 3435438
0.12719247 -0.10767152 1.172644 3895737
0.13198315 -0.10772261 1.1672863 3764149
-0.10207073 -0.088123389 1.1756808 3435438
-0.096584797 -0.089017734 1.1795349 3501231
0.12743494 -0.10205306 1.1726813 3961530
0.13278569 -0.098264158 1.1673343 3961528
0.14000382 -0.095174663 1.1642672 3895735
-0.10136869 -0.078897461 1.1763309 3501489
-0.096991435 -0.078882083 1.1790537 3501490
0.12821084 -0.084073998 1.1728003 4159679
0.1335365 -0.088951841 1.1678326 3962041
0.14010015 -0.092942506 1.164282 3895735
-0.10155742 -0.071534716 1.1753978 3501747
-0.096520342 -0.068575501 1.1779044 3567541
0.12773702 -0.077674292 1.1728705 4225473
0.13125518 -0.078301415 1.1687323 4159424
-0.0943508 -0.058500458 1.1768395 3764919
0.12787004 -0.068798907 1.1729385 4422597
0.13169016 -0.068222448 1.168799 4357059
-0.093443938 -0.048756856 1.1767144 3896505
-0.088525504 -0.048881363 1.1811062 3962298
0.12820326 -0.058180913 1.1730134 4685767
0.13212512 -0.058143482 1.1688657 4422851
-0.091659181 -0.039687067 1.1748931 4027836
-0.08638081 -0.038182717 1.1800232 4028094
0.12670974 -0.047499504 1.1710373 4948684
0.13233706 -0.049606469 1.165926 4751818
-0.089674979 -0.031648412 1.1732846 4093632
-0.083747439 -0.028488576 1.1789417 4094399
0.12049922 -0.036835928 1.1734738 5080784
0.1245817 -0.038047422 1.1685094 5211343
-0.080194935 -0.020180956 1.177395 4094402
-0.073447451 -0.01742132 1.1798064 4226244
-0.066857636 -0.016037941 1.1805748 4620744
-0.012907691 -0.017227091 1.1785694 5412064
0.0095512494 -0.018190764 1.1777308 6463211
0.017444592 -0.022370346 1.1774045 6397929
0.027144164 -0.022145219 1.1770476 6397929
0.036446553 -0.02063141 1.176716 6003432
0.11780763 -0.027416453 1.1711489 5081042
0.12267312 -0.030696683 1.1654381 5081041
-0.071942598 -0.0096328333 1.1746777 4160963
-0.063643366 -0.0090868175 1.1796552 4752075
-0.048454039 -0.0066956654 1.1799707 4949201
-0.041740611 -0.0075466186 1.1797155 5016022
-0.032247551 -0.0090702176 1.1786847 5213659
-0.022492515 -0.010390013 1.1777484 5411552
-0.012680074 -0.01159659 1.1778067 5740773
-0.0025587007 -0.012042291 1.1782292 6003172
0.0075320303 -0.012469575 1.1774522 6331366
0.01751902 -0.012855306 1.1744777 6989552
0.027619416 -0.013295561 1.1745008 6792432
0.037665911 -0.01371479 1.1734753 5937640
0.046262927 -0.013182871 1.1754134 5806054
0.057054475 -0.012348674 1.1760218 5674725
0.06384065 -0.011514083 1.1757777 5674983
0.10949162 -0.016005903 1.1740521 5146841
0.11519999 -0.018276878 1.1681039 5080789
-0.068250224 -0.0012596175 1.1727419 4554184
-0.064662367 -0.00060628355 1.1756167 4751049
-0.049311452 -0.0010167509 1.1780477 4818129
-0.041910075 -0.0013267472 1.1769708 5015507
-0.032509983 -0.0016938299 1.1732177 5147609
-0.022466147 -0.0021117181 1.1715418 5346018
-0.012760827 -0.0029280856 1.173789 5937898
-0.0023523495 -0.0041233003 1.1736166 6462952
0.0080866674 -0.003816925 1.1723435 8303605
0.017403701 -0.0043130741 1.1709782 8501495
0.027173143 -0.0057057664 1.1697917 7252467
0.038518451 -0.0056549013 1.1702121 6069484
0.047730923 -0.0049672946 1.1707389 6135528
0.057924859 -0.0058093071 1.1734532 5741031
0.06736654 -0.0060289204 1.1746916 5543655
0.076923385 -0.0051476136 1.175346 5477092
0.087029532 -0.0042534247 1.1749796 5739747
0.098372981 -0.0049903393 1.174554 5280481
0.107329 -0.0079777837 1.1705031 5015513
0.11263889 -0.010164179 1.1679794 4949463
-0.061269194 0.0051497146 1.1725364 4818122
-0.051807947 0.0057376325 1.1721913 5147606
-0.043100968 0.0061094612 1.1718723 4818639
-0.034501031 0.0040011257 1.1715368 5344472
0.010136658 0.0026448593 1.1698747 12971007
0.014573937 0.0018953755 1.1697043 12905215
0.039111413 0.0008425042 1.1687881 5807584
0.052495502 0.00026821345 1.1682884 6004710
0.058591485 0.0009650588 1.1680685 5807083
0.067554921 0.0030445084 1.169889 5477863
0.07612019 0.0022243708 1.1721005 5542628
0.087907471 -0.0012890399 1.1749715 5673698
0.098488472 0.00022745878 1.1730914 5804766
0.10380114 -0.0019332469 1.1663725 5147865
0.070822597 0.010663286 1.1676959 5412324
-0.0070952531 -0.19829762 1.1808691 3039650
-0.00068448484 -0.19921818 1.1806245 3039650
-0.027036151 -0.1895349 1.1816788 2842271
-0.020275651 -0.189825 1.1814263 2973857
-0.0099673644 -0.19136812 1.1822964 2973857
-0.00025981106 -0.19354746 1.1831834 3039395
0.010438697 -0.19206521 1.1820508 3171237
0.019765018 -0.19104117 1.1810027 3237030
0.0301353 -0.19093832 1.181092 3302569
0.038447313 -0.19143495 1.1805753 3237546
-0.046221972 -0.17822266 1.1824814 2908065
-0.038698353 -0.17951371 1.1821924 2973857
-0.030069327 -0.18165603 1.1828564 2973857
-0.020379191 -0.18398207 1.1835973 2973858
-0.012066033 -0.18518114 1.1851636 3105444
0.019589467 -0.18653943 1.1839815 3237030
0.031336948 -0.1855323 1.1835554 3302825
0.040262558 -0.18545771 1.182918 3171754
0.05001919 -0.1863839 1.1808559 3171752
0.060342759 -0.18639913 1.1798853 3171753
0.068886183 -0.18364242 1.1791799 3237546
0.077160105 -0.18158039 1.1778901 3303592
-0.056974359 -0.16829428 1.1829606 2908579
-0.04881341 -0.17082965 1.1846393 2908579
-0.039024286 -0.17272703 1.1851715 3105444
-0.030423114 -0.17487293 1.1859274 3105443
0.064071625 -0.17938092 1.1823951 3303339
0.072140902 -0.1774428 1.1807783 3303082
0.080537669 -0.17567879 1.1783855 3237545
0.086563379 -0.1729472 1.1776133 3303850
-0.065501779 -0.15663253 1.1833719 3302822
-0.059002407 -0.16123578 1.1853453 3040165
-0.051984794 -0.1653339 1.1868032 3040167
0.075767748 -0.17081559 1.1820328 3303598
0.081958175 -0.16707622 1.1808928 3238061
0.090526059 -0.1653666 1.1786408 3303596
0.098268807 -0.16328318 1.1772597 3369131
-0.0748128 -0.1456902 1.1838063 3171751
-0.068501979 -0.14960678 1.1849535 3368615
-0.061671555 -0.15358427 1.1872581 3171751
0.10041956 -0.15680426 1.1787344 3369134
-0.0764805 -0.13855873 1.1839266 3369130
-0.070345029 -0.14080372 1.1866833 3434922
0.10201759 -0.14720885 1.1803029 3435183
-0.077783026 -0.12990534 1.1853801 3434923
0.10507695 -0.14023975 1.1803995 3501232
0.11193909 -0.13739483 1.1795568 3435694
0.11864002 -0.13591765 1.1767311 3501232
-0.085524313 -0.11841711 1.1854273 3369646
-0.079915218 -0.12242633 1.1868547 3435182
0.11611065 -0.12834415 1.1808897 3567282
0.12015188 -0.12796798 1.17856 3567027
-0.093391262 -0.10535755 1.1848249 3501231
-0.088881485 -0.10950352 1.187376 3435439
0.11645241 -0.12042502 1.1809422 3829686
0.12160429 -0.11781897 1.1789939 3829431
-0.09324529 -0.10197505 1.1848474 3501231
-0.088664398 -0.098939434 1.1863706 3567024
0.12432892 -0.10855018 1.1794142 3830201
-0.092637062 -0.087881342 1.1849407 3632818
-0.089369893 -0.088755906 1.1868141 3698612
0.126876 -0.098034739 1.1787392 3896507
-0.092223465 -0.078297615 1.1850041 3633333
-0.088289678 -0.078680947 1.1876575 3764919
0.12713346 -0.087824732 1.1783133 4093886
-0.092294641 -0.069483794 1.1850792 3633334
-0.088104717 -0.068750419 1.1881325 3830201
0.12457621 -0.078086279 1.1792105 4291523
-0.087294526 -0.058463585 1.1866527 3896506
0.12451638 -0.067585513 1.1786765 4619975
-0.083606057 -0.049062498 1.1866411 4028348
0.11923529 -0.05594074 1.1813692 5146320
0.12352399 -0.058341086 1.1801901 4883148
-0.081537873 -0.039718077 1.1852119 3962814
-0.076411575 -0.038594812 1.1876047 3963072
0.1185699 -0.047066938 1.1799656 5146577
0.12218328 -0.048832577 1.177816 5080527
-0.07978452 -0.030711025 1.1849351 4028607
-0.073461533 -0.029248103 1.186848 4291526
-0.023466201 -0.029416434 1.1868654 5147865
-0.015994785 -0.029510349 1.1865883 5344731
0.00032424182 -0.029303856 1.1859864 5345501
0.0071075642 -0.029594921 1.1857331 5739743
0.017125633 -0.032249697 1.1840065 5936862
0.026178222 -0.032648601 1.1840019 5871068
0.036453135 -0.031987488 1.184628 5739228
0.054590814 -0.031632364 1.1839601 5213656
0.11707575 -0.038112231 1.1799945 4949970
-0.07144437 -0.021862775 1.1846993 4422856
-0.062752947 -0.017480992 1.1862333 4686797
-0.052344188 -0.016799584 1.1860359 4884690
-0.04197111 -0.018694252 1.1871377 4950486
-0.031595945 -0.019893654 1.1859101 5213659
-0.023159558 -0.021415889 1.1837176 5279707
-0.013049256 -0.022990704 1.183731 5345244
-0.0028332993 -0.021794707 1.183274 5411808
0.0069548078 -0.023328178 1.1826972 5806052
0.016107747 -0.026843235 1.18142 6068964
0.028110195 -0.027734771 1.1809688 6068963
0.038267829 -0.025793858 1.1815327 6003173
0.046817519 -0.024446495 1.1821051 5608417
0.057023324 -0.024897687 1.1823243 5411038
0.063928179 -0.025232628 1.1836673 5279709
0.10858999 -0.025384538 1.1810904 5212630
0.11400772 -0.029199421 1.1791137 5015248
-0.058881722 -0.01195316 1.1843162 4949712
-0.052121215 -0.012243249 1.1840637 4949713
-0.04198046 -0.01267837 1.1836849 5016279
-0.032607101 -0.013457097 1.1833318 5213659
-0.024001116 -0.014579415 1.1830044 5345501
0.048698597 -0.017134085 1.1802943 5871590
0.057173558 -0.016932942 1.1799825 5871847
0.067584455 -0.015158251 1.1816134 5543139
0.074917525 -0.014344662 1.1816348 5280225
0.09946356 -0.015423432 1.1824335 5411294
0.1051608 -0.017065793 1.179662 5279196
0.07725662 -0.0093227923 1.1793022 5411556
0.086906992 -0.0080424994 1.1789558 5412066
0.09817449 -0.008525975 1.178535 5477344
0.10483767 -0.011071049 1.1782677 5213404
0.0011329036 -0.18905282 1.1886466 3105189
-0.018803297 -0.17973076 1.1904613 3039906
-0.0091940872 -0.18228239 1.1905137 3039908
0.00034550391 -0.18386643 1.1920539 3105447
0.010875702 -0.18352368 1.1890821 3105702
0.019970985 -0.18265879 1.1880023 3171750
0.028960532 -0.18263099 1.18767 3237289
0.040487379 -0.18126471 1.1872549 3237548
0.050696597 -0.18170278 1.1868737 3171752
0.059771456 -0.18209216 1.1865348 3171752
-0.045953684 -0.16709329 1.1905687 3039909
-0.038115375 -0.16816744 1.1911594 3105701
-0.030025078 -0.17117776 1.1924932 3105443
-0.020619961 -0.17698959 1.1935531 3040163
0.010149689 -0.17739704 1.1924117 3105960
0.021579351 -0.17677179 1.191994 3105958
0.030698169 -0.17564498 1.1908654 3237545
0.041085005 -0.17502147 1.1893909 3237547
0.051106803 -0.17513493 1.1885136 3237544
0.061167754 -0.17533976 1.1882241 3237545
0.069854543 -0.17371576 1.1868979 3303339
-0.056777231 -0.15719001 1.1910504 3172009
-0.048415788 -0.16073182 1.1931137 3105961
-0.039131202 -0.16335876 1.1943498 3171752
0.044746686 -0.16838413 1.191206 3303337
0.051575653 -0.16867715 1.190951 3303593
0.061698623 -0.1681335 1.1905811 3303594
0.070957921 -0.1659054 1.189006 3303596
0.077732645 -0.16466746 1.1860137 3238062
-0.063783146 -0.14836031 1.1913821 3434409
-0.058022439 -0.15039077 1.1939778 3237547
-0.049755394 -0.15312639 1.1948268 3237805
0.072279274 -0.15866241 1.1902676 3238318
0.08164648 -0.15612131 1.1888212 3238572
0.091701664 -0.15632698 1.1867664 3434926
0.098173641 -0.155992 1.1853288 3369134
-0.065685399 -0.13924658 1.192759 3435179
-0.059752047 -0.14152884 1.1948472 3369388
0.086605176 -0.1496418 1.1898118 3500977
0.092333637 -0.14633873 1.1886263 3435186
0.097671114 -0.14656949 1.1854249 3500720
-0.073732749 -0.1281475 1.192917 3566511
-0.068101957 -0.13128181 1.1943507 3566767
-0.060962453 -0.13418165 1.1953971 3500977
0.094142899 -0.13877973 1.1891218 3501234
0.10202298 -0.13665566 1.186096 3501490
-0.082780957 -0.11456603 1.1923625 3566770
-0.076132894 -0.11945606 1.1946783 3632306
-0.069674537 -0.12467963 1.1957974 3632563
0.10426338 -0.12809192 1.187923 3699127
0.11167249 -0.12710747 1.1855379 3633076
-0.083709665 -0.10893922 1.1934438 3566770
-0.077642024 -0.11011886 1.1962118 3763892
0.1055983 -0.1190786 1.1893605 3633335
0.11226911 -0.11715223 1.1866834 3764407
-0.083340116 -0.098877557 1.1953142 3698868
-0.078984976 -0.099684738 1.1963472 3699126
0.10668348 -0.10714442 1.1894184 3962811
0.11316583 -0.10750332 1.1880082 3830969
0.12076471 -0.10802879 1.1848874 3830714
-0.084151953 -0.088865243 1.1935482 3699126
-0.07880646 -0.089676745 1.1964229 3830712
0.11431325 -0.097606972 1.1886141 4028606
0.12233297 -0.098023638 1.1849117 3962300
-0.08313863 -0.079419076 1.1942657 3830970
-0.078142628 -0.079327345 1.1964834 3962813
0.11499728 -0.088573582 1.1892635 4291522
0.12274991 -0.088469058 1.1853387 4094399
-0.083001308 -0.06934762 1.1944578 3962044
-0.078060567 -0.069876671 1.196558 4093630
0.11703215 -0.07790482 1.1890091 4554438
0.12170027 -0.07882636 1.1850928 4357059
-0.081959546 -0.059337009 1.1941203 4093886
-0.077257916 -0.058826871 1.1966192 4291009
0.11563414 -0.067286581 1.1885254 4686026
0.12153494 -0.067609616 1.1851912 4685769
-0.080086686 -0.052135032 1.192776 4159935
-0.074880816 -0.049906548 1.1954609 4225985
0.10884613 -0.057032157 1.1897502 5015248
0.1147702 -0.058544215 1.1868502 5014991
-0.071473554 -0.040220708 1.1946745 4292037
-0.066135667 -0.042677771 1.1963404 4619977
-0.043077536 -0.036821023 1.1955358 5279449
-0.035110421 -0.037162881 1.1952382 5016538
-0.022639809 -0.038839001 1.1947632 4950743
-0.013205094 -0.040921818 1.1943971 4950488
-0.0041153952 -0.04115523 1.194059 5147351
0.0063587017 -0.040653806 1.1936756 5278422
0.016778048 -0.043411627 1.1923782 5212886
0.026111603 -0.043143168 1.1911733 5278423
0.036123186 -0.042737935 1.1913067 5147094
0.047035918 -0.043621734 1.1921467 4885460
0.056545764 -0.042519558 1.1910763 4950741
0.065691262 -0.042400975 1.1914667 5016279
0.10773172 -0.047112696 1.188472 5212370
0.11496989 -0.048563939 1.1855905 5212369
-0.069098912 -0.033348165 1.1945254 4423370
-0.066905953 -0.030241705 1.1940695 4554187
-0.042404942 -0.031820998 1.1952851 5147610
-0.032594904 -0.031500496 1.1931903 5081818
-0.023601482 -0.034163192 1.1928358 5016538
-0.012401562 -0.033206716 1.1925628 5278938
-0.003283821 -0.03299094 1.1922274 5344730
0.0070922049 -0.034308352 1.1907653 5673948
0.017166436 -0.036975443 1.1893033 5805277
0.026241291 -0.037364833 1.1889645 5541848
0.036499493 -0.036667775 1.1885908 5475544
0.046806671 -0.034835637 1.1882246 5213397
0.057443671 -0.035920322 1.1885285 5082070
0.067215487 -0.035568446 1.1898654 5016536
0.076292589 -0.033792861 1.1911453 5213915
0.087065935 -0.033277124 1.1907511 5279453
0.097972609 -0.034201518 1.19034 5213659
0.1072097 -0.037509698 1.1883701 5212628
0.11373374 -0.037707396 1.1857255 5146833
-0.066384092 -0.024292715 1.192498 4554443
-0.041122988 -0.023557097 1.1915697 5016281
-0.033902287 -0.024776697 1.1912925 5147611
-0.0028600972 -0.02701845 1.1901259 5411294
0.068044096 -0.025512017 1.1875156 5148123
0.076759808 -0.0258919 1.1873903 5213915
0.086826719 -0.026564047 1.1885526 5213917
0.097590059 -0.026963823 1.1887283 5213659
0.10543486 -0.029021569 1.1864374 5212887
0.098587535 -0.019999325 1.1864312 5279708
0.10312497 -0.020194016 1.1862618 5411037
-0.01484294 -0.1780141 1.1983346 3106213
-0.0091283657 -0.17825931 1.1981212 3105959
0.0021093022 -0.17939624 1.1976962 3105706
0.012587011 -0.17919108 1.1973103 3105960
-0.025404489 -0.17068619 1.1987854 3105700
-0.018013148 -0.17225991 1.1992496 3105957
-0.0088650752 -0.17265245 1.1989081 3106216
0.0014551561 -0.17322196 1.1993723 3106217
0.012095715 -0.17316157 1.1988077 3171752
0.019989755 -0.17300346 1.198179 3303337
0.031268496 -0.17082636 1.1966881 3369130
0.038125977 -0.17112061 1.196432 3369132
-0.037490927 -0.15894671 1.1996626 3171753
-0.027847664 -0.16179422 1.2016709 3171752
-0.017506739 -0.16253534 1.2033638 3172010
-0.0083562993 -0.16421551 1.2039622 3172012
0.001712976 -0.16423744 1.2043856 3237802
0.012374176 -0.16398826 1.2034475 3303338
0.02156969 -0.16441238 1.2033041 3369133
0.03181481 -0.16460511 1.2012023 3369388
0.041922815 -0.16469762 1.2001365 3303853
0.051169075 -0.16390297 1.1977601 3369643
0.061239541 -0.16351777 1.195875 3303851
-0.054704592 -0.14651316 1.2000679 3303598
-0.046666928 -0.14970133 1.2014599 3303341
-0.038064644 -0.15184005 1.2045552 3303340
-0.028691357 -0.15370682 1.2070524 3369132
-0.020614414 -0.1559408 1.2067353 3303600
0.012750703 -0.15737244 1.2054893 3303598
0.025406439 -0.15791549 1.2050167 3435186
0.032884825 -0.15823638 1.2047375 3369391
0.042664256 -0.158656 1.2043723 3369392
0.052564599 -0.15615778 1.2034109 3369390
0.062031902 -0.15546478 1.1994792 3435184
0.071332894 -0.15421285 1.1953427 3369392
-0.055323914 -0.13948178 1.2009492 3369646
-0.048126943 -0.1421525 1.2054645 3303853
-0.040926322 -0.14584191 1.2075695 3173034
0.054876551 -0.14810722 1.2040073 3566773
0.063081227 -0.14714321 1.2030447 3566516
0.072850019 -0.14565399 1.1997601 3500977
0.082622923 -0.14670487 1.1966722 3500975
-0.064989299 -0.12708448 1.200608 3632562
-0.056146868 -0.13056608 1.2032545 3501236
-0.048484303 -0.13111021 1.2075254 3501494
0.075597346 -0.13671243 1.2033346 3698612
0.083050191 -0.13735226 1.2006884 3567283
0.091903746 -0.13526577 1.197673 3567283
0.099334359 -0.13249856 1.1944854 3501747
-0.071757324 -0.11713669 1.20094 3895478
-0.066201158 -0.11993633 1.2032133 3698613
-0.057214007 -0.12131295 1.2070392 3633080
0.077321172 -0.13015428 1.2033247 3699128
0.084007882 -0.12724712 1.2031013 3830713
0.093446083 -0.12725443 1.2015512 3699126
0.10006793 -0.12611359 1.1945108 3633333
-0.072718032 -0.10907494 1.2010418 3961271
-0.065816939 -0.10986861 1.2057837 3896247
-0.059094019 -0.11276671 1.2085134 3764921
0.084201314 -0.12029943 1.2031512 3962300
0.095138155 -0.11825062 1.2022926 3896506
0.1025456 -0.11662896 1.1964985 3764920
-0.073621288 -0.099719658 1.2026533 3830712
-0.066564396 -0.099636637 1.2075633 4093627
0.098583922 -0.10753694 1.2027241 4028352
0.10379818 -0.1071145 1.1971976 3962812
-0.073557436 -0.089399979 1.2032361 3962556
-0.066975072 -0.090859577 1.2085401 4028606
0.098506548 -0.09711992 1.2028126 4357317
0.10475235 -0.097548321 1.1985751 4225985
0.11015578 -0.094006017 1.1944015 4225985
-0.072678126 -0.080420911 1.2032773 4028606
-0.067707144 -0.080870427 1.209094 4094655
0.099378876 -0.089116395 1.2028461 4554695
0.1051284 -0.087169915 1.1980461 4554182
0.11127967 -0.085651778 1.1944286 4619462
-0.072956726 -0.069735713 1.2018449 4159424
-0.06471961 -0.069146961 1.2078483 4160448
-0.058306828 -0.067817271 1.2088536 4554440
0.10041542 -0.075781249 1.2029173 4620747
0.10585134 -0.077017173 1.2004545 4686026
0.11198971 -0.078043647 1.1944649 4619977
-0.071938388 -0.06010383 1.2014155 4291265
-0.063694187 -0.060503919 1.2063611 4357573
-0.058008716 -0.060909558 1.2088994 4751563
0.01612409 -0.061399195 1.2061533 4818903
0.023827355 -0.060960788 1.2058719 4819160
0.098942265 -0.067182757 1.2030425 4752590
0.10624571 -0.067823917 1.2005155 4817869
0.11119227 -0.069988899 1.1945605 4752076
-0.069540702 -0.050612289 1.2014048 4291778
-0.06339477 -0.050198369 1.2047625 4554440
-0.057660922 -0.052850571 1.2089528 4883149
-0.038943283 -0.046546571 1.2043095 5674209
-0.033209689 -0.046792593 1.2040954 5082331
-0.021917516 -0.05013141 1.2055181 4950745
-0.012779079 -0.052244611 1.2026943 4884953
-0.003613092 -0.052627433 1.202152 4753366
0.0067910198 -0.051984075 1.2029734 4884692
0.017260104 -0.054051872 1.2017241 4884692
0.026061565 -0.053710882 1.2020568 4884692
0.036384858 -0.05297859 1.2041389 4950484
0.047199782 -0.054381985 1.2019482 4950488
0.056013428 -0.054506574 1.2026154 4950489
0.06670481 -0.053523503 1.2032797 5411037
0.075723082 -0.053671882 1.2040124 5542623
0.089903906 -0.052261885 1.2034994 5213404
0.097545713 -0.055473331 1.2031903 5081558
0.1056558 -0.058047995 1.2004675 5015248
-0.063864693 -0.040380046 1.2012789 4685772
-0.041613035 -0.04087773 1.2015436 5542365
-0.032663018 -0.041442648 1.2012599 4951002
-0.023998631 -0.042834666 1.1997842 4884951
-0.014832178 -0.04510292 1.1994265 4753366
-0.0010678452 -0.044547744 1.1989219 4950484
0.0077774012 -0.045213722 1.1985893 5015763
0.037741892 -0.047358807 1.1974634 5015764
0.044599377 -0.047653053 1.1972073 4885461
0.05656065 -0.047184192 1.1967688 4884950
0.067446865 -0.046598967 1.1982183 5082072
0.076966509 -0.045887087 1.2008281 5542624
0.086570166 -0.047473948 1.2028615 5279197
0.096656114 -0.046638288 1.1996933 5213144
0.10368286 -0.049424384 1.1950073 5212627
0.071281269 -0.039631613 1.1962863 5016538
0.077069864 -0.038161311 1.1960843 5213917
0.086701088 -0.036092024 1.195745 5345245
0.096959919 -0.03884856 1.1960101 5213917
0.18819508 -0.044945274 1.199924 13158081
-0.0079670977 -0.15934302 1.2102424 3303598
0.0047304733 -0.15988785 1.2097683 3303850
-0.035904877 -0.14749773 1.2113731 3303853
-0.026205676 -0.14951384 1.2113552 3304111
-0.016677218 -0.15205511 1.2127312 3303857
-0.0076038353 -0.15277377 1.2130349 3303856
0.0028157895 -0.15325396 1.2128958 3369903
0.01315969 -0.15214893 1.2095201 3435441
0.022172671 -0.15344927 1.2091761 3435187
0.032661408 -0.15326124 1.2087896 3500978
0.043172136 -0.15343672 1.2083994 3369649
0.049937002 -0.15210688 1.20816 3435441
-0.043739751 -0.13967814 1.2117271 3370159
-0.03723181 -0.14072886 1.2114779 3370416
-0.026820971 -0.14145359 1.2133384 3436469
-0.016375227 -0.14224316 1.2156975 3502005
-0.0071025956 -0.14264104 1.2153512 3501749
0.0031789523 -0.14656819 1.2149386 3501493
0.013710395 -0.14337569 1.2133245 3567542
0.023019364 -0.14389393 1.213914 3567541
0.033377491 -0.14418933 1.2123401 3633333
0.043631263 -0.14431204 1.2093955 3567541
0.052210808 -0.14394362 1.2081431 3633079
0.062326089 -0.14219037 1.2077833 3632566
-0.043758959 -0.13119096 1.2117976 3501750
-0.036832519 -0.13177581 1.2140384 3567798
-0.028379569 -0.13270026 1.21622 3633848
-0.014965879 -0.13649367 1.2156926 3633591
-0.0080114026 -0.13679208 1.215433 3699128
0.014061152 -0.13657719 1.2146183 3830714
0.024492864 -0.1370248 1.2142287 3764921
0.03401719 -0.13648275 1.2138809 3830712
0.04458265 -0.13601829 1.2131366 3830713
0.053280719 -0.13608904 1.2125045 3830458
0.06353195 -0.13624945 1.2101576 3764409
0.07164266 -0.13504846 1.2080534 3764407
-0.05229412 -0.11994678 1.2122058 3698874
-0.045635715 -0.12093239 1.214203 3764923
-0.037019022 -0.12201357 1.2166274 3765435
-0.030792544 -0.12651859 1.21636 3699641
0.062706493 -0.13053052 1.2128687 3896252
0.072914973 -0.12647852 1.2099035 3831226
0.080202423 -0.12609492 1.2072544 3830458
-0.054494008 -0.11040404 1.2131556 3896508
-0.04520987 -0.11079404 1.2170225 4028352
-0.037358165 -0.11182814 1.2167236 4094143
0.074575856 -0.11662836 1.20897 4159936
0.083886497 -0.11576079 1.207203 4028352
0.091968045 -0.11473817 1.2069125 3962559
-0.062086403 -0.1003166 1.2127293 4093628
-0.055169746 -0.1006827 1.213221 4028352
-0.044806212 -0.1014877 1.2167714 4094401
-0.038016692 -0.10017993 1.2168437 4225986
0.076516524 -0.1075433 1.2111821 4357317
0.084788479 -0.10687337 1.2100573 4225732
0.093526542 -0.1067623 1.2069205 4159938
-0.062655672 -0.090538383 1.2128307 4028609
-0.054441325 -0.09097252 1.2138879 3963330
-0.044990242 -0.091459654 1.2171733 4160708
-0.038713709 -0.094804846 1.2169137 4292035
0.079762615 -0.094078533 1.2125374 4620236
