# .PCD v0.7 - Point Cloud Data file format
VERSION 0.7
FIELDS x y z rgba
SIZE 4 4 4 4
TYPE F F F U
COUNT 1 1 1 1
WIDTH 1131
HEIGHT 1
VIEWPOINT 0 0 0 1 0 0 0
POINTS 1131
DATA ascii
0.16954207 -0.12248191 1.0840635 13422807
0.17261031 -0.11950393 1.0838851 13619661
-0.13924156 -0.093517371 1.0948226 3104162
0.15919936 -0.11039393 1.0849876 2973607
-0.1381599 -0.085232146 1.0948348 3169952
0.16018435 -0.10027067 1.0868533 2843043
-0.13950944 -0.075499922 1.0938032 3301299
-0.13058311 -0.15379712 1.1072414 4750553
-0.12698548 -0.15615313 1.1091756 1196192
-0.13234897 -0.14651987 1.1039237 3036848
-0.12838846 -0.14885907 1.1090477 1789334
0.15535702 -0.15907168 1.0969515 12898004
-0.13071676 -0.13566044 1.1050277 2776475
0.1562627 -0.15003797 1.0956004 9087435
0.16217209 -0.14577655 1.0918893 13488846
-0.13244095 -0.12483186 1.1046029 3038106
0.15660439 -0.1394209 1.0943307 4354994
0.16444921 -0.13790676 1.0916197 13752800
-0.1337851 -0.11500899 1.1058576 2973083
0.15708756 -0.12964073 1.0949857 2121388
-0.13810295 -0.10134578 1.1012282 3301280
-0.13484405 -0.10637092 1.1048764 3039132
0.15813607 -0.12167966 1.0926137 2646946
0.17465885 -0.11720717 1.0937674 13817039
-0.13779394 -0.095058337 1.1010653 3366820
-0.13510248 -0.095530458 1.1059879 3105183
0.15723416 -0.10928357 1.0958815 3631271
0.17581262 -0.11515819 1.0936778 13817037
-0.13724463 -0.083880655 1.1007757 3499424
-0.13447584 -0.084940881 1.1045088 3302563
0.15737699 -0.09904927 1.0948693 3369127
-0.13398349 -0.075462587 1.1039621 3434147
0.15979271 -0.089551583 1.0955244 2908578
0.16559993 -0.087260514 1.0933567 8233160
-0.13815327 -0.064158663 1.1011877 3365295
-0.13279763 -0.065561824 1.1040277 3499689
0.16104406 -0.080034047 1.0949883 4024485
0.16601305 -0.078854427 1.0931389 11192030
-0.13611223 -0.055317912 1.1030477 2181536
-0.13084543 -0.055408172 1.1040684 3433908
0.16062136 -0.074511781 1.0972245 2708114
-0.13395602 -0.047093615 1.1067775 8233201
-0.13025028 -0.048443303 1.1049659 3564980
0.020392966 0.1171272 1.0934459 9935247
0.026139837 0.11774264 1.0932317 9934992
-0.12151244 -0.16512284 1.1179028 929696
-0.1172732 -0.16562876 1.1200777 1984411
0.14486232 -0.17446803 1.1112001 13424882
-0.12213333 -0.1555794 1.115399 2512540
-0.11749892 -0.15762691 1.1185575 2906513
0.14638963 -0.16867918 1.1085604 8955594
0.15197739 -0.16770604 1.1047844 14080986
-0.12856233 -0.14114588 1.1158732 2381461
-0.12564138 -0.14642791 1.117839 2776212
0.14703713 -0.1591336 1.1070703 3697834
-0.1286891 -0.13519126 1.1165675 2841752
-0.12666444 -0.13953568 1.119772 2906774
0.14939123 -0.14931291 1.1072314 2646183
-0.13002102 -0.12452675 1.1173803 2907034
-0.12614104 -0.12888543 1.119496 2775704
0.15043399 -0.14059383 1.1080852 3696546
0.15268782 -0.1361807 1.1073329 3761571
-0.13062318 -0.11507277 1.1157584 2973083
0.15463975 -0.13018972 1.1064531 3368880
-0.13123342 -0.10483861 1.1149869 3039134
0.15549155 -0.11862347 1.1057492 3500454
-0.13090786 -0.094403207 1.1144228 3171232
0.15487112 -0.11011975 1.1065788 3631529
-0.13105816 -0.085636668 1.1135153 3302564
0.15372922 -0.099770725 1.1020784 3697839
0.15423721 -0.099970043 1.1050683 3763633
-0.13060531 -0.075074077 1.1140445 3368355
0.15534459 -0.088767022 1.1044728 3436468
0.16982047 -0.085855782 1.1041862 10992842
-0.12775913 -0.06478937 1.1136969 3697068
0.15398888 -0.075633734 1.1084914 3765679
0.15689453 -0.078406118 1.1036353 3830452
0.16967545 -0.081593215 1.1040881 11387079
-0.1263575 -0.057133559 1.111261 3631022
-0.12404507 -0.054049708 1.1106057 3500456
0.15359314 -0.068765871 1.1054474 3830449
0.16018756 -0.069653735 1.1027585 5207985
0.1667874 -0.070891351 1.1065983 10334913
-0.12593298 -0.045066301 1.1130276 3434161
0.153164 -0.059811551 1.1049914 3893939
0.16019438 -0.060668238 1.103966 8428221
-0.12557238 -0.034952551 1.1163448 6194370
-0.12089808 -0.033059865 1.1169947 4421311
0.1516792 -0.04784742 1.1068071 5734064
0.15782838 -0.051803812 1.1077814 10203587
-0.11924002 -0.026470028 1.1167778 6852289
0.15041421 -0.041911744 1.1045964 8955077
0.026774859 0.094077669 1.1087959 9737616
-0.092434898 -0.2030794 1.1284636 7635861
-0.088988021 -0.20367581 1.1310275 8100012
-0.10209626 -0.19259834 1.131214 10535920
-0.095294148 -0.19567867 1.1286976 5996227
-0.088811845 -0.20009087 1.1309346 6394567
-0.11182344 -0.18127388 1.1232702 8431615
-0.10486048 -0.18399653 1.1258663 1526185
-0.09866412 -0.18659571 1.1298058 1262491
0.12485251 -0.19496402 1.1234001 11717846
-0.11994435 -0.17230374 1.1233346 7571711
-0.11303027 -0.17488036 1.1247141 1917611
-0.10605742 -0.17765456 1.1283207 2379673
-0.099364474 -0.18087555 1.1308355 2644619
0.12677695 -0.18818077 1.1231692 5010097
0.13410512 -0.18566114 1.1197084 10599906
0.14122526 -0.18482785 1.1185833 14081762
-0.11257018 -0.16599579 1.1271405 2709143
0.12833817 -0.17764872 1.1228601 2909858
0.13486788 -0.1775987 1.1188109 4026283
0.14231509 -0.17825906 1.1148834 12307424
-0.11894722 -0.15201405 1.1228089 2775446
-0.11467807 -0.15636979 1.1256781 2775442
0.13658415 -0.16870743 1.119355 3105445
0.14138789 -0.16824535 1.1141727 2578854
-0.12054831 -0.1446721 1.1248426 2775449
-0.11630081 -0.14717561 1.1292727 2906778
0.13943967 -0.15900433 1.1204224 3564451
0.1426965 -0.15829207 1.1162887 3433893
-0.12392925 -0.13578731 1.1258861 2840984
0.14139074 -0.15086913 1.1217592 3565217
0.14508504 -0.14907335 1.1162496 3499430
-0.12825866 -0.12371532 1.122447 2841497
-0.12515996 -0.12549452 1.128388 2907290
0.14795937 -0.13852422 1.11823 3237547
-0.12791871 -0.11422565 1.123807 2973083
-0.12506168 -0.11473724 1.1281242 3038877
0.15156278 -0.12897876 1.1190568 3827369
0.15405807 -0.12819992 1.112764 3564710
-0.12844205 -0.10418864 1.1248405 3039391
-0.12576838 -0.10613966 1.1286079 3170977
0.15231986 -0.11892354 1.1186051 3565735
0.15447791 -0.11965691 1.1125427 3500198
-0.12809183 -0.095950983 1.1267737 3170977
0.15300643 -0.10994817 1.1176969 3631790
0.15409833 -0.11161394 1.1203684 3434923
-0.12776333 -0.085430101 1.1255068 3302823
0.15323858 -0.098492295 1.1175784 3566513
-0.12728783 -0.075477496 1.1239148 3368614
0.1527908 -0.089203879 1.1174076 3632560
-0.12636063 -0.067775965 1.1250308 3565995
0.15204939 -0.079021871 1.1159139 3895728
-0.12263651 -0.052857947 1.126142 3697842
0.15015273 -0.06899821 1.1142691 4158132
-0.12061277 -0.044679362 1.1246364 3502262
0.14958881 -0.058260579 1.1152298 4027837
-0.11752525 -0.03532555 1.1237165 3698611
0.1454424 -0.04649337 1.1190923 4619197
0.15089396 -0.05001216 1.113445 4946612
-0.12358792 -0.02867426 1.1199846 7180220
-0.11561702 -0.025885284 1.1268471 4815032
0.14565241 -0.040033318 1.1182615 5209534
0.15020069 -0.038696568 1.1107315 8425655
0.02779731 0.090073936 1.11186 9474444
-0.065737322 -0.21453127 1.13749 8300241
-0.083644569 -0.20552737 1.1342536 7642055
-0.076123103 -0.20650618 1.1361548 4815810
-0.069493249 -0.21025217 1.1375167 5210825
-0.092195466 -0.19318449 1.1338875 932767
-0.085348666 -0.19693041 1.1354264 2382238
-0.076814592 -0.20033979 1.1375308 2251168
0.10653862 -0.20625517 1.1313148 6518691
0.11236657 -0.2055566 1.129666 11319227
-0.09352462 -0.18632188 1.1356359 2447513
-0.088236332 -0.19000535 1.1376768 2513045
0.11462402 -0.19742972 1.1297672 4617903
0.1215528 -0.1978689 1.1265875 10929103
-0.10243809 -0.17484963 1.1352549 2971544
-0.096702278 -0.17889103 1.1356996 2774929
0.11712645 -0.18829444 1.1288447 2909086
0.12198956 -0.18764865 1.126325 3105187
-0.1093625 -0.16133763 1.1337121 2709911
-0.10491595 -0.16656339 1.1360394 2644371
0.12400843 -0.17790908 1.1266352 3368356
-0.11130178 -0.15457241 1.1354353 2775444
-0.10651387 -0.15891728 1.1362238 2709910
0.12893865 -0.16825479 1.127216 3368613
0.13322796 -0.16554272 1.1254002 3499683
-0.11410013 -0.1458627 1.1350032 2841497
0.13118368 -0.16084129 1.1293608 3237027
0.13594522 -0.15843654 1.1264684 3302821
-0.11948402 -0.13401608 1.1339738 2645144
-0.11600178 -0.13585231 1.1364393 2775964
0.13957629 -0.14865276 1.1269549 3237542
0.1438036 -0.1453032 1.125878 3106215
-0.12086874 -0.12551725 1.1347001 2907291
0.14143284 -0.13917193 1.1271464 3499683
0.14457369 -0.13738601 1.1254691 3303338
-0.12133266 -0.11553458 1.1354208 3039134
0.14661154 -0.12898183 1.1254641 3499947
-0.1258527 -0.10105861 1.132825 3236770
-0.12379226 -0.10536934 1.1361942 3236770
0.14886972 -0.1185671 1.1255405 3500458
-0.12553473 -0.094588585 1.1326574 3237027
-0.12369128 -0.094939344 1.1366055 3302821
0.15176602 -0.10814132 1.1256557 3632048
-0.12505779 -0.084883556 1.132406 3302824
-0.12323923 -0.085741147 1.1363672 3302569
0.15047394 -0.099182203 1.1253796 3632047
-0.12504387 -0.07580395 1.1321857 3434408
-0.12201706 -0.073482037 1.1360281 3434665
0.14761662 -0.0879917 1.1248438 4026292
-0.12410389 -0.065473482 1.1319031 3631531
-0.1222022 -0.064639404 1.1358205 3631531
0.14806722 -0.080064215 1.1232615 4157366
-0.12378593 -0.059003461 1.1317354 4025255
-0.12031057 -0.053990625 1.1337813 3632304
0.14809459 -0.068276688 1.1225303 4289211
-0.11643472 -0.045198932 1.1328622 3568048
0.14549558 -0.057351325 1.1230233 4094399
0.14765371 -0.061816022 1.1243911 4224702
-0.11489099 -0.039269872 1.1309493 3764911
-0.11115837 -0.035073046 1.1332204 3895729
0.14338398 -0.048796244 1.1236781 4487616
-0.11511073 -0.021058865 1.1335188 6458567
-0.11038971 -0.025086738 1.1328521 3895996
0.14381886 -0.037797805 1.1223413 5735616
0.15081546 -0.034902144 1.1216282 9477559
-0.11450614 -0.018377878 1.1344339 6852289
-0.11126059 -0.018540196 1.1343251 5933254
0.060009465 0.07449501 1.1221297 9474701
-0.029136367 -0.22651148 1.1485214 7248329
0.0035464969 -0.22975981 1.1466658 5801654
0.011592058 -0.22904557 1.1458356 5210039
0.02437965 -0.23028415 1.1467566 6328255
0.032032475 -0.23066688 1.1465006 7379645
0.043578416 -0.23112252 1.1461111 8430007
0.051464006 -0.22984535 1.141803 8625323
-0.066853076 -0.21669938 1.1415849 9678537
-0.055820886 -0.21708378 1.1477437 4422071
-0.04648174 -0.21818957 1.1489216 2778029
-0.036825161 -0.22048911 1.1486423 2513574
-0.029357474 -0.22357711 1.1484581 2315684
0.00048914831 -0.2258006 1.1474768 2120102
0.012515012 -0.22640204 1.1470742 2185635
0.025687881 -0.22596461 1.1466068 2186146
0.031100433 -0.22733152 1.1464521 2316696
0.046513565 -0.22590986 1.1458832 4486314
0.054010618 -0.22594136 1.143622 5997746
0.065314993 -0.22352216 1.1440294 6063288
0.074081555 -0.22246516 1.1448437 6589614
0.082160905 -0.22308847 1.1445785 8757678
-0.0716943 -0.20448251 1.1414571 1855898
-0.064995617 -0.20724466 1.1445327 2249885
-0.057299394 -0.20983723 1.1483667 2381985
-0.049263407 -0.21235001 1.1488768 3039902
0.068342686 -0.21658733 1.1449004 2841504
0.074382499 -0.21634127 1.144685 3302564
0.083996356 -0.21459901 1.1429749 4420011
0.093671128 -0.21436247 1.1382487 6984117
0.10314953 -0.21213812 1.1355784 6254993
-0.082277283 -0.19340287 1.1423568 2710418
-0.074600786 -0.19696102 1.1457608 2775447
-0.067900896 -0.19945437 1.1484103 2906776
0.086859763 -0.20681779 1.1436213 3171492
0.095326036 -0.20593879 1.1405039 3237285
0.10356133 -0.20524482 1.1359692 3629215
-0.08468011 -0.18622375 1.1462698 2775191
-0.076641485 -0.19005513 1.1486194 2906012
0.097785026 -0.19680828 1.1417323 3040421
0.104682 -0.19555642 1.1380738 3105703
0.11046398 -0.19617471 1.1349382 2777257
-0.09945932 -0.17152414 1.1416223 2710677
-0.09277302 -0.17565544 1.145023 2709909
-0.086657777 -0.17950907 1.147377 2709910
0.10636699 -0.18716091 1.1413944 3368100
0.11387409 -0.18581349 1.1367044 3302561
-0.10025653 -0.16485333 1.1446024 2710421
-0.095478117 -0.16784109 1.1486015 2644886
0.10885337 -0.17947757 1.1425972 3040936
0.11696197 -0.17683539 1.1401632 3237031
0.12339701 -0.17432901 1.1369636 3368615
-0.10935524 -0.15143418 1.1414794 2776209
-0.10398822 -0.15606503 1.1461595 2841240
0.11947984 -0.16841324 1.1419609 3237287
0.12585607 -0.16663685 1.1365492 3302822
-0.10987055 -0.14463241 1.14587 2710683
-0.10524769 -0.14808649 1.1485957 2841499
0.12861645 -0.1582837 1.1388083 3237541
0.13358103 -0.15591329 1.1347635 3237798
-0.11155467 -0.13596883 1.1463287 2907293
0.13081825 -0.14955249 1.1411111 3237797
0.13549526 -0.14737031 1.1358916 3303334
-0.1174162 -0.12407125 1.1422404 2907805
-0.11509158 -0.12566827 1.1482611 2907805
0.13788061 -0.1380516 1.1381412 3434407
-0.11740491 -0.11471648 1.1435388 3039392
-0.11466399 -0.11589886 1.1488105 3039391
0.14028621 -0.12859368 1.1377016 3500202
0.14438464 -0.12602265 1.1320639 3631274
-0.1200345 -0.10536055 1.1452719 3170979
0.14281233 -0.11838805 1.139496 3631791
0.14602645 -0.11812912 1.1335952 3566510
-0.11988913 -0.094977714 1.1461976 3105957
0.14249444 -0.10727948 1.1380148 3632305
0.14746234 -0.10878126 1.1318735 3501227
-0.11985719 -0.085003525 1.1436673 3237546
0.14245242 -0.098220602 1.1369174 3698099
0.14686778 -0.098952398 1.1317229 3698094
-0.11874855 -0.075295582 1.1436322 3434923
0.14416055 -0.089009434 1.1371812 3895479
0.14609241 -0.091272429 1.1311636 3895477
-0.11783564 -0.064858221 1.1439675 3566256
0.1450198 -0.077704817 1.1382122 4027579
0.14742202 -0.07733494 1.1347836 4157882
-0.11643164 -0.056029912 1.1429482 3567024
0.14343402 -0.068092115 1.1375244 4159422
0.14759532 -0.068561777 1.1329639 4289724
-0.11371446 -0.046376672 1.1404222 3567791
-0.11033686 -0.044471629 1.1455971 3764403
0.14216822 -0.058020636 1.1358329 4356797
-0.10837126 -0.035784129 1.139218 3830196
0.13994816 -0.04834218 1.1347414 4619718
-0.10628495 -0.024916343 1.1412222 3896507
0.13646512 -0.036251578 1.135059 4817095
0.14084466 -0.037131891 1.1317033 4948420
-0.11339171 -0.015350521 1.1423291 6916535
-0.10595264 -0.016261302 1.1417851 5210049
0.13600685 -0.029776782 1.1370312 5013440
0.14039934 -0.029639401 1.1345401 5998788
0.03935381 0.049093299 1.1343278 5859448
0.047476277 0.048716418 1.1321964 6122362
0.053136494 0.048639767 1.1350046 6319482
0.064429574 0.049446471 1.138597 5330522
0.040100127 0.053467788 1.1326709 5792108
0.047934759 0.053908132 1.1318547 5527648
0.053350717 0.052998759 1.1348916 5067354
-0.02329722 -0.22669825 1.1513261 4354997
-0.015932031 -0.22804317 1.153105 4684224
-0.0060885716 -0.22827888 1.1513013 4289976
0.004965499 -0.22654155 1.150342 2054307
0.015351623 -0.22761053 1.1500077 2777510
0.020778306 -0.22898102 1.1498526 4026798
0.037219983 -0.22980329 1.1493022 5604271
0.041137196 -0.22835055 1.1491313 4881326
-0.041736268 -0.21541312 1.1516924 3039902
-0.033828575 -0.21671435 1.1519501 2710943
-0.025371365 -0.21897542 1.1545184 2645152
-0.015534563 -0.22224104 1.1576216 2514339
-0.0056243893 -0.22264677 1.1567539 2514851
0.0043458026 -0.2206772 1.1548257 2842787
0.014158336 -0.22080085 1.1522864 2908579
0.023848908 -0.22087751 1.1524415 3039651
0.034029067 -0.22206154 1.1532292 2908578
0.043396764 -0.22166383 1.1526445 2778020
0.053412046 -0.22056186 1.1499469 2646433
0.062789783 -0.22375476 1.1482691 5012145
0.074236095 -0.22560948 1.1479169 8955830
-0.054321419 -0.20634931 1.1521955 2841242
-0.044526652 -0.20886081 1.1539661 2775960
-0.035529591 -0.21053711 1.1556296 2841500
-0.02611573 -0.21308532 1.1591015 2907551
0.0055603413 -0.21393168 1.1580234 3105184
0.014776072 -0.21402368 1.1577059 3170722
0.02470953 -0.21452045 1.1573734 3302053
0.034854069 -0.21447444 1.1570204 3170723
0.045384601 -0.21407881 1.1566457 3105188
0.054679658 -0.21379386 1.1546006 3170467
0.064145096 -0.21415812 1.1503919 3236258
0.074373789 -0.21127495 1.1480101 3171236
-0.070361435 -0.19419774 1.1521717 2906776
-0.063912481 -0.19672903 1.1531532 2907033
-0.055397954 -0.19804522 1.1565835 2841497
-0.046248242 -0.20248684 1.1595432 2775704
0.055993415 -0.20833792 1.1561388 3105443
0.064823158 -0.20877951 1.1558433 3105443
0.075737447 -0.20563683 1.1541244 3105956
0.084107488 -0.2032735 1.1502368 3105956
-0.080783725 -0.18268551 1.1522546 2644884
-0.07379812 -0.1865288 1.155108 2775705
-0.06549035 -0.18975036 1.1575669 2841497
0.07971403 -0.19845697 1.155077 3172006
0.08744055 -0.19648489 1.1537603 3040421
0.093321964 -0.19449177 1.1510059 2974628
-0.089121565 -0.17347573 1.1523209 2645144
-0.082471326 -0.17549896 1.1552007 2710425
-0.077258646 -0.17844446 1.1566052 2776216
0.097216055 -0.18603225 1.1509163 3171493
0.10218659 -0.18412979 1.1475451 3237026
-0.091671869 -0.1652562 1.1548009 2710424
-0.085285023 -0.16768453 1.1585989 2710937
0.10055755 -0.17957835 1.153897 3302823
0.1069687 -0.17589176 1.1504248 3172005
0.11287925 -0.17306559 1.1493086 3172006
-0.099861503 -0.1535212 1.1522104 2841498
-0.095427468 -0.15613824 1.1570474 2907290
0.10992986 -0.16897982 1.1533155 3303592
0.11628681 -0.16594696 1.1516871 3237544
0.12240963 -0.16207276 1.1447083 3303337
-0.10114914 -0.14494705 1.1537633 2973342
-0.096501738 -0.14814194 1.1599708 3038879
0.12031616 -0.1583603 1.1520309 3237544
0.12466088 -0.15566289 1.1472776 3303336
-0.10861856 -0.13302824 1.153019 2973342
-0.10256328 -0.13638198 1.1573942 2973600
0.12855355 -0.1466925 1.1481266 3368872
-0.10976136 -0.1250658 1.15422 3039392
-0.10418692 -0.12601835 1.1597018 3236259
0.13037603 -0.13728942 1.1495874 3500460
0.13471779 -0.13521084 1.1436313 3434923
-0.1103678 -0.11536977 1.1545428 3170978
0.13188592 -0.12840384 1.1502374 3500719
0.13657939 -0.12622219 1.1466855 3500718
-0.11647202 -0.10396375 1.1515869 3237029
-0.11252545 -0.10537736 1.1574897 3237286
0.1374473 -0.11732865 1.1492145 3697329
-0.11604096 -0.095192507 1.1513597 3237543
-0.11320528 -0.094704323 1.1587563 3172263
0.13909297 -0.10830425 1.1484333 3697843
-0.11576641 -0.085482538 1.1541178 3303340
-0.11346906 -0.084394492 1.1590163 3303852
0.13939406 -0.097853586 1.1485703 3764149
-0.11545442 -0.07580442 1.1508701 3500716
-0.11239746 -0.074382156 1.1587368 3501229
0.14279284 -0.087614238 1.1467748 3764661
-0.11469391 -0.067782387 1.1506495 3566512
-0.11120924 -0.064418375 1.1548148 3632306
0.14031395 -0.077275001 1.1465095 3896764
-0.11013651 -0.054842446 1.1545458 3698357
0.13490859 -0.066898048 1.1486439 4291265
0.13848674 -0.068390012 1.1430271 4225217
-0.10809895 -0.045937683 1.1538956 3764408
0.13613784 -0.057364851 1.1477033 4554434
0.13854343 -0.057366118 1.1416144 4488640
-0.10459518 -0.035370048 1.154319 3895997
-0.10021359 -0.03230352 1.1572957 4027323
0.13624206 -0.046588242 1.1464379 4817354
-0.10270713 -0.026011601 1.1505573 3962044
-0.098475412 -0.024864845 1.1562546 4093118
0.12764052 -0.033738345 1.1494279 5014224
0.132752 -0.036832374 1.145322 4751563
-0.10114644 -0.015703157 1.1489191 4290235
-0.096110106 -0.015709236 1.153282 4158908
-0.089707613 -0.013645701 1.1564797 4028609
0.12626338 -0.026670672 1.1475252 4817874
0.1327685 -0.026846163 1.142077 5145287
-0.093477994 -0.0092420802 1.1508989 4487616
-0.087828755 -0.0067484304 1.1549132 4356800
0.11803159 -0.013738401 1.1472753 5276623
0.12408525 -0.017152123 1.1434304 5604813
0.13336422 -0.018870831 1.141752 6720449
-0.085341305 0.00015445054 1.1559943 5671109
0.11649822 -0.0080541521 1.1486207 5802961
0.12267464 -0.0092388168 1.1443362 6787017
0.041350596 0.011525996 1.1513251 12972031
-0.013385825 0.02413401 1.1509166 5869264
0.018847886 0.018922836 1.1519265 7515376
0.026310552 0.018180691 1.1516856 8764660
0.035878934 0.017259493 1.151376 10146554
0.042450596 0.015897878 1.1511811 10870005
-0.070809886 0.035170056 1.1466357 8028800
-0.065676734 0.035279714 1.1464549 7305855
-0.0088778473 0.025105253 1.1527385 5671370
-0.0055666976 0.024939656 1.1526276 5869265
0.017611371 0.023780487 1.1518518 6988787
0.022026241 0.02355969 1.151704 7185904
0.10855025 0.02808629 1.1485935 6314850
-0.064213365 0.040213518 1.1462848 8028802
0.10563347 0.031773694 1.1486055 6117979
0.081956655 0.043283708 1.1411409 5593178
0.084148884 0.043174081 1.1410675 5658970
-0.020657297 -0.21622306 1.1629918 2973083
-0.015174137 -0.21760783 1.1628351 2973595
-0.0057179015 -0.21763277 1.163175 2973598
-0.040048238 -0.20414793 1.163372 2842012
-0.033748046 -0.2058512 1.1631948 2776219
-0.024492502 -0.20875734 1.1644692 2907806
-0.014925782 -0.210574 1.1658169 2907807
-0.0044068806 -0.2116366 1.1656533 2973599
0.0044801021 -0.20980868 1.1626319 3039136
0.015276196 -0.20934026 1.1629134 3170723
0.025219664 -0.20973536 1.1619109 3236770
0.035000622 -0.20978063 1.1609055 3170979
0.044041641 -0.21001922 1.1605977 3170980
0.050768424 -0.20868981 1.1603322 3171236
-0.05068789 -0.1947315 1.1635131 2842012
-0.044051599 -0.1972934 1.1648008 2842011
-0.034530569 -0.20000446 1.165544 2842012
-0.026275203 -0.20182827 1.1668417 2907805
0.02005424 -0.20553821 1.1653247 3302309
0.026072785 -0.20471105 1.163952 3302308
0.034669779 -0.20505494 1.1623038 3171236
0.045339715 -0.20619723 1.1604601 3171236
0.056071859 -0.20531604 1.1617347 3105443
0.065948114 -0.20390265 1.1606907 3171492
0.072543435 -0.20237523 1.1594241 3040420
-0.071186349 -0.18260098 1.1639304 2841497
-0.062542304 -0.18577118 1.1642412 2907291
-0.054202329 -0.1888065 1.1653756 2907549
-0.04752418 -0.19027209 1.1672989 2907551
0.06949874 -0.1968675 1.1633999 3040420
0.076527625 -0.19542494 1.1612248 3106213
0.084389433 -0.19326895 1.1587929 3106214
-0.0722996 -0.17600073 1.1658111 2907290
-0.065813661 -0.17916828 1.1671641 2973340
0.08104901 -0.18853034 1.1627976 3302823
0.087117687 -0.18650891 1.160136 3237030
0.093420014 -0.18340957 1.1600204 3237031
-0.089034215 -0.16171867 1.164044 2841497
-0.080804318 -0.16559938 1.1643863 2842012
-0.074719578 -0.16807799 1.1667041 2907547
0.098943591 -0.17601636 1.1587944 3368361
0.10414641 -0.17304575 1.1576182 3237285
-0.090220541 -0.15573648 1.1639404 2973085
-0.083368078 -0.15623328 1.166454 3039135
0.10156815 -0.16902992 1.1576104 3368615
0.10826966 -0.16601279 1.1580329 3237799
0.11297001 -0.16293693 1.1570674 3303337
-0.096968859 -0.1424427 1.1638527 2973857
-0.091668874 -0.14620072 1.1653167 3039137
-0.085704818 -0.14731735 1.1675835 3104930
0.11066733 -0.15859278 1.1590439 3172264
0.11697474 -0.15604955 1.1574291 3238059
-0.097720996 -0.13416928 1.1646794 3039650
-0.093819514 -0.13788527 1.1676366 3105700
0.12073739 -0.14644659 1.1585547 3369132
0.12486185 -0.14687358 1.1562662 3434410
-0.10002741 -0.12546439 1.1652635 3171236
0.12306052 -0.13840592 1.1593266 3500719
0.12649825 -0.13630271 1.1579554 3435183
-0.10662854 -0.1130856 1.1634771 3302823
-0.10199039 -0.11522988 1.1660372 3171495
0.12774801 -0.12626314 1.157487 3566514
-0.10789809 -0.1043411 1.1647654 3368873
-0.10422258 -0.10565732 1.1664166 3368875
0.13087466 -0.11724426 1.1561413 3697588
-0.10831369 -0.095214278 1.1657721 3303850
0.13300166 -0.10767393 1.1584667 3763892
0.13613585 -0.10723592 1.1549158 3698099
-0.10919116 -0.084982961 1.1644872 3435181
-0.10328697 -0.085705884 1.166702 3435438
0.13453612 -0.097599804 1.1587416 3829942
0.13730571 -0.097263016 1.1557777 3764149
-0.1076684 -0.075366445 1.164602 3501229
0.13519168 -0.084260367 1.158396 3896505
0.13936271 -0.087410748 1.1561438 3830455
-0.10660334 -0.065561481 1.1638658 3632563
-0.10213974 -0.062361889 1.1660973 3567542
0.13309878 -0.077057153 1.1557205 4027837
0.13809611 -0.080903143 1.1542104 3896505
-0.10535923 -0.055561099 1.1633753 3829940
-0.10181196 -0.055692166 1.1659244 3699127
0.13211451 -0.067353308 1.156759 4291009
-0.10446225 -0.045469262 1.1625661 3895737
-0.10063842 -0.044766542 1.1656193 4027576
0.13287966 -0.05736063 1.1558233 4422849
-0.10298087 -0.038861953 1.1615541 4158911
-0.098250344 -0.03534409 1.1633066 4093372
0.13328438 -0.047640394 1.1550735 4817355
-0.094063371 -0.026157625 1.1624771 4093630
-0.089059845 -0.022899382 1.1646885 4094397
0.12639736 -0.036519453 1.1557661 5080014
0.13066936 -0.039997067 1.1534779 4883149
-0.091627747 -0.018699698 1.1606723 4028348
-0.086952522 -0.016334832 1.1619543 4028864
0.12237099 -0.026676983 1.1552227 4949202
-0.082914412 -0.0069268718 1.1619049 4029123
-0.078517869 -0.0048540905 1.1638861 3963586
0.11681157 -0.016501904 1.1560589 5146069
0.1199387 -0.021136537 1.1533936 5080276
-0.081787616 0.00079788268 1.1598592 5342665
-0.074433863 0.0026849881 1.1635619 4882633
-0.010903552 0.0032793805 1.1613442 6070261
-0.004235616 0.0029459074 1.1611209 6528744
0.0024323221 0.0026124343 1.1608977 8827627
0.017990841 0.0018343255 1.160377 10340848
0.026691448 0.00076241791 1.1601012 8895736
0.0341506 -0.00031106174 1.1598685 6266608
0.10841233 -0.0032708943 1.1563636 5475287
0.11265592 -0.0070474669 1.1546397 5475028
-0.070742115 0.0084450692 1.1612927 5999306
-0.064038754 0.0092203617 1.1610415 5540557
-0.055345122 0.01210627 1.1600028 5803727
-0.042472195 0.013277732 1.162197 4950220
-0.033580672 0.011707462 1.1619266 5016280
-0.023916192 0.010602087 1.1612178 5411294
-0.013950488 0.010042436 1.1590441 5806569
-0.003922008 0.0095962137 1.1603485 7120874
0.005707128 0.0098776668 1.1606083 12379901
0.016169785 0.0087641776 1.1577438 13891069
0.02593305 0.008019574 1.156749 12969723
0.035912827 0.0077806488 1.1572937 9946095
0.045969516 0.0070563406 1.1573654 10013177
0.055772774 0.0084421337 1.1567509 7449069
0.062583193 0.010004804 1.1586326 5411552
0.10564549 0.00072120875 1.1548616 6526426
-0.040253714 0.018119447 1.1620029 6264275
-0.032719623 0.018482178 1.1592306 5803990
-0.023180284 0.018596873 1.1573956 5345755
-0.013128972 0.019357152 1.1570287 5412839
-0.0035090763 0.019482657 1.1571925 5676266
0.0055491002 0.018168546 1.1592693 7253489
0.015291012 0.017451532 1.1570899 8436213
0.025108846 0.014701143 1.1558151 12051453
0.03972438 0.018412352 1.1552184 10082302
0.047514558 0.017282397 1.1549755 10607102
0.055942971 0.016014755 1.154714 7515119
0.062985264 0.015082844 1.1558268 6068200
-0.0010360982 0.024892993 1.1564753 6001365
0.0033939825 0.024671435 1.156327 6396124
0.11597964 0.024815664 1.1524187 6447199
-0.011091409 -0.20682245 1.1704396 3039391
-0.0034814086 -0.20659152 1.1716714 3039135
0.0078657269 -0.20777054 1.169805 3104930
-0.039536506 -0.19421825 1.1711211 2776478
-0.033145763 -0.19538257 1.1729294 2842271
-0.023265135 -0.19746116 1.1748208 2907807
-0.014127662 -0.19976592 1.175074 2908063
-0.0041299667 -0.20108785 1.1758646 2973600
0.0062049562 -0.20063341 1.175028 3105187
0.01610123 -0.20080069 1.1737685 3236773
0.025831491 -0.1999643 1.1727297 3237029
0.036757924 -0.20059472 1.1724327 3171237
0.046266388 -0.20208046 1.1698369 3171236
0.055826791 -0.20101251 1.1689019 3105444
0.06470032 -0.19999038 1.1676456 3171493
-0.051162999 -0.18467528 1.1744962 2841758
-0.043162931 -0.18736419 1.1750845 2907551
-0.034224667 -0.18884569 1.1776365 2842271
-0.023575019 -0.19053765 1.1784856 2908064
-0.016893826 -0.19199759 1.1782892 2973857
0.0044380585 -0.19306442 1.1775752 3105444
0.017336149 -0.19270876 1.1771193 3237030
0.027320646 -0.19364503 1.1759949 3302823
0.036999505 -0.19335011 1.1755289 3171495
0.04639804 -0.1924216 1.1747117 3105703
0.056071084 -0.19316965 1.1741855 3105703
0.065819569 -0.19320771 1.1719466 3105702
0.074165419 -0.19119054 1.1688201 3105958
-0.062098544 -0.17646331 1.1731224 2973598
-0.054050777 -0.17847554 1.1772488 2907551
-0.044198502 -0.18078136 1.1789647 2908065
0.068130478 -0.18481869 1.1751666 3237288
0.07688573 -0.18460551 1.1724111 3302823
0.085531399 -0.18307048 1.1690873 3237287
-0.070891783 -0.16471317 1.1743541 3105183
-0.063494384 -0.16837607 1.1774496 2974112
-0.05525117 -0.17094085 1.1791099 2842786
0.078791857 -0.17786971 1.1746286 3171750
0.087537482 -0.17472816 1.1729147 3172008
0.095525727 -0.17348278 1.1682702 3303081
-0.078603357 -0.15469253 1.1721866 3104930
-0.072293624 -0.15717602 1.1780332 3170978
0.090477452 -0.16648856 1.1739478 3303337
0.098238558 -0.16541377 1.1714007 3368873
0.10512127 -0.16453326 1.1679332 3237543
-0.087723091 -0.14138466 1.1741825 3040164
-0.081157297 -0.14544436 1.175177 3105701
-0.074859545 -0.15007123 1.1792848 3302822
0.10032938 -0.15643102 1.1733627 3303597
0.10768758 -0.15448233 1.1686928 3238059
0.11484203 -0.15182139 1.1667424 3303852
-0.089811131 -0.13491084 1.1752105 3106213
-0.082013384 -0.13723594 1.1792222 3172007
0.10917543 -0.14537075 1.172588 3369387
0.11698 -0.1456199 1.16852 3435181
-0.096534312 -0.12439071 1.1727424 3237030
-0.089855611 -0.12528685 1.1768696 3237800
-0.083578035 -0.1289957 1.1790771 3303594
0.11129493 -0.13941708 1.1725706 3500972
0.11978684 -0.13564354 1.1689318 3500976
0.12444021 -0.13309278 1.1639545 3500977
-0.097155854 -0.11504751 1.1743171 3237545
-0.092443705 -0.11684644 1.1782008 3303852
0.12215137 -0.12615034 1.171873 3566772
0.12531306 -0.12674321 1.167774 3566515
-0.099182457 -0.10522383 1.1742886 3369389
0.12347458 -0.1166741 1.1715977 3763639
0.12670879 -0.11602597 1.1665766 3763639
-0.1053426 -0.09111511 1.1722424 3435181
-0.10004844 -0.094986953 1.1753935 3435438
0.12466016 -0.10563632 1.1712894 3895737
0.12946256 -0.10589048 1.1659479 3764149
-0.10448842 -0.084647566 1.1731238 3435438
-0.099016652 -0.085448012 1.1770186 3501231
0.12493612 -0.10002117 1.171144 3961530
0.1303215 -0.09644039 1.1656893 3961528
0.13756487 -0.09349525 1.1625408 3895735
-0.10373272 -0.075409636 1.1734746 3501489
-0.099361628 -0.075331241 1.176206 3501490
0.12581918 -0.082052685 1.1706784 4159679
0.13112682 -0.087121367 1.1658854 3962041
0.13767451 -0.091264412 1.162483 3895735
-0.10387534 -0.068080276 1.1723013 3501747
-0.098826364 -0.065070599 1.1747223 3567541
0.12538342 -0.075651407 1.1705385 4225473
0.12890714 -0.076433986 1.1664317 4159424
-0.096594244 -0.055048648 1.1733347 3764919
0.12556933 -0.066779472 1.1703174 4422597
0.12940219 -0.066360943 1.1661707 4357059
-0.095628902 -0.045319837 1.1728942 3896505
-0.090721235 -0.045329969 1.1772997 3962298
0.12596582 -0.056166839 1.1700468 4685767
0.12989722 -0.056287903 1.1659098 4422851
-0.093785852 -0.036324997 1.1707823 4027836
-0.088510215 -0.034685198 1.1758735 4028094
0.12454064 -0.045546975 1.1677196 4948684
0.13016681 -0.047852769 1.1626936 4751818
-0.091750041 -0.02835495 1.1689174 4093632
-0.085816532 -0.02504722 1.1744829 4094399
0.11838844 -0.03477313 1.1697918 5080784
0.12247483 -0.036170032 1.1648796 5211343
-0.082210958 -0.016815588 1.1726748 4094402
-0.075452581 -0.01401858 1.1750114 4226244
-0.068856373 -0.012649752 1.1757505 4620744
-0.014910093 -0.014221899 1.1739175 5412064
0.0075445259 -0.015344888 1.1731659 6463211
0.015413471 -0.019579381 1.1729954 6397929
0.025114998 -0.019423231 1.1726552 6397929
0.034426991 -0.017975949 1.1722972 6003432
0.11575845 -0.025418818 1.1671543 5081042
0.12061717 -0.028912298 1.1615654 5081041
-0.073889613 -0.0064106137 1.1696352 4160963
-0.065598547 -0.0057514161 1.1746125 4752075
-0.050395954 -0.0034408793 1.1748873 4949201
-0.043687165 -0.0043392852 1.1746764 5016022
-0.034201082 -0.0059516877 1.1737192 5213659
-0.024452012 -0.007358849 1.1728505 5411552
-0.014647111 -0.0086207315 1.1729721 5740773
-0.0045295674 -0.0091120973 1.1734338 6003172
0.0055601643 -0.0096240267 1.1726959 6331366
0.015551371 -0.010165513 1.1697601 6989552
0.025648881 -0.010664344 1.1698223 6792432
0.035694987 -0.011176072 1.1688358 5937640
0.044290621 -0.010631911 1.1707765 5806054
0.055085555 -0.0098419711 1.1713839 5674725
0.061877131 -0.009055838 1.1711292 5674983
0.10750423 -0.013870753 1.1696633 5146841
0.11321238 -0.016368255 1.1638064 5080789
-0.070142895 0.0018730462 1.1674364 4554184
-0.06655772 0.0025986731 1.1702971 4751049
-0.051215071 0.0021772087 1.1727779 4818129
-0.043813258 0.0017885938 1.1717299 5015507
-0.034407061 0.001243785 1.1680138 5147609
-0.024362139 0.000712201 1.1663772 5346018
-0.014666982 -8.7626278e-005 1.1686736 5937898
-0.0042654667 -0.0013491958 1.1685659 6462952
0.0061780475 -0.0011461079 1.167309 8303605
0.015495014 -0.0017414987 1.1659836 8501495
0.025258619 -0.0032297671 1.164867 7252467
0.036603048 -0.0032321289 1.1653136 6069484
0.045818251 -0.0025820583 1.1658403 6135528
0.056000806 -0.0033951476 1.1686054 5741031
0.065438181 -0.0036299303 1.1698735 5543655
0.074998625 -0.0027841106 1.1705225 5477092
0.085110724 -0.0019619763 1.1701518 5739747
0.096450508 -0.0027792826 1.1697782 5280481
0.10539766 -0.0059501082 1.1658491 5015513
0.11070009 -0.0082489774 1.163411 4949463
-0.063123256 0.0082309693 1.167039 4818122
-0.053657908 0.0087515041 1.1666982 5147606
-0.044948164 0.0090613514 1.1663886 4818639
-0.036360241 0.0068925098 1.1661432 5344472
0.0082721934 0.0052194521 1.1646358 12971007
0.012705287 0.0044386536 1.164501 12905215
0.037238047 0.0032117367 1.1636797 5807584
0.050619557 0.0025425032 1.1632318 6004710
0.056720078 0.0031958371 1.1630044 5807083
0.065691635 0.005280681 1.164778 5477863
0.074246824 0.0044826493 1.1670362 5542628
0.086006388 0.00099533051 1.1700492 5673698
0.096600488 0.0023872256 1.1681466 5804766
0.10191533 -2.2880733e-005 1.1615149 5147865
0.069009729 0.012804434 1.1623456 5412324
-0.010184933 -0.1951521 1.1821364 3039650
-0.0037792437 -0.19611794 1.1819376 3039650
-0.030074894 -0.18625015 1.1826108 2842271
-0.023315694 -0.1865882 1.1823845 2973857
-0.013018809 -0.18816289 1.1833298 2973857
-0.0033264831 -0.19036937 1.1843113 3039395
0.0073832264 -0.18898797 1.1831572 3171237
0.016717846 -0.18805373 1.1820991 3237030
0.027088329 -0.18800917 1.1822106 3302569
0.035398379 -0.18857141 1.1817306 3237546
-0.049194548 -0.17480478 1.1829969 2908065
-0.041678146 -0.17614892 1.1827687 2973857
-0.033063594 -0.17831931 1.1835233 2973857
-0.023389228 -0.18067706 1.1843635 2973858
-0.015086949 -0.18187338 1.1859885 3105444
0.01656246 -0.18345621 1.1849291 3237030
0.028316684 -0.18253283 1.1844991 3302825
0.037244 -0.18253171 1.1838815 3171754
0.046999555 -0.18358226 1.1818748 3171752
0.057325028 -0.18369004 1.1809305 3171753
0.065886341 -0.18100825 1.1801566 3237546
0.074175328 -0.17903824 1.1788205 3303592
-0.059888471 -0.1648028 1.1831257 2908579
-0.051746633 -0.16733015 1.1849062 2908579
-0.041970257 -0.16926685 1.1855239 3105444
-0.033383787 -0.17143762 1.1863705 3105443
0.061090078 -0.17661577 1.1832193 3303339
0.069174424 -0.17477909 1.1815599 3303082
0.077586964 -0.17314364 1.1791315 3237545
0.083630621 -0.17047429 1.1782854 3303850
-0.068346962 -0.15308374 1.1831354 3302822
-0.061879698 -0.1576584 1.1852738 3040165
-0.054890003 -0.16174808 1.1868819 3040167
0.072837956 -0.16813597 1.1826066 3303598
0.079053178 -0.16447237 1.1813604 3238061
0.087636188 -0.16288772 1.1790749 3303596
0.095394358 -0.16089618 1.1776454 3369131
-0.077593386 -0.14207835 1.1831897 3171751
-0.071308702 -0.14599256 1.1844795 3368615
-0.064507395 -0.14993295 1.1869295 3171751
0.097580448 -0.15438539 1.1789134 3369134
-0.079218715 -0.13493703 1.1830733 3369130
-0.073103026 -0.13712703 1.1859168 3434922
0.099232242 -0.1447535 1.180172 3435183
-0.080472797 -0.12623329 1.1842406 3434923
0.10233296 -0.13780311 1.1800487 3501232
0.10921386 -0.13502774 1.1791306 3435694
0.11592987 -0.1336831 1.1762745 3501232
-0.08814539 -0.11470418 1.183894 3369646
-0.082563579 -0.1186977 1.1854652 3435182
0.1134364 -0.12596314 1.1801777 3567282
0.11748508 -0.12568703 1.1778469 3567027
-0.095932782 -0.10162505 1.1828467 3501231
-0.091453642 -0.1057121 1.1855426 3435439
0.11382537 -0.11804867 1.1799726 3829686
0.11899711 -0.11553802 1.1779532 3829431
-0.095766649 -0.098244548 1.182759 3501231
-0.09117116 -0.095187902 1.1841938 3567024
0.12177612 -0.10627669 1.1780775 3830201
-0.09507443 -0.084159128 1.1823941 3632818
-0.091816783 -0.084991351 1.184303 3698612
0.1243875 -0.095804073 1.1770662 3896507
-0.094603717 -0.074581042 1.182146 3633333
-0.090678304 -0.074900776 1.1848201 3764919
0.12470694 -0.085615098 1.176308 4093886
-0.094622388 -0.065769196 1.1819333 3633334
-0.090435088 -0.064961299 1.1849713 3830201
0.1222059 -0.075837635 1.176881 4291523
-0.089560091 -0.054733191 1.1831588 3896506
0.12221003 -0.065359719 1.1760045 4619975
-0.085815489 -0.045359407 1.1828496 4028348
0.11699253 -0.053602338 1.178303 5146320
0.12126948 -0.056065131 1.1772134 4883148
-0.083688289 -0.036078967 1.1811215 3962814
-0.078560799 -0.034908473 1.183489 3963072
0.11638336 -0.044775292 1.1766092 5146577
0.11999097 -0.046631411 1.1745272 5080527
-0.081880525 -0.027096227 1.1805553 4028607
-0.075553253 -0.025608987 1.1824352 4291526
-0.025559992 -0.026071563 1.1825807 5147865
-0.018088657 -0.026218534 1.1823251 5344731
-0.001767369 -0.026128046 1.1817569 5345501
0.0050146477 -0.026467226 1.1815299 5739743
0.015020553 -0.029235974 1.1799154 5936862
0.024070583 -0.029688202 1.1799461 5871068
0.034347821 -0.029067636 1.1805755 5739228
0.052488767 -0.028841488 1.1799408 5213656
0.11494267 -0.035815749 1.1763421 4949970
-0.073487133 -0.018309735 1.1800516 4422856
-0.064773172 -0.013931572 1.1814631 4686797
-0.054360125 -0.013318382 1.1812692 4884690
-0.044001069 -0.015237235 1.1824577 4950486
-0.033630501 -0.016537234 1.1812954 5213659
-0.02519843 -0.018179938 1.1791744 5279707
-0.015097771 -0.019813091 1.1792639 5345244
-0.004873842 -0.018692911 1.1787933 5411808
0.0049062064 -0.020302095 1.1782908 5806052
0.014040844 -0.023910888 1.1771514 6068964
0.02603874 -0.024887457 1.176759 6068963
0.036206491 -0.022989124 1.1772842 6003173
0.044762764 -0.021674246 1.1778334 5608417
0.054965172 -0.022178233 1.1780922 5411038
0.061864838 -0.022509895 1.1794624 5279709
0.10653067 -0.023009248 1.1770015 5212630
0.11192995 -0.026918493 1.1751637 5015248
-0.060864661 -0.0084921718 1.1793761 4949712
-0.054105457 -0.0088302121 1.17915 4949713
-0.043966662 -0.0093372688 1.1788106 5016279
-0.034597345 -0.010182373 1.178506 5213659
-0.025997501 -0.011365533 1.1782365 5345501
0.046691593 -0.014436044 1.1757897 5871590
0.055168282 -0.014295168 1.1754923 5871847
0.065585889 -0.012529649 1.17709 5543139
0.072923623 -0.011759065 1.1771028 5280225
0.097460911 -0.012955956 1.1779966 5411294
0.10315447 -0.014721453 1.1752942 5279196
0.075297952 -0.0068298578 1.1746135 5411556
0.084956557 -0.0056184977 1.1742492 5412066
0.096221894 -0.0061818957 1.1738721 5477344
0.10287033 -0.0087736025 1.1737043 5213404
-0.0019192938 -0.18570712 1.1896282 3105189
-0.021803491 -0.17621338 1.191089 3039906
-0.012209842 -0.17881855 1.1912483 3039908
-0.0026833937 -0.18040776 1.1928627 3105447
0.0078553576 -0.18022427 1.1899072 3105702
0.016958065 -0.17944875 1.188822 3171750
0.025948346 -0.17948484 1.1885111 3237289
0.037484065 -0.17820084 1.18808 3237548
0.047691312 -0.17871132 1.1877383 3171752
0.05676442 -0.17916508 1.1874347 3171752
-0.04887804 -0.16341922 1.1907175 3039909
-0.041047655 -0.16451973 1.1913623 3105701
-0.032978527 -0.16753259 1.1928133 3105443
-0.02361073 -0.17336211 1.1940854 3040163
0.0071584377 -0.17398807 1.1930333 3105960
0.018592548 -0.17344423 1.1926236 3105958
0.027720466 -0.17240864 1.1914812 3237545
0.038114153 -0.17189485 1.1900126 3237547
0.04813705 -0.17209601 1.1891642 3237544
0.058197226 -0.1723695 1.1889062 3237545
0.066896543 -0.17084092 1.187549 3303339
-0.05964328 -0.15344182 1.1908493 3172009
-0.051307846 -0.15696368 1.1930476 3105961
-0.042041942 -0.1596036 1.1943916 3171752
0.04181131 -0.16522354 1.1916193 3303337
0.048638958 -0.165565 1.1913908 3303593
0.058765817 -0.16509342 1.1910281 3303594
0.068041794 -0.16297257 1.189404 3303596
0.074830547 -0.16187292 1.1863896 3238062
-0.066597044 -0.14456484 1.1908756 3434409
-0.060854468 -0.14654344 1.1935505 3237547
-0.052605856 -0.14929862 1.1945086 3237805
0.069403552 -0.15570018 1.1904318 3238318
0.078789026 -0.15326293 1.1889263 3238572
0.088847414 -0.15359484 1.1869041 3434926
0.095324516 -0.15334514 1.1854724 3369134
-0.068447918 -0.13539995 1.1919498 3435179
-0.062533051 -0.13764784 1.194126 3369388
0.083784088 -0.1467839 1.1897173 3500977
0.089534849 -0.14355513 1.1884388 3435186
0.094878078 -0.1439217 1.1852597 3500720
-0.076429144 -0.12425435 1.191726 3566511
-0.070820436 -0.12737337 1.1932751 3566767
-0.063700765 -0.13027959 1.194433 3500977
0.091388121 -0.13599478 1.188692 3501234
0.099287584 -0.13401708 1.1856177 3501490
-0.085394755 -0.11064509 1.1907066 3566770
-0.078781292 -0.11549607 1.193197 3632306
-0.072356805 -0.12071835 1.1945018 3632563
0.10157497 -0.12541166 1.1871699 3699127
0.10899521 -0.12454928 1.1847723 3633076
-0.086292267 -0.1049806 1.1916015 3566770
-0.080238074 -0.10610506 1.1944214 3763892
0.10296048 -0.11636426 1.1883159 3633335
0.10964872 -0.11456566 1.1855938 3764407
-0.085866839 -0.094865628 1.1931436 3698868
-0.081518948 -0.095664337 1.1942132 3699126
0.10411681 -0.10444115 1.1879872 3962811
0.11060007 -0.10488412 1.1866055 3830969
0.11820272 -0.10555596 1.1835221 3830714
-0.086614832 -0.084911659 1.1910499 3699126
-0.081280813 -0.085660435 1.1939627 3830712
0.11180525 -0.094980203 1.1868911 4028606
0.11983068 -0.095564768 1.1832238 3962300
-0.085546717 -0.075453244 1.1914616 3830970
-0.08055529 -0.075318664 1.1936873 3962813
0.11254175 -0.085934624 1.187247 4291522
0.12030374 -0.086003967 1.18334 4094399
-0.085349649 -0.065381862 1.1913253 3962044
-0.080416918 -0.065871239 1.1934538 4093630
0.11464091 -0.075292036 1.1866498 4554438
0.1193123 -0.076368399 1.1827772 4357059
-0.084247321 -0.055393919 1.1906641 4093886
-0.079548404 -0.054830253 1.1931565 4291009
0.11330746 -0.06468717 1.1858166 4686026
0.11921376 -0.065153643 1.1825092 4685769
-0.082328424 -0.048250813 1.1890901 4159935
-0.077115431 -0.045966651 1.1917137 4225985
0.1065781 -0.054358382 1.1866896 5015248
0.11249958 -0.055999186 1.1838549 5014991
-0.073648572 -0.036331903 1.1906201 4292037
-0.068329245 -0.03876473 1.1923785 4619977
-0.045234781 -0.03307347 1.1914397 5279449
-0.037269197 -0.033471845 1.1911731 5016538
-0.024807777 -0.035236098 1.1907836 4950743
-0.015384872 -0.037385363 1.1905088 4950488
-0.0062959902 -0.037683293 1.1902008 5147351
0.0041817557 -0.037256435 1.1898271 5278422
0.014587345 -0.040116537 1.1886457 5212886
0.023925038 -0.039942596 1.1874558 5278423
0.033938538 -0.039592285 1.1876005 5147094
0.044843864 -0.040512554 1.1884956 4885460
0.054362528 -0.039502006 1.1874131 4950741
0.063507661 -0.039424691 1.187822 5016279
0.1055259 -0.044479512 1.1850858 5212370
0.11276177 -0.046066675 1.182271 5212369
-0.071232587 -0.029482007 1.1902528 4423370
-0.069020078 -0.026405059 1.1897012 4554187
-0.044531751 -0.028088346 1.1910278 5147610
-0.034715258 -0.027894229 1.1889478 5081818
-0.025737129 -0.030620083 1.1887023 5016538
-0.014531109 -0.029739112 1.1884259 5278938
-0.0054115076 -0.02958817 1.1881059 5344730
0.0049597435 -0.031013764 1.1867131 5673948
0.015021137 -0.03378652 1.1853637 5805277
0.024094246 -0.034240279 1.1850599 5541848
0.03435725 -0.033616304 1.1846889 5475544
0.044675995 -0.031857923 1.1842885 5213397
0.055305608 -0.032994829 1.1846538 5082070
0.065076306 -0.032657169 1.1860024 5016536
0.074160933 -0.030894324 1.1872461 5213915
0.084938049 -0.030455284 1.1868616 5279453
0.095839888 -0.03145691 1.1865078 5213659
0.1050615 -0.034882035 1.1846695 5212628
0.11159019 -0.035204411 1.1820487 5146833
-0.068459123 -0.020513706 1.1879377 4554443
-0.04319204 -0.019957788 1.187048 5016281
-0.03597815 -0.021228351 1.1868285 5147611
-0.0049473476 -0.023690037 1.1858119 5411294
0.065970302 -0.02268783 1.1833279 5148123
0.074683852 -0.023123004 1.1832365 5213915
0.084743902 -0.023816235 1.1844448 5213917
0.095504239 -0.024273522 1.1846598 5213659
0.10334176 -0.026451185 1.1824565 5212887
0.096548513 -0.017393716 1.1821393 5279708
0.10108507 -0.017620593 1.1819874 5411037
-0.017850764 -0.1742641 1.1989119 3106213
-0.012137288 -0.17454985 1.1987206 3105959
-0.00090568513 -0.17576632 1.1983606 3105706
0.0095739104 -0.17563567 1.1979939 3105960
-0.028369334 -0.16686322 1.1990975 3105700
-0.020988591 -0.16846451 1.199631 3105957
-0.011842282 -0.16892195 1.1993248 3106216
-0.0015267134 -0.16953687 1.1998327 3106217
0.0091152657 -0.16955772 1.1992925 3171752
0.01701151 -0.16946676 1.1986785 3303337
0.028306402 -0.16740602 1.197145 3369130
0.035162568 -0.16774893 1.1969155 3369132
-0.040387355 -0.15503028 1.1995616 3171753
-0.03076585 -0.15786755 1.2016854 3171752
-0.020433392 -0.15861404 1.203427 3172010
-0.011294533 -0.1603277 1.2041023 3172012
-0.0012265556 -0.16039522 1.204551 3237802
0.0094380397 -0.16023967 1.2036314 3303338
0.018631157 -0.16072246 1.2035244 3369133
0.028879669 -0.16104412 1.2014552 3369388
0.038989328 -0.16123097 1.2004179 3303853
0.048245523 -0.16056883 1.1980395 3369643
0.05832234 -0.16030478 1.1961676 3303851
-0.0575273 -0.14248881 1.1995188 3303598
-0.049511988 -0.14567721 1.2010338 3303341
-0.040929664 -0.14776447 1.2042184 3303340
-0.03157337 -0.14960402 1.2067981 3369132
-0.023509223 -0.15189478 1.2065738 3303600
0.0098494738 -0.15356308 1.2054572 3303598
0.022502773 -0.1541959 1.2050338 3435186
0.029979721 -0.15456983 1.2047834 3369391
0.039757274 -0.15505883 1.2044562 3369392
0.049674518 -0.15265176 1.203438 3369390
0.059154656 -0.15214327 1.1995091 3435184
0.068472296 -0.15108187 1.1953568 3369392
-0.058106583 -0.13542888 1.2001688 3369646
-0.050935928 -0.13799325 1.2047864 3303853
-0.043762259 -0.1416544 1.2070284 3173034
0.052033171 -0.1445998 1.2037773 3566773
0.060245622 -0.14371611 1.2028037 3566516
0.07003054 -0.14239253 1.1994964 3500977
0.079803973 -0.14360122 1.1964685 3500975
-0.067696914 -0.12299252 1.1993997 3632562
-0.05888145 -0.12643801 1.20218 3501236
-0.051231969 -0.12688766 1.2064853 3501494
0.072823152 -0.13335544 1.2027841 3698612
0.080278024 -0.13412522 1.2001784 3567283
0.089150667 -0.13219051 1.1971184 3567283
0.096604884 -0.12957266 1.1938605 3501747
-0.074406117 -0.11299945 1.1993905 3895478
-0.06887193 -0.11575614 1.2017676 3698613
-0.059901852 -0.11706017 1.2056584 3633080
0.07458616 -0.12681139 1.2025645 3699128
0.081290618 -0.12395256 1.2022628 3830713
0.090732083 -0.12406611 1.200737 3699126
0.097376525 -0.12319471 1.1936793 3633333
-0.075318858 -0.10493314 1.1992269 3961271
-0.068433374 -0.10561235 1.2040091 3896247
-0.061734084 -0.10845944 1.2068483 3764921
0.081525445 -0.11700819 1.2020866 3962300
0.092476234 -0.11505304 1.2011884 3896506
0.099906325 -0.11366503 1.1953628 3764920
-0.076169834 -0.095525093 1.2005301 3830712
-0.0691237 -0.095323525 1.2054521 4093627
0.09598498 -0.1043515 1.2012787 4028352
0.10121416 -0.10414039 1.1957542 3962812
-0.076045647 -0.085192457 1.2007761 3962556
-0.069484144 -0.086516991 1.2061411 4028606
0.095969662 -0.093936868 1.2010272 4357317
0.10222235 -0.094540142 1.1968213 4225985
0.10765629 -0.091167852 1.1925477 4225985
-0.075112805 -0.076222166 1.2005267 4028606
-0.070157766 -0.076510936 1.2063671 4094655
0.096889719 -0.085941792 1.2008017 4554695
0.10266161 -0.084186926 1.195955 4554182
0.10883 -0.082823955 1.192305 4619462
-0.075324312 -0.065587938 1.1987458 4159424
-0.067097425 -0.0648522 1.204747 4160448
-0.060679089 -0.063528255 1.2057241 4554440
0.098005757 -0.072617769 1.2004405 4620747
0.10343976 -0.073965438 1.1980327 4686026
0.1095854 -0.075223006 1.1920948 4619977
-0.074247465 -0.055981372 1.198005 4291265
-0.066017002 -0.056268483 1.2029811 4357573
-0.060339812 -0.056624606 1.2055453 4751563
0.013794763 -0.057640843 1.2029988 4818903
0.021501126 -0.057257295 1.2027222 4819160
0.096583724 -0.064011231 1.2002815 4752590
0.10388891 -0.064777583 1.1977947 4817869
0.10883589 -0.067164868 1.1919258 4752076
-0.071793094 -0.046509545 1.1976905 4291778
-0.0656524 -0.046022534 1.201048 4554440
-0.059943993 -0.048570357 1.2053366 4883149
-0.041178569 -0.042531755 1.2005361 5674209
-0.035446078 -0.042818446 1.2003442 5082331
-0.024177302 -0.046175599 1.201903 4950745
-0.015045289 -0.048433691 1.199172 4884953
-0.0058805533 -0.048888061 1.198665 4753366
0.0045253336 -0.048279621 1.1994904 4884692
0.014984673 -0.050448801 1.1983349 4884692
0.02378724 -0.050149053 1.198678 4884692
0.034109987 -0.049410116 1.2007604 4950484
0.04492126 -0.050948013 1.1986433 4950488
0.053732477 -0.051102743 1.1993358 4950489
0.064428009 -0.050161604 1.199994 5411037
0.073443554 -0.050339185 1.2007532 5542623
0.087633684 -0.049030349 1.2002294 5213404
0.095256835 -0.052295186 1.200044 5081558
0.10335754 -0.055005118 1.1974266 5015248
-0.06605576 -0.036320508 1.1972449 4685772
-0.043808136 -0.036940534 1.1975802 5542365
-0.034861036 -0.037567198 1.1973372 4951002
-0.026201803 -0.039057702 1.1959289 4884951
-0.017048281 -0.041390449 1.195668 4753366
-0.0032797735 -0.040933229 1.1951793 4950484
0.0055620661 -0.04166187 1.1948903 5015763
0.035515673 -0.044019256 1.1939085 5015764
0.042371839 -0.044362143 1.193679 4885461
0.054336663 -0.043978404 1.1932547 4884950
