# .PCD v0.7 - Point Cloud Data file format
VERSION 0.7
FIELDS x y z rgba
SIZE 4 4 4 4
TYPE F F F U
COUNT 1 1 1 1
WIDTH 174
HEIGHT 1
VIEWPOINT 0 0 0 1 0 0 0
POINTS 174
DATA ascii
-0.019671794 -0.1138166 0.99872088 5134174
-0.013951954 -0.11684233 0.99623668 5134176
-0.018471759 -0.11070174 1.002036 4871515
-0.034058381 -0.12756504 0.99315953 4936281
-0.025223214 -0.13228691 0.98927301 5199967
-0.020673517 -0.13374068 0.98827195 5397348
-0.039319739 -0.12063691 0.99925488 4673880
-0.032153524 -0.12190662 0.99597108 4870232
-0.023267653 -0.12521812 0.99456209 5068382
-0.014027279 -0.12829275 0.99318665 5068384
-0.0062483102 -0.13032611 0.99330723 4476504
-0.036242876 -0.11354145 1.0048825 4607822
-0.029540166 -0.11468554 1.0025156 4673623
-0.019556943 -0.11843596 0.99974555 5134174
-0.0095120482 -0.12097654 0.99821997 4739419
-0.0024262778 -0.12436826 0.99735183 4081746
-0.033574603 -0.10935898 1.0118377 4410445
-0.025182471 -0.10902636 1.0087712 4213839
-0.015383303 -0.11177443 1.007007 4345429
-0.0061333664 -0.11503893 1.0046558 4016211
0.0012518242 -0.118508 1.0035514 3621193
-0.022683196 -0.10575605 1.0123842 3884109
-0.013579261 -0.10793094 1.0111321 3752784
-0.0038809031 -0.11108051 1.0089464 3621192
0.0025325418 -0.11394496 1.0067014 3686459
-0.046979442 -0.14022928 0.99378282 4673626
-0.039514311 -0.14120358 0.98950911 4870741
-0.031399488 -0.14480519 0.98695636 5265754
-0.021773677 -0.14754495 0.98556566 5397604
-0.013060398 -0.15046369 0.98775738 4608350
-0.044416372 -0.1314116 0.99744201 4673629
-0.036994778 -0.13333797 0.99315602 4870744
-0.029645685 -0.13661332 0.99011236 5134174
-0.017475285 -0.13948989 0.98940587 5397606
-0.0097783804 -0.14443251 0.99114853 4476760
-0.0026678108 -0.14528894 0.9941625 4015442
-0.048294269 -0.12730502 1.0076848 3883351
-0.044654764 -0.12462589 1.0033547 4475995
-0.014249597 -0.13516274 0.99324208 5068641
-0.0047233403 -0.13733597 0.99498171 4082513
0.00090967491 -0.14155866 0.99764401 3752531
-0.042145882 -0.11706997 1.0096318 4079443
0.00040418655 -0.13175692 1.0004449 3621705
0.0035489984 -0.13681914 1.0000492 3751503
0.0017131269 -0.12540038 1.0049361 3490378
-0.043597832 -0.16351134 0.98692507 5002588
-0.040621877 -0.1644778 0.98625439 5528419
-0.050061751 -0.15421668 0.99574351 4739163
-0.044131126 -0.15612513 0.99020076 5002333
-0.035403296 -0.15914786 0.98796141 5397092
-0.026206562 -0.1616144 0.98836786 5332066
-0.020302437 -0.16388112 0.98903674 4740695
-0.049564656 -0.14752397 0.99511218 4082256
-0.04338301 -0.14910559 0.99164414 5068120
-0.022031706 -0.15711643 0.98859978 5200736
-0.013340846 -0.15899388 0.99067277 4345175
-0.0062167272 -0.16155007 0.99210745 4278096
-0.0071843155 -0.15146424 0.99432993 4147028
-0.0031772554 -0.15612926 0.99584448 3819087
-0.00036668032 -0.1486423 0.99843764 3687502
-0.042025395 -0.18107179 0.9849081 5528423
-0.037824634 -0.18203232 0.98437434 5397348
-0.048388846 -0.169176 0.98874706 4804702
-0.03959848 -0.17175688 0.98621452 5462626
-0.030811839 -0.17603229 0.98648047 5003105
-0.022077307 -0.1768942 0.98787129 4804440
-0.053388704 -0.16099025 0.99850029 3817824
-0.048887976 -0.16230787 0.99189478 4673622
-0.033968426 -0.16715306 0.98853242 5660265
-0.026536409 -0.1684006 0.98805046 5069150
-0.017268866 -0.17077591 0.9894802 4475986
-0.010662153 -0.16970634 0.99128062 4014924
-0.012214918 -0.16620119 0.99183148 4606547
-0.0060422011 -0.16675079 0.99264628 3620428
-0.051094957 -0.18840563 0.98647773 4079956
-0.045137797 -0.18939362 0.98282456 5266270
-0.039698951 -0.19251269 0.98349392 5002845
-0.051400989 -0.18220699 0.98991764 4079963
-0.04510637 -0.18472309 0.98514706 5330781
-0.03463953 -0.1876712 0.98561251 5002331
-0.029295592 -0.18370557 0.98787802 5001816
-0.024475297 -0.18401854 0.98979461 4540755
-0.017761551 -0.18016586 0.99273235 4213074
-0.050228931 -0.20552143 0.98627484 5265766
-0.049608249 -0.20026024 0.98762494 5068639
-0.040879682 -0.20150222 0.98660409 4214103
-0.054570638 -0.19015206 0.99005806 1580089
-0.034255862 -0.19586891 0.98733699 4145996
-0.029577801 -0.19256216 0.99026376 4212054
-0.056806143 -0.20638619 0.98899084 3618132
-0.052095406 -0.20873909 0.98708713 5199718
-0.045572866 -0.21003425 0.98645926 4214875
-0.069767646 -0.25886473 0.95686895 528927
-0.06524539 -0.26083404 0.95533752 1517876
-0.070524037 -0.27538872 0.95709813 4419983
-0.081984818 -0.2650767 0.96355397 1651559
-0.076407857 -0.26399451 0.96074837 1782104
-0.065895267 -0.26773804 0.95501918 4154236
-0.060157545 -0.2698659 0.95893776 3028033
-0.071536437 -0.26410037 0.96853894 2369321
-0.064032495 -0.26395896 0.96432102 2040105
-0.064249888 -0.24913418 0.97889102 4146252
-0.084224023 -0.27541482 0.96708387 5077683
-0.078714393 -0.27815574 0.96295577 4617364
-0.070083961 -0.28124142 0.96072131 4549258
-0.063017771 -0.27752918 0.96144897 6582660
-0.080758616 -0.26500061 0.97237056 7695014
-0.072304383 -0.26543516 0.97378606 2040625
-0.064277351 -0.26663101 0.9724642 2172202
-0.059767637 -0.27181751 0.96763992 2760198
-0.083910346 -0.29022276 0.96344447 4683677
-0.078609452 -0.29194424 0.96224988 3831442
-0.088438794 -0.28274435 0.96897203 3299734
-0.082573391 -0.28526986 0.96500295 4683420
-0.074852161 -0.2888504 0.96352142 3960460
-0.11751063 -0.34348637 0.92400944 3829135
-0.10977686 -0.34563673 0.92263603 4223637
-0.10414858 -0.34780109 0.92102337 3960467
-0.11489293 -0.33730695 0.93061137 3498881
-0.10686232 -0.33927685 0.92888051 3895695
-0.09911035 -0.34109145 0.92842644 3631246
-0.11053746 -0.32812431 0.93616778 3499128
-0.10408695 -0.33082035 0.93409902 4025235
-0.095694408 -0.33419961 0.93420303 3499655
-0.10644674 -0.32094753 0.94107831 3826560
-0.10023311 -0.32336804 0.93998343 4156303
-0.093208313 -0.32790473 0.93967932 3630985
-0.10302086 -0.31714016 0.94964367 3893387
-0.096656218 -0.3178246 0.94739217 4157333
-0.08979068 -0.32119185 0.94762987 3762828
-0.098538712 -0.31371588 0.95649534 3762325
-0.09204182 -0.3111977 0.95450592 4420507
-0.086494789 -0.3148452 0.95471448 3828877
-0.094632342 -0.30461955 0.96621931 4222878
-0.088338867 -0.30528802 0.96085227 4552347
-0.082948551 -0.30951327 0.96131372 3631755
-0.092993587 -0.29509124 0.96810895 3627913
-0.085416459 -0.29731289 0.96368098 4683676
-0.078511983 -0.30075744 0.96511185 3892613
-0.074544027 -0.29371893 0.96804184 3563127
-0.1229533 -0.3530978 0.92138237 3033484
-0.1157408 -0.35794932 0.92062557 2897991
-0.10604707 -0.36013418 0.91872317 3891064
-0.098880492 -0.36312526 0.91882002 2638186
-0.12332013 -0.3451106 0.92746532 666715
-0.11399086 -0.34982401 0.92364025 4813457
-0.10029555 -0.35206178 0.92281467 3499654
-0.09385667 -0.35678208 0.92395902 3561592
-0.11983192 -0.33770126 0.93541867 6722
-0.096984014 -0.34598777 0.92938292 3694979
-0.090933084 -0.34923863 0.929573 3233144
-0.091771916 -0.33988103 0.9361878 3104639
-0.087650597 -0.34355763 0.93743151 2640231
-0.088920899 -0.33352751 0.94299281 2907007
-0.085251242 -0.33816445 0.945162 3099492
-0.10536861 -0.3190001 0.95609766 4089741
-0.085867822 -0.32759809 0.94989789 3496061
-0.081800416 -0.33150351 0.95299774 4278874
-0.10030468 -0.31457841 0.96116269 2972810
-0.08283177 -0.32156861 0.95783502 3757171
-0.079954624 -0.32601175 0.95881367 3748927
-0.097148389 -0.31127048 0.96488446 3630740
-0.079528473 -0.31612599 0.96180016 3953004
-0.11896764 -0.36539775 0.92008644 984897
-0.10782114 -0.36610752 0.92055166 4350584
-0.089652047 -0.35450754 0.93531805 4674411
-0.086816855 -0.35076338 0.94279927 6974583
-0.084454075 -0.34321699 0.95077246 3815753
-0.10991818 -0.32468542 0.96270627 5799072
-0.080007777 -0.33527195 0.95507228 5064001
-0.092618257 -0.36711913 0.93979186 7039097
-0.090865418 -0.36408985 0.94451308 7565430
-0.088364825 -0.3581588 0.95037019 8223350
-0.085303485 -0.34951597 0.95284498 9076613
