# .PCD v0.7 - Point Cloud Data file format
VERSION 0.7
FIELDS x y z rgba
SIZE 4 4 4 4
TYPE F F F U
COUNT 1 1 1 1
WIDTH 174
HEIGHT 1
VIEWPOINT 0 0 0 1 0 0 0
POINTS 174
DATA ascii
-0.019114349 -0.12471176 0.97769529 5134174
-0.01349666 -0.12779289 0.97505122 5134176
-0.017780632 -0.12145745 0.98081982 4871515
-0.033630058 -0.13877767 0.97340965 4936281
-0.024954669 -0.14358707 0.96927828 5199967
-0.020446803 -0.14504653 0.96811014 5397348
-0.038647316 -0.13164888 0.97947943 4673880
-0.031641059 -0.13299701 0.9758954 4870232
-0.022805434 -0.13629727 0.97417784 5068382
-0.013616294 -0.13935691 0.97246665 5068384
-0.0058222972 -0.14132671 0.97227991 4476504
-0.035361681 -0.1243106 0.98465979 4607822
-0.028774086 -0.12549974 0.98200893 4673623
-0.018905841 -0.12928523 0.9788959 5134174
-0.0089256205 -0.1318114 0.97697353 4739419
-0.001860261 -0.13518326 0.97588867 4081746
-0.032391198 -0.1198325 0.99130148 4410445
-0.024164759 -0.11956193 0.98780936 4213839
-0.01443984 -0.12230679 0.98566943 4345429
-0.005287718 -0.1255953 0.98299158 4016211
0.0020656884 -0.12905173 0.98165905 3621193
-0.021520142 -0.11613081 0.99116021 3884109
-0.012469538 -0.11828749 0.9895432 3752784
-0.0028624423 -0.12145121 0.98700362 3621192
0.0034583136 -0.12435651 0.98455721 3686459
-0.046385814 -0.15150097 0.97517991 4673626
-0.039132819 -0.15259154 0.97058135 4870741
-0.031121217 -0.15623328 0.96777236 5265754
-0.021551009 -0.15895611 0.96601343 5397604
-0.012713034 -0.16172047 0.96788222 4608350
-0.04372688 -0.14252478 0.97835308 4673629
-0.036509104 -0.14456746 0.9737823 4870744
-0.029289624 -0.14790857 0.97050858 5134174
-0.017142892 -0.15072194 0.969311 5397606
-0.0093233883 -0.15553397 0.97086281 4476760
-0.0020645633 -0.15621644 0.97355008 4015442
-0.047130674 -0.13803834 0.98860508 3883351
-0.043735277 -0.13550884 0.98399562 4475995
-0.013771575 -0.14622056 0.97280639 5068641
-0.0041510016 -0.14825225 0.97415376 4082513
0.001646094 -0.15232311 0.97669768 3752531
-0.040989023 -0.12768853 0.98983419 4079443
0.0011886768 -0.14242068 0.97912812 3621705
0.004357066 -0.14747152 0.97877789 3751503
0.002659224 -0.13587932 0.9832921 3490378
-0.043131299 -0.17501447 0.96909368 5002588
-0.04018335 -0.17598526 0.96831441 5528419
-0.049236737 -0.16542047 0.97784674 4739163
-0.043570463 -0.16750666 0.97209543 5002333
-0.034936503 -0.17055291 0.9695456 5397092
-0.025708338 -0.17293367 0.96959072 5332066
-0.019757465 -0.17512834 0.97005391 4740695
-0.048833914 -0.15875508 0.97692567 4082256
-0.042817194 -0.16042948 0.97321934 5068120
-0.021569215 -0.16839954 0.96943498 5200736
-0.012769207 -0.17012842 0.97114497 4345175
-0.0055592507 -0.17257261 0.97232312 4278096
-0.0065094866 -0.16241294 0.97418809 4147028
-0.0023890212 -0.16698384 0.97568536 3819087
0.0004766807 -0.15937829 0.97783518 3687502
-0.041497163 -0.1926298 0.96770096 5528423
-0.037319236 -0.19358021 0.96699703 5397348
-0.047773182 -0.18063627 0.97137624 4804702
-0.039095405 -0.18325238 0.96851313 5462626
-0.030266924 -0.18744913 0.96851039 5003105
-0.021466557 -0.18819042 0.96949703 4804440
-0.052359771 -0.17210196 0.98103333 3817824
-0.048179731 -0.17365101 0.97426921 4673622
-0.033400573 -0.17851797 0.97036237 5660265
-0.025990257 -0.17972939 0.96956033 5069150
-0.016641535 -0.18197732 0.97061944 4475986
-0.009963993 -0.18078786 0.97204417 4014924
-0.011520155 -0.17727488 0.97253191 4606547
-0.0053097978 -0.17774604 0.97305906 3620428
-0.050409097 -0.19996089 0.97001153 4079956
-0.044631284 -0.20105125 0.96610796 5266270
-0.039137129 -0.20410097 0.96662879 5002845
-0.050602082 -0.19363141 0.97321308 4079963
-0.044528361 -0.19629103 0.96823829 5330781
-0.034024302 -0.19914126 0.96829808 5002331
-0.02861187 -0.19504872 0.97013474 5001816
-0.023699841 -0.19524908 0.97181946 4540755
-0.016884983 -0.19123232 0.97426307 4213074
-0.049394745 -0.21706422 0.97044671 5265766
-0.048756991 -0.2117486 0.9715538 5068639
-0.040078521 -0.21296661 0.9701491 4214103
-0.053686716 -0.20158742 0.97382736 1580089
-0.033479303 -0.20726001 0.97032607 4145996
-0.028693007 -0.20380409 0.97288197 4212054
-0.055820987 -0.21786729 0.97351956 3618132
-0.051188622 -0.2202602 0.9714784 5199718
-0.044693418 -0.22153173 0.97057801 4214875
-0.069868371 -0.27168816 0.94419724 528927
-0.065409377 -0.27368423 0.94252169 1517876
-0.070458479 -0.28819466 0.94512099 4419983
-0.081680954 -0.27771574 0.95172507 1651559
-0.076260149 -0.27670637 0.94860405 1782104
-0.066009872 -0.28060001 0.94251108 4154236
-0.060065489 -0.28252655 0.94622016 3028033
-0.071007989 -0.2764633 0.95613992 2369321
-0.063723862 -0.27643657 0.95155072 2040105
-0.063357301 -0.26104009 0.96551216 4146252
-0.083646111 -0.28791976 0.95577073 5077683
-0.078322455 -0.29078394 0.95148528 4617364
-0.069784932 -0.29389361 0.94894767 4549258
-0.062726267 -0.29010344 0.94917375 6582660
-0.080020227 -0.27727634 0.96045959 7695014
-0.071502581 -0.27759171 0.9614678 2040625
-0.063540094 -0.27878082 0.95979583 2172202
-0.059226781 -0.28412387 0.95496285 2760198
-0.083375141 -0.30285931 0.95271224 4683677
-0.078124136 -0.30458856 0.95132411 3831442
-0.087693691 -0.29519814 0.95815682 3299734
-0.082008839 -0.29783809 0.95400381 4683420
-0.074337453 -0.30141863 0.95228261 3960460
-0.11839005 -0.3579098 0.91715217 3829135
-0.11071412 -0.36005691 0.91548139 4223637
-0.10515274 -0.362243 0.91367733 3960467
-0.1155062 -0.35145098 0.92336428 3498881
-0.1075532 -0.35342997 0.92131478 3895695
-0.099816665 -0.35520452 0.92054719 3631246
-0.11096656 -0.34202075 0.92832685 3499128
-0.10460162 -0.3447504 0.9260478 4025235
-0.096183099 -0.34806114 0.9258675 3499655
-0.10670464 -0.33462262 0.93273783 3826560
-0.10053059 -0.33703956 0.93143153 4156303
-0.093487531 -0.34153321 0.93095821 3630985
-0.10289426 -0.33044904 0.94096339 3893387
-0.096642882 -0.33117673 0.93842626 4157333
-0.089742914 -0.33448133 0.93845505 3762828
-0.098110273 -0.32671934 0.9474414 3762325
-0.091743663 -0.32423562 0.94503176 4420507
-0.086159371 -0.32783103 0.94510841 3828877
-0.093811899 -0.31721112 0.95658886 4222878
-0.087786086 -0.31804863 0.95094544 4552347
-0.082340389 -0.32221231 0.95130521 3631755
-0.092170402 -0.30760279 0.95801389 3627913
-0.08480157 -0.30994505 0.95330536 4683676
-0.077802882 -0.31327862 0.95452601 3892613
-0.073760405 -0.30609918 0.95697212 3563127
-0.12386639 -0.36765867 0.91518426 3033484
-0.11665535 -0.37248367 0.91426229 2897991
-0.10704784 -0.37467217 0.91196716 3891064
-0.099857703 -0.37760437 0.91182542 2638186
-0.12400584 -0.35943633 0.92095536 666715
-0.114834 -0.36423117 0.91686028 4813457
-0.10117616 -0.36639991 0.91544235 3499654
-0.094644785 -0.37102309 0.9164511 3561592
-0.12019709 -0.35168791 0.92842376 6722
-0.097600028 -0.36004269 0.92159045 3694979
-0.091517091 -0.36323887 0.92160767 3233144
-0.092114337 -0.35362935 0.92787862 3104639
-0.087902382 -0.35722268 0.92906052 2640231
-0.088989019 -0.34698665 0.93427479 2907007
-0.085173354 -0.3515057 0.936441 3099492
-0.10490195 -0.33206517 0.94759536 4089741
-0.085652992 -0.34076229 0.94077766 3496061
-0.081400797 -0.34451002 0.94382375 4278874
-0.099634737 -0.32740653 0.95222163 2972810
-0.082283765 -0.33439657 0.94830734 3757171
-0.079320401 -0.33877558 0.94931722 3748927
-0.096328914 -0.32392856 0.95564675 3630740
-0.078838944 -0.32877493 0.95188314 3953004
-0.11983541 -0.37997121 0.91418147 984897
-0.10867342 -0.38058004 0.91411805 4350584
-0.089903958 -0.36826307 0.92748678 4674411
-0.086736642 -0.36420053 0.93466234 6974583
-0.084052183 -0.35632265 0.94220126 3815753
-0.10906537 -0.33751348 0.95464355 5799072
-0.079472542 -0.34817883 0.94595456 5064001
-0.092527255 -0.38070601 0.93260109 7039097
-0.090570971 -0.37747663 0.93710476 7565430
-0.087838665 -0.37129682 0.94258928 8223350
-0.084739149 -0.36253929 0.94456249 9076613
