# .PCD v0.7 - Point Cloud Data file format
VERSION 0.7
FIELDS x y z rgba
SIZE 4 4 4 4
TYPE F F F U
COUNT 1 1 1 1
WIDTH 1131
HEIGHT 1
VIEWPOINT 0 0 0 1 0 0 0
POINTS 1131
DATA ascii
-0.049199447 0.033052698 1.0201304 6254982
-0.045824729 0.037074268 1.0265043 6648965
-0.029527668 0.035536602 1.0204035 5270660
0.073575087 0.033375949 1.0295072 5662844
0.079372525 0.031778082 1.0298929 5794679
0.087917417 0.028699026 1.0291827 5926261
0.095756859 0.024645612 1.0325029 6253428
-0.039211895 0.041749641 1.0218188 7043204
-0.030140296 0.042045668 1.0227917 6188928
-0.01972558 0.044688985 1.0244544 5991293
-0.0099077793 0.046447903 1.0252115 5794427
-9.8341145e-005 0.04606086 1.0249823 5597052
0.0081379889 0.045346797 1.0242451 5399930
0.017555792 0.045365363 1.0236074 5203324
0.028246377 0.044942603 1.0242317 5269365
0.0408547 0.044442907 1.0259706 5334394
0.049852967 0.043002382 1.0284592 5466234
0.056272283 0.040899158 1.0295978 5597049
0.073683813 0.036302894 1.0296274 5991033
0.078154854 0.035968751 1.032174 6055795
-0.0078665903 0.048321575 1.025206 6056827
0.00095554627 0.048956394 1.0292684 5859449
0.0093819723 0.048816934 1.0286653 5728377
0.01841273 0.047846079 1.0307729 5532027
0.029015884 0.046866238 1.0313705 5532021
-0.088582173 0.0062667057 1.0257525 7306630
-0.086582936 0.0071713924 1.0259075 7438985
-0.068814397 0.024026729 1.0336424 7044228
-0.064724423 0.023939729 1.0308766 6255491
0.10020795 0.02191902 1.0376765 6187632
0.10562376 0.022196718 1.0380119 6119529
-0.04974442 0.035817295 1.0292281 6780808
0.068696536 0.033494487 1.0362372 5465215
0.091834418 0.027254969 1.0423945 6056820
0.098004468 0.026382536 1.0410261 5988198
-0.037072632 0.043579653 1.0302891 7108737
-0.030811835 0.046081781 1.0340699 7108222
-0.022206105 0.046926752 1.0313101 6582396
0.060267791 0.040875047 1.0382743 5859705
0.065615728 0.038860932 1.0372635 5728122
-0.0177157 0.050035119 1.0342064 6713719
-0.01136458 0.050643742 1.0360143 6450807
-0.0030644173 0.05060561 1.0348561 6122104
0.0087770829 0.051122501 1.0355859 6122617
0.021069417 0.051133364 1.0367409 6057083
0.027320858 0.05069226 1.0380342 6057334
-0.074033737 0.022882566 1.0362928 7832202
0.091384768 0.030517012 1.0465045 5792617
0.094354525 0.030399576 1.0466779 5724767
-0.029860288 0.049204156 1.0399628 7764863
-0.0099146189 0.052384675 1.0412818 6384242
-0.0010053301 0.052032351 1.0418022 6121843
0.16632177 -0.082819462 1.0656434 13950701
0.16934569 -0.082939044 1.0658201 13160147
0.16845016 -0.079872392 1.0658854 13423577
0.16662152 -0.092799351 1.0722916 12898285
0.17059477 -0.093913957 1.0719852 12832198
0.16550954 -0.086720511 1.0705991 10136266
0.17223482 -0.087469265 1.0710806 13159885
0.16601104 -0.080513522 1.0722308 12175571
0.17159054 -0.079526372 1.0690947 13093836
-0.13912943 -0.10151546 1.0654565 1720740
-0.1396302 -0.094591409 1.0654831 3628972
-0.14051625 -0.088453986 1.0670837 4745397
0.1653561 -0.094901942 1.0811571 6256041
0.16977967 -0.097767599 1.0815114 12767188
0.1638273 -0.085840449 1.0834224 7312841
-0.13862485 -0.12619935 1.0757567 2903988
-0.13551542 -0.12632231 1.0759383 1324707
-0.13959154 -0.11409914 1.0754168 2904505
-0.13787536 -0.10535198 1.0745058 2644141
0.16383657 -0.11530267 1.0943094 5801403
0.168246 -0.11582337 1.0945535 11779799
-0.13703926 -0.094212346 1.0730838 3039906
0.16339271 -0.10614713 1.0936358 3630254
0.16960326 -0.1071887 1.0933778 11516624
0.17658255 -0.10749485 1.0953766 13685195
-0.13934228 -0.085252173 1.0756633 2708908
0.16354139 -0.097648837 1.0930974 3762605
0.16821106 -0.10157703 1.0920969 10465738
0.16419886 -0.090693824 1.0892714 6721740
-0.13646668 -0.068101667 1.0781422 1588628
-0.13335726 -0.068224631 1.0783238 3826867
-0.13301542 -0.14203157 1.0814934 3694011
-0.13761652 -0.13523735 1.0794764 7178192
-0.13245068 -0.13523743 1.0809427 2114980
-0.13739911 -0.12377524 1.0799345 1063065
-0.13308804 -0.12680253 1.0809776 2447769
-0.13665053 -0.1162446 1.0802717 2578847
-0.13431746 -0.1160152 1.0834281 2907546
0.16288204 -0.1264936 1.0993316 6851775
0.16856252 -0.12619151 1.0981799 13029078
-0.13563348 -0.10622413 1.0814738 3104917
-0.13385203 -0.10348581 1.0839427 3170462
0.1618934 -0.11566328 1.0996929 3040417
0.17155662 -0.11930832 1.0986267 13422807
0.17458543 -0.11629972 1.0989251 13619661
-0.13725097 -0.093638092 1.0818655 3104162
0.1610021 -0.10738893 1.0993164 2973607
-0.13629308 -0.085361533 1.0824951 3169952
0.16166338 -0.097396031 1.1018924 2843043
-0.13767782 -0.075595073 1.0819471 3301299
-0.12894282 -0.15450858 1.0912784 4750553
-0.12550986 -0.15695226 1.0933944 1196192
-0.13049214 -0.14705102 1.088267 3036848
-0.12699811 -0.14967658 1.0935878 1789334
0.15674403 -0.1567557 1.107814 12898004
-0.12912545 -0.13626996 1.0901934 2776475
0.15764427 -0.14764749 1.1071188 9087435
0.16381526 -0.14311123 1.1042562 13488846
-0.13095576 -0.12545083 1.0902811 3038106
0.15795292 -0.1369689 1.1065495 4354994
0.16599558 -0.13522157 1.1046933 13752800
-0.13255137 -0.11573838 1.0920107 2973083
0.15823334 -0.12724604 1.1078539 2121388
-0.13660854 -0.10184606 1.0878513 3301280
-0.13363603 -0.10706461 1.0914724 3039132
0.15938701 -0.11914255 1.1060911 2646946
0.17566288 -0.11461535 1.1090806 13817039
-0.13637498 -0.095558546 1.0881094 3366820
-0.13415182 -0.096318603 1.093226 3105183
0.15800577 -0.1069857 1.1100229 3631271
0.17679071 -0.11255532 1.1092281 13817037
-0.13595976 -0.084380746 1.0885683 3499424
-0.13353944 -0.085651875 1.0924737 3302563
0.15809768 -0.096707053 1.1096667 3369127
-0.13313258 -0.076154232 1.0925663 3434147
0.16030592 -0.087250113 1.1111368 2908578
0.16625808 -0.084778622 1.1096755 8233160
-0.13718326 -0.064732447 1.0901173 3365295
-0.13209897 -0.066267937 1.0933591 3499689
0.16146675 -0.077707693 1.1113142 4024485
0.16657035 -0.076372445 1.1100206 11192030
-0.13545199 -0.056010358 1.0927082 2181536
-0.13030371 -0.056121364 1.0942155 3433908
0.16075726 -0.072341502 1.113839 2708114
-0.1337731 -0.048020713 1.0971293 8233201
-0.12989463 -0.049222466 1.0955964 3564980
0.018796356 0.11798608 1.1087108 9935247
0.02452858 0.11866134 1.1090806 9934992
-0.12075474 -0.1664101 1.1020266 929696
-0.11673201 -0.1670174 1.1045576 1984411
0.14517596 -0.17310825 1.1200199 13424882
-0.121273 -0.15673296 1.1000732 2512540
-0.11692747 -0.1589376 1.103523 2906513
0.14686231 -0.16715167 1.1179017 8955594
0.15276596 -0.1658956 1.1147397 14080986
-0.12792255 -0.14241198 1.1008322 2381461
-0.12512459 -0.14778334 1.1027339 2776212
0.14751133 -0.15752597 1.1170757 3697834
-0.12819864 -0.13651441 1.1018802 2841752
-0.12642272 -0.1410358 1.1049857 2906774
0.14970006 -0.14771596 1.1180691 2646183
-0.1297525 -0.12593399 1.1032243 2907034
-0.12602708 -0.13038543 1.1054231 2775704
0.15053393 -0.13905996 1.119558 3696546
0.15278552 -0.13458961 1.1192985 3761571
-0.1303338 -0.1164017 1.1021434 2973083
0.15472624 -0.12853903 1.1189814 3368880
-0.13101412 -0.10614464 1.1019551 3039134
0.15547597 -0.11694477 1.1190816 3500454
-0.13078532 -0.095692106 1.1020739 3171232
0.15465952 -0.10851592 1.1203755 3631529
-0.13097414 -0.086887278 1.1017028 3302564
0.15379888 -0.097912923 1.1164391 3697839
0.15402627 -0.098296627 1.1194454 3763633
-0.13072322 -0.076375879 1.102928 3368355
0.15502544 -0.087069586 1.1196549 3436468
0.16942132 -0.084026366 1.1209224 10992842
-0.1280034 -0.066066563 1.1034914 3697068
0.15311143 -0.074228257 1.1243354 3765679
0.15649988 -0.076664001 1.1196135 3830452
0.1692256 -0.079767458 1.1210761 11387079
-0.12648788 -0.058260757 1.1016798 3631022
-0.12416818 -0.055122614 1.1014394 3500456
0.15290606 -0.067185231 1.1217004 3830449
0.15973604 -0.067846745 1.1195983 5207985
0.16596256 -0.06926994 1.1239616 10334913
-0.12640285 -0.046326194 1.104225 3434161
0.15239452 -0.058223844 1.1217631 3893939
0.15950164 -0.058955789 1.1213571 8428221
-0.12649952 -0.036439717 1.1081836 6194370
-0.12193439 -0.034553289 1.1093899 4421311
0.15057573 -0.046411112 1.1241699 5734064
0.15666164 -0.05037016 1.1254747 10203587
-0.12035709 -0.027949408 1.1097409 6852289
0.14943999 -0.04035823 1.1222225 8955077
0.024033621 0.094065934 1.1231339 9737616
-0.092262544 -0.20471638 1.112915 7635861
-0.089063868 -0.20544514 1.1157519 8100012
-0.10228767 -0.19451046 1.1153839 10535920
-0.095236003 -0.19736917 1.1133366 5996227
-0.088930696 -0.20186016 1.1158991 6394567
-0.11138479 -0.18278739 1.1072735 8431615
-0.10465878 -0.18561099 1.1103432 1526185
-0.098823979 -0.18840265 1.1146829 1262491
0.124401 -0.19449933 1.1289721 11717846
-0.1196024 -0.17390677 1.1071258 7571711
-0.11281276 -0.17650813 1.1089913 1917611
-0.10617118 -0.17944698 1.1130626 2379673
-0.099699259 -0.18276501 1.1159952 2644619
0.12624206 -0.18769935 1.1293465 5010097
0.13382661 -0.18490542 1.1267587 10599906
0.14100842 -0.18394381 1.1263672 14081762
-0.11270913 -0.16779122 1.1119977 2709143
0.12767559 -0.17715625 1.1298418 2909858
0.13455573 -0.17679635 1.1264403 4026283
0.14234783 -0.17714548 1.1232026 12307424
-0.11884869 -0.15361689 1.1079588 2775446
-0.11480675 -0.15810978 1.1109432 2775442
0.13608672 -0.16794336 1.127696 3105445
0.14134938 -0.16711488 1.1230309 2578854
-0.12073808 -0.14643165 1.110284 2775449
-0.11689078 -0.14917497 1.1149324 2906778
0.13869105 -0.15830383 1.1296301 3564451
0.14231168 -0.15730476 1.1258757 3433893
-0.12432807 -0.13765888 1.1115526 2840984
0.14039198 -0.15025355 1.1316488 3565217
0.14456207 -0.14808255 1.126636 3499430
-0.12848604 -0.1254299 1.1084758 2841497
-0.12593469 -0.12755537 1.1145614 2907290
0.14708728 -0.1376563 1.1295316 3237547
-0.12841034 -0.11604267 1.110449 2973083
-0.12596489 -0.11680247 1.1149772 3038877
0.15046096 -0.1281527 1.1312877 3827369
0.15352553 -0.12695703 1.1253202 3564710
-0.12917112 -0.10609574 1.1120499 3039391
-0.12683605 -0.10825881 1.1159252 3170977
0.15111418 -0.11808312 1.1315356 3565735
0.15384288 -0.11841392 1.125671 3500198
-0.1291213 -0.097994141 1.1145159 3170977
0.15175551 -0.10906292 1.131256 3631790
0.15261494 -0.11088512 1.1339102 3434923
-0.1288247 -0.087411866 1.113942 3302823
0.15183495 -0.097620919 1.1318722 3566513
-0.12834308 -0.077374935 1.113024 3368614
0.15127327 -0.088344313 1.1322373 3632560
-0.12763445 -0.069751948 1.1146991 3565995
0.15053098 -0.078094736 1.1313158 3895728
-0.12424367 -0.05490369 1.1170832 3697842
0.14865513 -0.068003193 1.1301249 4158132
-0.12220379 -0.046629824 1.1162872 3502262
0.14785084 -0.057352796 1.1316932 4027837
-0.11917666 -0.037211347 1.1162471 3698611
0.14319283 -0.045887992 1.1358695 4619197
0.14920068 -0.04899754 1.1305563 4946612
-0.1249555 -0.030387856 1.1123782 7180220
-0.11770558 -0.027972378 1.1201249 4815032
0.14338823 -0.039386827 1.1354653 5209534
0.14860491 -0.037539177 1.1284977 8425655
0.024820233 0.089885131 1.1260264 9474444
-0.06637191 -0.21649462 1.1237007 8300241
-0.084021665 -0.20745265 1.1193484 7642055
-0.076699108 -0.20848738 1.1218889 4815810
-0.07017412 -0.212257 1.1236374 5210825
-0.092674777 -0.19518249 1.1189417 932767
-0.085950457 -0.19896142 1.1208864 2382238
-0.077604465 -0.20242624 1.1235738 2251168
0.10558639 -0.20641935 1.1343992 6518691
0.11153305 -0.20556974 1.1333565 11319227
-0.094259799 -0.18845536 1.1209793 2447513
-0.089135021 -0.19221658 1.1232791 2513045
0.11365525 -0.19744712 1.1341759 4617903
0.12085784 -0.19762707 1.1316458 10929103
-0.10326008 -0.17705612 1.1204693 2971544
-0.097534657 -0.18106994 1.1212034 2774929
0.11610327 -0.18825141 1.1340642 2909086
0.12117208 -0.1874074 1.1320616 3105187
-0.11020006 -0.16353138 1.1191202 2709911
-0.10591822 -0.16885681 1.121529 2644371
0.12301423 -0.17769055 1.1331662 3368356
-0.11238872 -0.15690491 1.1210692 2775444
-0.10763489 -0.16125113 1.122036 2709910
0.12773031 -0.16805181 1.1348103 3368613
0.13213238 -0.16519499 1.133581 3499683
-0.11525752 -0.14820874 1.120916 2841497
0.12965818 -0.16077039 1.1376147 3237027
0.1346359 -0.15814829 1.1353415 3302821
-0.12068857 -0.13636571 1.1201195 2645144
-0.11742785 -0.13832524 1.1227849 2775964
0.13806576 -0.14838512 1.1367769 3237542
0.14232755 -0.14493933 1.1363155 3106215
-0.12225606 -0.12794153 1.121238 2907291
0.13976116 -0.13892031 1.1377321 3499683
0.14302009 -0.137006 1.1364741 3303338
-0.12292749 -0.11802857 1.1225305 3039134
0.14492978 -0.12860174 1.1371845 3499947
-0.12738872 -0.10345537 1.120423 3236770
-0.12559311 -0.10795325 1.1236978 3236770
0.14702255 -0.11819434 1.1381216 3500458
-0.12714836 -0.096985273 1.1206887 3237027
-0.12567948 -0.09756963 1.1247641 3302821
0.14974673 -0.10777308 1.1391582 3632048
-0.12678784 -0.087280139 1.1210871 3302824
-0.12533778 -0.088371344 1.1251417 3302569
0.14835913 -0.09882544 1.1393185 3632047
-0.1268823 -0.078204975 1.1214339 3434408
-0.12426347 -0.076105617 1.1256825 3434665
0.14540614 -0.087647483 1.1392109 4026292
-0.1260668 -0.067869872 1.1218841 3631531
-0.12455391 -0.067269385 1.1260083 3631531
0.14589085 -0.079632357 1.1381741 4157366
-0.12582646 -0.061399784 1.1221497 4025255
-0.12263045 -0.056497708 1.1248232 3632304
0.14581931 -0.067822367 1.1381828 4289211
-0.11881068 -0.04763373 1.1248235 3568048
0.14303046 -0.0569719 1.1391053 4094399
0.14511368 -0.061496109 1.1403912 4224702
-0.11717834 -0.041583035 1.1234376 3764911
-0.11373582 -0.037507422 1.1263087 3895729
0.14074533 -0.048493087 1.1400875 4487616
-0.11789744 -0.023573317 1.1271015 6458567
-0.1130779 -0.027511775 1.126636 3895996
0.14114761 -0.037428919 1.139484 5735616
0.14813842 -0.034436174 1.1396183 9477559
-0.11741976 -0.020950615 1.1282346 6852289
-0.11417639 -0.02107887 1.128424 5933254
0.056142207 0.073955283 1.1383133 9474701
-0.030803766 -0.22884488 1.1373837 7248329
0.0019516302 -0.23169884 1.1384342 5801654
0.010028637 -0.23086701 1.1384159 5210039
0.022689287 -0.23205546 1.1404655 6328255
0.030336957 -0.23235787 1.1409121 7379645
0.041873671 -0.23269242 1.1415906 8430007
0.050110426 -0.23108029 1.1381366 8625323
-0.067836806 -0.21892639 1.1275288 9678537
-0.057428218 -0.21960802 1.1346691 4422071
-0.04822642 -0.22070871 1.1366553 2778029
-0.038554665 -0.22290602 1.1371498 2513574
-0.031059612 -0.22591428 1.1374822 2315684
-0.0012243707 -0.22782424 1.1391964 2120102
0.010793392 -0.2282995 1.1398983 2185635
0.023944303 -0.22772439 1.1407088 2186146
0.0293663 -0.22903396 1.140983 2316696
0.044742879 -0.22745168 1.1419661 4486314
0.052419003 -0.22727814 1.1404278 5997746
0.063599475 -0.22479607 1.1420537 6063288
0.072234727 -0.22372013 1.1437589 6589614
0.080311261 -0.22425856 1.1442221 8757678
-0.072817683 -0.20676637 1.1277025 1855898
-0.066399269 -0.20966187 1.1312211 2249885
-0.059061565 -0.21242782 1.1355984 2381985
-0.051074244 -0.21490122 1.1367102 3039902
0.066433012 -0.21790534 1.1436369 2841504
0.072462201 -0.21759617 1.1440103 3302564
0.082168534 -0.21566981 1.1433302 4420011
0.092240468 -0.21505496 1.1395656 6984117
0.10189538 -0.21258789 1.1379486 6254993
-0.083594732 -0.1958537 1.1282822 2710418
-0.076222509 -0.19955625 1.1321704 2775447
-0.069766663 -0.20215657 1.1352826 2906776
0.084847607 -0.20792159 1.1447273 3171492
0.093556128 -0.20677724 1.1424867 3237285
0.10217062 -0.2057299 1.1388043 3629215
-0.086456612 -0.18895641 1.1323887 2775191
-0.078620866 -0.19286199 1.1352465 2906012
0.095758744 -0.19772261 1.1445075 3040421
0.10295065 -0.19618496 1.1416037 3105703
0.10901003 -0.19655597 1.1389977 2777257
-0.10094076 -0.17411524 1.1272846 2710677
-0.094545782 -0.17839774 1.1310401 2709909
-0.088624828 -0.18234174 1.1337187 2709910
0.1041965 -0.1880025 1.1455842 3368100
0.11209139 -0.18629923 1.1417195 3302561
-0.10210934 -0.16765295 1.1305846 2710421
-0.097686134 -0.17084789 1.134825 2644886
0.10644934 -0.18039024 1.1474924 3040936
0.11471251 -0.17753246 1.1460063 3237031
0.12138359 -0.17477569 1.1435927 3368615
-0.11106386 -0.154139 1.1274537 2776209
-0.1060954 -0.15901186 1.1323243 2841240
0.11693026 -0.16922025 1.1485543 3237287
0.12376118 -0.16705263 1.1438919 3302822
-0.11208633 -0.14763287 1.1321899 2710683
-0.1076916 -0.15121396 1.1351213 2841499
0.12617797 -0.15883642 1.146917 3237541
0.13146664 -0.15617408 1.1435159 3237798
-0.11392904 -0.13902986 1.1330246 2907293
0.12802918 -0.15025033 1.1499563 3237797
0.13314475 -0.14770395 1.145349 3303334
-0.1195487 -0.12694654 1.1291468 2907805
-0.117778 -0.12890165 1.1352496 2907805
0.13517536 -0.13852665 1.1483892 3434407
-0.11979245 -0.11769278 1.1310192 3039392
-0.11754281 -0.1191833 1.1364431 3039391
0.13747698 -0.12904029 1.1487682 3500202
0.14205037 -0.12608419 1.1437148 3631274
-0.12270603 -0.10848719 1.1330734 3170979
0.13967791 -0.11894792 1.1514245 3631791
0.14342861 -0.11828993 1.1458824 3566510
-0.1227959 -0.098182783 1.1346523 3105957
0.13934289 -0.10777096 1.1506131 3632305
0.14488705 -0.10884037 1.1448886 3501227
-0.12266792 -0.088068679 1.1327611 3237546
0.13927549 -0.098661482 1.1500818 3698099
0.14416964 -0.099026911 1.1452936 3698094
-0.12169897 -0.078369088 1.1334345 3434923
0.14082022 -0.089471593 1.1510781 3895479
0.14334126 -0.091333613 1.1451416 3895477
-0.12097005 -0.067966595 1.1345029 3566256
0.14141797 -0.078248039 1.1528865 4027579
0.14412643 -0.077642307 1.1497306 4157882
-0.11960199 -0.059080191 1.1341717 3567024
0.13976747 -0.068624526 1.1526502 4159422
0.14434537 -0.068770528 1.1484841 4289724
-0.11679681 -0.049264431 1.1325194 3567791
-0.11394813 -0.04766243 1.1380992 3764403
0.13852331 -0.058477093 1.1514757 4356797
-0.11151512 -0.038573094 1.1324873 3830196
0.13627841 -0.048767708 1.1507825 4619718
-0.10978113 -0.027836852 1.1353518 3896507
0.13260949 -0.036750592 1.1515193 4817095
0.13729721 -0.037380755 1.1485454 4948420
-0.1170957 -0.018419266 1.1363727 6916535
-0.10962623 -0.019232251 1.1364805 5210049
0.13187584 -0.03041742 1.1538378 5013440
0.13648072 -0.030086517 1.1517874 5998788
0.034794223 0.047663271 1.1468974 5859448
0.043085631 0.047489092 1.1455258 6122362
0.048457257 0.047281921 1.1488473 6319482
0.059349924 0.047953367 1.1535366 5330522
0.035630785 0.052139774 1.1455938 5792108
0.043500397 0.052695632 1.1455524 5527648
0.048619181 0.051640958 1.1490263 5067354
-0.025252119 -0.22916022 1.1407118 4354997
-0.018068451 -0.23055393 1.1430933 4684224
-0.0080966605 -0.23059364 1.1422192 4289976
0.0029728254 -0.22870776 1.1424211 2054307
0.013358511 -0.22966748 1.1430064 2777510
0.018794654 -0.23098049 1.1432813 4026798
0.035225257 -0.23163024 1.1442409 5604271
0.03912016 -0.23013723 1.1445323 4881326
-0.043802425 -0.21807382 1.1400304 3039902
-0.0359363 -0.21932322 1.1409547 2710943
-0.027726758 -0.22167207 1.1441671 2645152
-0.018179897 -0.2250458 1.1479791 2514339
-0.0082272822 -0.22531384 1.1480306 2514851
0.0018510334 -0.22314388 1.1471817 2842787
0.011859611 -0.22302558 1.1455806 2908579
0.021492779 -0.22303168 1.1466479 3039651
0.03156957 -0.22417888 1.1483214 2908578
0.040944144 -0.22366747 1.1486526 2778020
0.051152017 -0.22231433 1.1469896 2646433
0.060690381 -0.22531711 1.1460124 5012145
0.072144292 -0.22705106 1.1466316 8955830
-0.056506649 -0.20916438 1.1399014 2841242
-0.046887044 -0.21170162 1.1424323 2775960
-0.038063344 -0.21340522 1.1448333 2841500
-0.028982367 -0.2160898 1.1490161 2907551
0.0026635649 -0.21660416 1.1508931 3105184
0.011868685 -0.21659964 1.151445 3170722
0.021795452 -0.21699218 1.1520247 3302053
0.031926554 -0.21684001 1.152638 3170723
0.04243898 -0.21633434 1.1532876 3105188
0.051880158 -0.21584378 1.152154 3170467
0.061703589 -0.21586293 1.1488464 3236258
0.072068907 -0.21275043 1.1476281 3171236
-0.072644405 -0.19716877 1.1391134 2906776
-0.066280991 -0.19970357 1.1405423 2907033
-0.058108881 -0.20116346 1.1446753 2841497
-0.04921579 -0.2057074 1.1482066 2775704
0.052965801 -0.21048531 1.1541458 3105443
0.061789595 -0.21083425 1.1546612 3105443
0.072771393 -0.207499 1.1541826 3105956
0.081435435 -0.20482546 1.1512599 3105956
-0.083190851 -0.18577144 1.1389239 2644884
-0.076450579 -0.18972945 1.1421819 2775705
-0.068365864 -0.19303115 1.1452117 2841497
0.076538369 -0.20036104 1.1559519 3172006
0.084325634 -0.19824582 1.1554983 3040421
0.09041106 -0.19603395 1.1534425 2974628
-0.091628015 -0.17665356 1.1387722 2645144
-0.085249931 -0.1787997 1.1421379 2710425
-0.080151081 -0.18178484 1.143844 2776216
0.094175711 -0.18755376 1.1542481 3171493
0.099413663 -0.18540093 1.1514877 3237026
-0.094516739 -0.16862865 1.1415056 2710424
-0.088481434 -0.17123926 1.1457332 2710937
0.097130105 -0.18127374 1.1579274 3302823
0.10378627 -0.17732212 1.1553138 3172005
0.10973484 -0.17438221 1.1549404 3172006
-0.10259245 -0.15682152 1.1388851 2841498
-0.098596118 -0.1597023 1.1439486 2907290
0.10636401 -0.17058244 1.1588961 3303592
0.11280217 -0.16740024 1.1580688 3237544
0.11949834 -0.16304211 1.1519557 3303337
-0.1041421 -0.14837363 1.140839 2973342
-0.10005401 -0.15191594 1.1472483 3038879
0.11667312 -0.15981738 1.1592636 3237544
0.12140673 -0.15678905 1.1551201 3303336
-0.11167706 -0.13649383 1.1401327 2973342
-0.10601292 -0.1400672 1.1448448 2973600
0.12507449 -0.14785835 1.1568898 3368872
-0.11304076 -0.12863298 1.1417125 3039392
-0.10799345 -0.12988396 1.1476279 3236259
0.12661774 -0.13855165 1.1590981 3500460
0.13147031 -0.13606489 1.153721 3434923
-0.11381259 -0.11898208 1.1425784 3170978
0.12793341 -0.12971275 1.1604394 3500719
0.13290857 -0.12727219 1.1574905 3500718
-0.11977329 -0.10746293 1.1397722 3237029
-0.11637952 -0.10921412 1.1459229 3237286
0.13340838 -0.11854941 1.1606381 3697329
-0.11944746 -0.098691598 1.1401323 3237543
-0.11732701 -0.098648489 1.1477802 3172263
0.13499181 -0.10948037 1.1605787 3697843
-0.11957148 -0.089173459 1.1435021 3303340
-0.11776056 -0.088378251 1.1486543 3303852
0.13513015 -0.099057123 1.1613928 3764149
-0.11909307 -0.079307139 1.1409063 3500716
-0.11680982 -0.078359738 1.1491003 3501229
0.13853686 -0.088696979 1.160567 3764661
-0.11842924 -0.071281195 1.1412578 3566512
-0.11539982 -0.068158478 1.1459354 3632306
0.13594721 -0.078382514 1.1607113 3896764
-0.11444273 -0.058576148 1.1463648 3698357
0.13021821 -0.068206325 1.1629648 4291265
0.13432944 -0.069310606 1.1576304 4225217
-0.11247981 -0.049631543 1.1464653 3764408
0.13139485 -0.058622889 1.1627392 4554434
0.13436206 -0.058219358 1.1569173 4488640
-0.1091819 -0.039083172 1.1478747 3895997
-0.1051436 -0.036174782 1.1514378 4027323
0.13146445 -0.047787357 1.1621615 4817354
-0.10708168 -0.029490367 1.1448976 3962044
-0.10342113 -0.028671056 1.1510304 4093118
0.12243816 -0.035223767 1.165116 5014224
0.12795649 -0.038009666 1.1613284 4751563
-0.10552052 -0.019086421 1.1440583 4290235
-0.10091714 -0.019326583 1.1488699 4158908
-0.09487363 -0.017416388 1.1527818 4028609
0.12114572 -0.028061606 1.1635344 4817874
0.12813611 -0.027838513 1.1587265 5145287
-0.098164789 -0.012700163 1.1471535 4487616
-0.09295401 -0.010418579 1.1518319 4356800
0.11279095 -0.015207961 1.1633099 5276623
0.11922719 -0.018321604 1.1598511 5604813
0.12864636 -0.019853942 1.1589557 6720449
-0.090677574 -0.0035774931 1.1535708 5671109
0.11105726 -0.0096330121 1.1648546 5802961
0.11762536 -0.010493323 1.1611093 6787017
0.035717659 0.009114489 1.1616398 12972031
-0.018911477 0.021269724 1.1568322 5869264
0.013155261 0.016272053 1.1605653 7515376
0.020617303 0.015608393 1.1609868 8764660
0.030184522 0.014787816 1.1615285 10146554
0.036764082 0.013495684 1.1618726 10870005
-0.075829647 0.032078698 1.147825 8028800
-0.070704326 0.03224203 1.1481385 7305855
-0.014609032 0.022161119 1.1591299 5671370
-0.01130011 0.022030272 1.1593231 5869265
0.011862346 0.021114312 1.1606759 6988787
0.016274242 0.020939834 1.1609335 7185904
0.10263431 0.02636987 1.1663208 6314850
-0.069301702 0.037188679 1.1484147 8028802
0.09967722 0.030024886 1.1662855 6117979
0.076645978 0.041787386 1.1573414 5593178
0.078836724 0.041700751 1.1574694 5658970
-0.023869853 -0.21942191 1.1532035 2973083
-0.018377133 -0.22074857 1.1534812 2973595
-0.0089953514 -0.22071671 1.1547132 2973598
-0.043380268 -0.20755583 1.1524948 2842012
-0.037067752 -0.20919229 1.1528096 2776219
-0.027932681 -0.21209651 1.154772 2907806
-0.018510215 -0.21391547 1.1569045 2907807
-0.0080085034 -0.21487853 1.1576724 2973599
0.0010963203 -0.2127898 1.1556258 3039136
0.011810373 -0.2122508 1.1569574 3170723
0.021808658 -0.21249941 1.1568786 3236770
0.031640466 -0.21240011 1.1568035 3170979
0.04067285 -0.21254393 1.1573392 3170980
0.047375217 -0.21114478 1.1577953 3171236
-0.054118782 -0.19825554 1.1522124 2842012
-0.047597229 -0.20083869 1.1539612 2842011
-0.038150705 -0.20351243 1.1554331 2842012
-0.030028835 -0.20534626 1.1573911 2907805
0.016286023 -0.20856936 1.160042 3302309
0.022394599 -0.2076073 1.1592997 3302308
0.031112492 -0.20777518 1.1584553 3171236
0.041923661 -0.20871028 1.1575631 3171236
0.052474812 -0.20782262 1.1599009 3105443
0.062384382 -0.20626441 1.1598871 3171492
0.069047205 -0.20460545 1.1593482 3040420
-0.074735962 -0.18634568 1.1514391 2841497
-0.066115268 -0.18945757 1.1523696 2907291
-0.057876602 -0.19248942 1.1540982 2907549
-0.051388733 -0.19401832 1.1565506 2907551
0.065564223 -0.19938543 1.1633524 3040420
0.072745271 -0.19775017 1.1619468 3106213
0.080769487 -0.19537978 1.1604092 3106214
-0.076114781 -0.17988695 1.1536123 2907290
-0.069740437 -0.18307991 1.1553742 2973340
0.07700032 -0.19093157 1.1643661 3302823
0.08326301 -0.1886958 1.1624223 3237030
0.089503631 -0.1855433 1.163097 3237031
-0.09281037 -0.16566074 1.1511589 2841497
-0.084594816 -0.16948707 1.1520375 2842012
-0.078720339 -0.17205681 1.1547627 2907547
0.095012374 -0.17804193 1.1628616 3368361
0.10026 -0.17495996 1.1623704 3237285
-0.09406659 -0.15969397 1.1513153 2973085
-0.08747445 -0.16029195 1.154431 3039135
0.097637095 -0.17097314 1.1623681 3368615
0.10422564 -0.16793339 1.1636101 3237799
0.10895175 -0.16476387 1.1632874 3303337
-0.10096498 -0.14647755 1.1514151 2973857
-0.095773272 -0.1502766 1.1531383 3039137
-0.090033494 -0.15148489 1.1558859 3104930
0.10641193 -0.16057254 1.165303 3172264
0.11280645 -0.15788022 1.1644541 3238059
-0.10190901 -0.13827944 1.1526794 3039650
-0.098250449 -0.14214252 1.1557562 3105700
0.11630976 -0.14833678 1.1665256 3369132
0.12063678 -0.14858413 1.1646161 3434410
-0.1043836 -0.12964827 1.1535823 3171236
0.11843554 -0.14034206 1.1680123 3500719
0.12195673 -0.13812798 1.1671063 3435183
-0.11096276 -0.11723636 1.1519513 3302823
-0.10655584 -0.11949972 1.154801 3171495
0.12310221 -0.12806889 1.1673833 3566514
-0.11247192 -0.10860159 1.1536545 3368873
-0.10894963 -0.10998909 1.1555616 3368875
0.12621306 -0.11895742 1.1669029 3697588
-0.11310998 -0.099560402 1.1551825 3303850
0.12797578 -0.10953595 1.1700096 3763892
0.13142341 -0.10884844 1.1668057 3698099
-0.11400806 -0.089275941 1.1544586 3435181
-0.1083286 -0.090088539 1.1571736 3435438
0.1293343 -0.099486992 1.1710541 3829942
0.13236521 -0.098940626 1.1683927 3764149
-0.11263965 -0.07967364 1.1553146 3501229
0.12982981 -0.086147428 1.1716019 3896505
0.13423847 -0.089114517 1.1695635 3830455
-0.11164952 -0.069833271 1.1552933 3632563
-0.10746143 -0.066744298 1.1581321 3567542
0.12789559 -0.078807063 1.169193 4027837
0.13306692 -0.082508415 1.1679271 3896505
-0.11050704 -0.059811931 1.1555454 3829940
-0.10721367 -0.060074512 1.158406 3699127
0.12668025 -0.069196746 1.1707346 4291009
-0.10968145 -0.049682051 1.1554536 3895737
-0.106172 -0.049142107 1.158893 4027576
0.12738791 -0.059158918 1.1704985 4422849
-0.10820553 -0.043011952 1.154999 4158911
-0.1037112 -0.039572876 1.157407 4093372
0.12772317 -0.049407713 1.170396 4817355
-0.099595748 -0.030318014 1.1575503 4093630
-0.0948691 -0.02716478 1.1604239 4094397
0.12064421 -0.038410161 1.1711228 5080014
0.12516141 -0.04170071 1.1690379 4883149
-0.097107448 -0.02274102 1.1564515 4028348
-0.09260755 -0.020423308 1.1583149 4028864
0.11654732 -0.028586678 1.1708132 4949202
-0.088716783 -0.010997958 1.1592332 4029123
-0.084555887 -0.0090182275 1.1617467 3963586
0.11078987 -0.018531159 1.1717497 5146069
0.1142193 -0.022962004 1.1691097 5080276
-0.087512493 -0.0031502694 1.1577873 5342665
-0.080567047 -0.0014402121 1.1622802 4882633
-0.017124541 -0.00018108636 1.1661319 6070261
-0.010461093 -0.0004445985 1.166521 6528744
-0.0037976475 -0.00070810318 1.1669102 8827627
0.011750391 -0.0013229549 1.1678182 10340848
0.020452734 -0.0023032501 1.1683018 8895736
0.027915221 -0.0032981113 1.1687105 6266608
0.10221203 -0.005415827 1.172079 5475287
0.10665214 -0.0090406463 1.1705335 5475028
-0.076760523 0.0044821501 1.1607332 5999306
-0.070074923 0.0053272247 1.1611668 5540557
-0.061364047 0.0083448589 1.1611377 5803727
-0.048772395 0.0094817579 1.16461 4950220
-0.039873429 0.0080053657 1.1650862 5016280
-0.030170396 0.0070270076 1.1652287 5411294
-0.020037524 0.0066883713 1.1639783 5806569
-0.010170789 0.0062435865 1.1661966 7120874
-0.00061370898 0.0065877438 1.1673843 12379901
0.010086684 0.0057441741 1.1654602 13891069
0.019909829 0.0051447526 1.1653503 12969723
0.029796571 0.0049544722 1.1668221 9946095
0.039811224 0.0043103322 1.167801 10013177
0.049608149 0.0058132708 1.1682053 7449069
0.056188583 0.0073101819 1.1708171 5411552
0.099542223 -0.001359798 1.1705728 6526426
-0.046614513 0.01434426 1.1649282 6264275
-0.038859069 0.014943838 1.1629101 5803990
-0.029192057 0.015253238 1.1619977 5345755
-0.019162588 0.016118348 1.1626325 5412839
-0.0096034622 0.016312845 1.1637143 5676266
-0.00076293387 0.014945082 1.1665542 7253489
0.0091499258 0.01444792 1.1652672 8436213
0.019082217 0.011864945 1.1647596 12051453
0.03363489 0.015727282 1.165782 10082302
0.041428663 0.014679432 1.1662084 10607102
0.049861494 0.013500661 1.1666682 7515119
0.056780484 0.012558572 1.168383 6068200
-0.0071511427 0.021777987 1.1635722 6001365
-0.0027240468 0.021602914 1.1638308 6396124
0.10971685 0.022925578 1.1706219 6447199
-0.015181164 -0.21043205 1.1620938 3039391
-0.0077247461 -0.21021646 1.1640528 3039135
0.0037632012 -0.21118121 1.1632003 3104930
-0.043740548 -0.19813195 1.1608596 2776478
-0.037532236 -0.19935532 1.1631893 2842271
-0.027844686 -0.20146747 1.1658753 2907807
-0.018739667 -0.20370793 1.1668493 2908063
-0.0088428231 -0.20499441 1.1684996 2973600
0.0015174625 -0.20440251 1.1686758 3105187
0.011489695 -0.20440792 1.1683514 3236773
0.021261647 -0.20342705 1.168293 3237029
0.032175448 -0.20394701 1.1689938 3171237
0.04190601 -0.20518695 1.1672231 3171236
0.051495817 -0.20398293 1.1672662 3105444
0.06043274 -0.20281005 1.1669221 3171493
-0.055767313 -0.18891793 1.1637046 2841758
-0.047820583 -0.19157237 1.1648799 2907551
-0.039141715 -0.19313821 1.1681701 2842271
-0.028596126 -0.19479227 1.1699175 2908064
-0.021905996 -0.19618154 1.1702645 2973857
-0.00058847573 -0.19702454 1.1715095 3105444
0.012288982 -0.19653404 1.1723005 3237030
0.022347257 -0.19731469 1.172071 3302823
0.032021884 -0.19691083 1.1725432 3171495
0.041441455 -0.19585478 1.1726793 3105703
0.051130783 -0.19648799 1.1730263 3105703
0.061046142 -0.19630378 1.1717229 3105702
0.069619462 -0.19402403 1.1695325 3105958
-0.066640809 -0.18072633 1.1618141 2973598
-0.058988892 -0.18292871 1.1665512 2907551
-0.049309835 -0.18525678 1.1690462 2908065
0.062924616 -0.18811624 1.1756624 3237288
0.07189624 -0.18765688 1.1737673 3302823
0.080793425 -0.1858433 1.1713793 3237287
-0.075676978 -0.16915074 1.1629351 3105183
-0.068552107 -0.17294064 1.1664839 2974112
-0.060465902 -0.1755369 1.1687549 2842786
0.073489517 -0.18105915 1.1765697 3171750
0.082312018 -0.17774329 1.1758906 3172008
0.090683043 -0.17614076 1.1721102 3303081
-0.083292224 -0.15907729 1.1606739 3104930
-0.077525496 -0.16187307 1.1669263 3170978
0.085024446 -0.16956145 1.1777077 3303337
0.092974596 -0.16826358 1.1759788 3368873
0.10013963 -0.16710871 1.1732404 3237543
-0.092747398 -0.14599812 1.1626201 3040164
-0.086247161 -0.15005809 1.1639777 3105701
-0.080298424 -0.15488307 1.1683682 3302822
0.094743825 -0.15940583 1.1786846 3303597
0.10248008 -0.15710503 1.1748629 3238059
0.10974766 -0.15426701 1.1737682 3303852
-0.095014609 -0.13961971 1.1638459 3106213
-0.087596364 -0.14212914 1.168426 3172007
0.10346545 -0.1482459 1.1794403 3369387
0.1116207 -0.14817281 1.1761222 3435181
-0.10162476 -0.1290206 1.1614106 3237030
-0.095351644 -0.13012053 1.1660882 3237800
-0.089257374 -0.13390943 1.1686457 3303594
0.10549239 -0.1422857 1.1799937 3500972
0.11423432 -0.13821955 1.1774173 3500976
0.11929834 -0.13532084 1.1730713 3500977
-0.10252433 -0.1198011 1.163497 3237545
-0.098173112 -0.12180287 1.1676903 3303852
0.11617671 -0.128912 1.1811534 3566772
0.11971787 -0.1292184 1.1773436 3566515
-0.10467866 -0.11001237 1.1638873 3369389
0.11738516 -0.11942669 1.1815943 3763639
0.12106759 -0.11843571 1.1769521 3763639
-0.11081897 -0.095853984 1.1621474 3435181
-0.10579005 -0.099873327 1.1655391 3435438
0.1184375 -0.10838206 1.1820862 3895737
0.12372396 -0.10825831 1.1772182 3764149
-0.11014344 -0.089448243 1.163506 3435438
-0.10505129 -0.090447977 1.1678443 3501231
0.11864609 -0.10276685 1.1823168 3961530
0.12446903 -0.098803997 1.1776301 3961528
0.13193378 -0.095605887 1.1753709 3895735
-0.10955542 -0.080245018 1.1645002 3501489
-0.10546207 -0.080303267 1.1676331 3501490
0.11931358 -0.08479818 1.1830546 4159679
0.12511985 -0.089509659 1.1784803 3962041
0.13201664 -0.09337502 1.1754625 3895735
-0.10969123 -0.072857581 1.1637764 3501747
-0.10493553 -0.069965288 1.1668472 3567541
0.11880199 -0.078404695 1.1832722 4225473
0.12270701 -0.07889691 1.1794769 4159424
-0.10272548 -0.059857544 1.1663028 3764919
0.11888177 -0.069535285 1.1836214 4422597
0.12308119 -0.06882377 1.1798905 4357059
-0.10186134 -0.05011268 1.1665612 3896505
-0.097389989 -0.050360665 1.1714027 3962298
0.11915111 -0.058923848 1.1840496 4685767
0.12345538 -0.058750626 1.1803041 4422851
-0.099955902 -0.040987387 1.1651965 4027836
-0.095206156 -0.039629098 1.1708566 4028094
0.11780029 -0.048190281 1.1822624 4948684
0.12390628 -0.050127123 1.1776584 4751818
-0.097867206 -0.032898828 1.1640317 4093632
-0.092530876 -0.029900521 1.1703291 4094399
0.11132804 -0.037620243 1.1844081 5080784
0.11587762 -0.038669985 1.1798277 5211343
-0.088888608 -0.021541506 1.1693858 4094402
-0.082420297 -0.01884196 1.1725214 4226244
-0.075942919 -0.017468043 1.1739656 4620744
-0.022046417 -0.018474706 1.177157 5412064
0.00039307959 -0.019362077 1.1784676 6463211
0.0083025638 -0.023512065 1.1787806 6397929
0.0179899 -0.023254447 1.1793712 6397929
0.027272791 -0.021710411 1.1799875 6003432
0.10882502 -0.028140001 1.1821197 5081042
0.11423684 -0.031232893 1.17681 5081041
-0.080467038 -0.010896698 1.1678005 4160963
-0.072690889 -0.010484859 1.1735723 4752075
-0.057615861 -0.0080705732 1.175429 4949201
-0.050904863 -0.0088983104 1.1757991 5016022
-0.041348852 -0.010368414 1.1756464 5213659
-0.031542294 -0.011637121 1.1756195 5411552
-0.021775328 -0.012822993 1.1765907 5740773
-0.011740056 -0.013258822 1.1779773 6003172
-0.0016193921 -0.013639569 1.1781682 6331366
0.0086102653 -0.013911702 1.1761642 6989552
0.018663254 -0.014329888 1.1771514 6792432
0.028763875 -0.014695071 1.177091 5937640
0.037130352 -0.014203563 1.1798674 5806054
0.047808036 -0.013364293 1.1815425 5674725
0.054581597 -0.012507454 1.1819818 5674983
0.10020821 -0.016842335 1.1845484 5146841
0.10647664 -0.018917292 1.1791146 5080789
-0.07664828 -0.0024598911 1.1664857 4554184
-0.073358618 -0.0018869042 1.1697128 4751049
-0.058312759 -0.0023373589 1.1736047 4818129
-0.05084043 -0.0025976822 1.1732405 5015507
-0.041119721 -0.0028286427 1.1704055 5147609
-0.03095888 -0.0031725615 1.1696979 5346018
-0.021512214 -0.0040356964 1.1728483 5937898
-0.011129768 -0.0052018091 1.1736482 6462952
-0.00061829574 -0.004833281 1.1734015 8303605
0.0087895393 -0.0052665621 1.17293 8501495
0.018635027 -0.0066004246 1.1726532 7252467
0.029886104 -0.006537132 1.1741713 6069484
0.039000791 -0.0058454052 1.1756079 6135528
0.048888758 -0.0067473873 1.1792694 5741031
0.05816748 -0.0069837421 1.1814088 5543655
0.067611575 -0.0061015487 1.1830117 5477092
0.077701017 -0.0051739737 1.1836524 5739747
0.089036144 -0.0058721676 1.1843047 5280481
0.098357238 -0.008714132 1.1810514 5015513
0.10389753 -0.010810338 1.1789885 4949463
-0.069713421 0.0039683059 1.167151 4818122
-0.060266316 0.0045876503 1.1677413 5147606
-0.051571332 0.0049885213 1.1682781 4818639
-0.042968445 0.0029106662 1.1687131 5344472
0.0016272571 0.001705654 1.1713393 12971007
0.0060640364 0.00097166002 1.1715767 12905215
0.030580271 2.1532178e-006 1.1730086 5807584
0.043952763 -0.00052666664 1.1737896 6004710
0.050037742 0.00019020587 1.1741822 5807083
0.058772258 0.0022329241 1.1769238 5477863
0.06708771 0.0013645813 1.1799283 5542628
0.078560248 -0.0022087842 1.1838191 5673698
0.089265436 -0.00061178952 1.1830189 5804766
0.095213987 -0.0025538057 1.1767834 5147865
0.062197108 0.0099225864 1.1752889 5412324
-0.015544399 -0.19951728 1.1745265 3039650
-0.0091353199 -0.2004156 1.1748757 3039650
-0.035515327 -0.19082806 1.1736667 2842271
-0.028760679 -0.19109517 1.1740613 2973857
-0.018576954 -0.1926412 1.175878 2973857
-0.0089894785 -0.19482499 1.1776342 3039395
0.0017605787 -0.19328487 1.177588 3171237
0.011139109 -0.19220838 1.177479 3237030
0.021451486 -0.19208515 1.1785749 3302569
0.02977699 -0.19254711 1.1788503 3237546
-0.054747283 -0.17958859 1.1729505 2908065
-0.047224388 -0.18085337 1.1733522 2973857
-0.038688984 -0.18299574 1.1747832 2973857
-0.02910395 -0.18532175 1.1763879 2973858
-0.020975083 -0.18654963 1.1787146 3105444
0.01065301 -0.18780038 1.1805618 3237030
0.022381281 -0.18675444 1.1813054 3302825
0.03132619 -0.1866404 1.1815375 3171754
0.04124115 -0.18748122 1.1804026 3171752
0.051610142 -0.18744364 1.1804359 3171753
0.060167328 -0.18464755 1.1806445 3237546
0.068516389 -0.1825285 1.1802248 3303592
-0.065546997 -0.16970357 1.1726871 2908579
-0.057573542 -0.17227095 1.1750703 2908579
-0.047872022 -0.17416187 1.1764898 3105444
-0.039373215 -0.17631069 1.1780094 3105443
0.05504242 -0.18049732 1.1835061 3303339
0.063220054 -0.17849255 1.1827375 3303082
0.071799561 -0.17663731 1.1812232 3237545
0.077857457 -0.17386989 1.1811209 3303850
-0.074134603 -0.15807897 1.1726236 3302822
-0.067832686 -0.16272599 1.1750767 3040165
-0.060967751 -0.16685116 1.1770824 3040167
0.066674173 -0.1718988 1.1845373 3303598
0.072926342 -0.16811243 1.1841154 3238061
0.081662826 -0.16631553 1.1827563 3303596
0.089491941 -0.16417345 1.1821948 3369131
-0.083500616 -0.14717592 1.1724857 3171751
-0.077310048 -0.15111169 1.1741192 3368615
-0.07071393 -0.15514264 1.1769528 3171751
0.091456391 -0.15773797 1.1840663 3369134
-0.085209101 -0.14005521 1.1726598 3369130
-0.079357363 -0.14236988 1.1759282 3434922
0.092845492 -0.14819157 1.1860718 3435183
-0.08669094 -0.13145334 1.1742418 3434923
0.095844992 -0.14122187 1.186675 3501232
0.10274159 -0.13833717 1.1865871 3435694
0.10967658 -0.13675915 1.1844692 3501232
-0.094459996 -0.11998927 1.1738871 3369646
-0.088994473 -0.12402779 1.1757288 3435182
0.10671773 -0.12932225 1.1885909 3567282
0.11096329 -0.12886587 1.1866757 3567027
-0.1022995 -0.10693498 1.1729215 3501231
-0.098036043 -0.11114707 1.1757705 3435439
0.10701174 -0.1214077 1.1889158 3829686
0.11231425 -0.1187317 1.1875553 3829431
-0.10217392 -0.10355444 1.1730604 3501231
-0.097777575 -0.10055668 1.1751112 3567024
0.11493738 -0.10947408 1.1885176 3830201
-0.10165068 -0.089468881 1.1736387 3632818
-0.098575443 -0.090393119 1.1757922 3698612
0.11748321 -0.098937228 1.188411 3896507
-0.10129488 -0.079890691 1.174032 3633333
-0.097634114 -0.080346331 1.1770408 3764919
0.11772768 -0.088718414 1.1883212 4093886
-0.10141868 -0.071083486 1.1743666 3633334
-0.097547472 -0.070434622 1.177832 3830201
0.11504517 -0.079017743 1.1892612 4291523
-0.096651368 -0.060105499 1.1767496 3896506
0.1149828 -0.068505704 1.1890419 4619975
-0.093027875 -0.050700255 1.1773797 4028348
0.10940576 -0.056960702 1.1915621 5146320
0.11380077 -0.059314221 1.1907315 4883148
-0.090879679 -0.041311849 1.176441 3962814
-0.086014666 -0.040250957 1.1793517 3963072
0.10883317 -0.048049584 1.19037 5146577
0.11264658 -0.049740475 1.1885278 5080527
-0.089154541 -0.032296643 1.176608 4028607
-0.08305382 -0.030878887 1.1791674 4291526
-0.033294208 -0.03093601 1.1840192 5147865
-0.025830615 -0.031004697 1.1844639 5344731
-0.0095311394 -0.030743413 1.185451 5345501
-0.0027536917 -0.031011432 1.1858469 5739743
0.0073980186 -0.033589691 1.1850185 5936862
0.016410582 -0.033968054 1.1858783 5871068
0.026573248 -0.033303477 1.1875157 5739228
0.044688445 -0.032887548 1.1886177 5213656
0.10729681 -0.039103314 1.1905251 4949970
-0.080876678 -0.023426719 1.1774486 4422856
-0.072397143 -0.019074574 1.1799487 4686797
-0.06202174 -0.018364199 1.1807804 4884690
-0.051794104 -0.020268545 1.1828233 4950486
-0.04134278 -0.021406621 1.1825701 5213659
-0.03272615 -0.022842124 1.1811595 5279707
-0.022656478 -0.024394035 1.1821038 5345244
-0.01245054 -0.023161776 1.1826743 5411808
-0.0026447 -0.024654984 1.1830015 5806052
0.0066069514 -0.028108828 1.1825105 6068964
0.018601261 -0.028959312 1.1831964 6068963
0.028646573 -0.027013905 1.1847996 6003173
0.037093755 -0.025665604 1.1862373 5608417
0.047232751 -0.026100501 1.1874297 5411038
0.053977042 -0.026460998 1.189424 5279709
0.098678954 -0.026434153 1.191179 5212630
0.10428212 -0.030174591 1.1896217 5015248
-0.068387412 -0.013481982 1.1785834 4949712
-0.06163276 -0.013749093 1.1789778 4949713
-0.05150079 -0.01414977 1.1795696 5016279
-0.042133283 -0.01489637 1.1801021 5213659
-0.033530246 -0.015988909 1.1805754 5345501
0.039103143 -0.018296979 1.1848394 5871590
0.047567382 -0.018067449 1.1853557 5871847
0.05776247 -0.016320303 1.1880397 5543139
0.065054797 -0.015491366 1.1887953 5280225
0.089413859 -0.016539268 1.1919334 5411294
0.095360808 -0.018083237 1.189678 5279196
0.067582384 -0.010395192 1.1868533 5411556
0.077214256 -0.0090833381 1.1874815 5412066
0.088472001 -0.0095285252 1.1881391 5477344
0.095142931 -0.012049332 1.188441 5213404
-0.0081548346 -0.19049671 1.1833401 3105189
-0.028221179 -0.18127915 1.1834977 3039906
-0.018648956 -0.18380971 1.1844028 3039908
-0.0092948945 -0.18541889 1.1868106 3105447
0.0014713854 -0.18496175 1.1848838 3105702
0.010623852 -0.18404388 1.1847162 3171750
0.019603141 -0.18398584 1.1852567 3237289
0.031108879 -0.18258174 1.1860008 3237548
0.041309252 -0.18298511 1.1865966 3171752
0.050376248 -0.18334368 1.1871262 3171752
-0.05531992 -0.16871157 1.1813589 3039909
-0.04756999 -0.1697858 1.1826729 3105701
-0.039631054 -0.1728175 1.1846918 3105443
-0.030342463 -0.17863803 1.1864808 3040163
0.00039508287 -0.17894161 1.1883113 3105960
0.011808175 -0.17827834 1.1890212 3105958
0.020987421 -0.17709711 1.1888152 3237545
0.031464793 -0.17640552 1.1883726 3237547
0.041524906 -0.17646968 1.1884665 3237544
0.05156764 -0.17664307 1.1891463 3237545
0.060333412 -0.17495981 1.1887169 3303339
-0.066190556 -0.15885189 1.1810902 3172009
-0.05804953 -0.16243657 1.183845 3105961
-0.048914459 -0.16507939 1.185894 3171752
0.034899332 -0.16981876 1.1907338 3303337
0.041722383 -0.17008857 1.1911323 3303593
0.051830743 -0.16951123 1.1917607 3303594
0.061187256 -0.16721526 1.1911575 3303596
0.068213053 -0.16587111 1.1888738 3238062
-0.073241428 -0.15005219 1.1810093 3434409
-0.067748234 -0.15214832 1.1840879 3237547
-0.059587941 -0.15489019 1.18565 3237805
0.06234286 -0.16001135 1.1927596 3238318
0.071792714 -0.15740624 1.1923044 3238572
0.082000397 -0.1575264 1.1912273 3434926
0.088579208 -0.1571331 1.1904339 3369134
-0.075315148 -0.14098917 1.1824709 3435179
-0.06959974 -0.14332108 1.1850536 3369388
0.076598719 -0.15094905 1.193966 3500977
0.082397737 -0.14759845 1.1934413 3435186
0.088020884 -0.1477191 1.190766 3500720
-0.083397523 -0.12991813 1.1821849 3566511
-0.077915572 -0.1330823 1.1840615 3566767
-0.070895731 -0.13599689 1.1857059 3500977
0.084111378 -0.14005414 1.1943382 3501234
0.09223599 -0.13782078 1.1921549 3501490
-0.092420056 -0.1163463 1.1811687 3566770
-0.086001776 -0.12129011 1.1839679 3632306
-0.079654872 -0.12653108 1.1855484 3632563
0.094244793 -0.12931204 1.1944487 3699127
0.10184459 -0.12823845 1.1928228 3633076
-0.093478143 -0.11075734 1.1823249 3566770
-0.087700523 -0.11200766 1.1856302 3763892
0.095387712 -0.12034402 1.1962807 3633335
0.10227602 -0.11832166 1.1943215 3764407
-0.093343362 -0.10075689 1.1845258 3698868
-0.089104384 -0.1015856 1.1859508 3699126
0.096400283 -0.10841481 1.1968048 3962811
0.10299038 -0.10871588 1.1960185 3830969
0.11085802 -0.10912854 1.1936334 3830714
-0.094032578 -0.09069702 1.1829935 3699126
-0.088985927 -0.09158425 1.1863463 3830712
0.10402248 -0.098840199 1.1970319 4028606
0.11236466 -0.099125348 1.1941122 3962300
-0.093142375 -0.081275016 1.1840913 3830970
-0.088384762 -0.081240103 1.186784 3962813
0.10459366 -0.089829423 1.1980176 4291522
0.1126888 -0.08958742 1.1948667 4094399
-0.093076527 -0.071213886 1.1846006 3962044
-0.088359311 -0.071795985 1.1871523 4093630
0.10658822 -0.079153359 1.1982844 4554438
0.11161785 -0.079944082 1.1948123 4357059
-0.092058949 -0.06119534 1.1846688 4093886
-0.087623663 -0.060751483 1.1876253 4291009
0.10518847 -0.068528436 1.1979892 4686026
0.1113856 -0.068736009 1.1952337 4685769
-0.090102255 -0.053951394 1.1837306 4159935
-0.08519201 -0.051794574 1.1869731 4225985
0.098260738 -0.058331527 1.1988611 5015248
0.10444522 -0.059740808 1.1965036 5014991
-0.081774965 -0.042081606 1.1868137 4292037
-0.076610491 -0.044576619 1.1889135 4619977
-0.053613298 -0.038646482 1.1905222 5279449
-0.045653075 -0.038961269 1.1909871 5016538
-0.033186436 -0.040594194 1.191671 4950743
-0.023749851 -0.042643741 1.192157 4950488
-0.014668959 -0.042846382 1.1926935 5147351
-0.0042096181 -0.042310059 1.1933413 5278422
0.0063005332 -0.045003563 1.1929755 5212886
0.015705323 -0.044677481 1.1926886 5278423
0.025654867 -0.044254161 1.1938026 5147094
0.036439687 -0.045138896 1.1956679 4885460
0.046002641 -0.04398321 1.1955569 4950741
0.05506679 -0.043856215 1.1968342 5016279
0.097223714 -0.048380081 1.1977819 5212370
0.10471401 -0.049726207 1.195572 5212369
-0.079432718 -0.035202436 1.1871033 4423370
-0.077222101 -0.032078572 1.186956 4554187
-0.052945562 -0.03363964 1.1904894 5147610
-0.042980738 -0.03323321 1.1893647 5081818
-0.03398148 -0.035863705 1.1898019 5016538
-0.022812765 -0.034874305 1.1906435 5278938
-0.013706547 -0.034627981 1.1911989 5344730
-0.0032310793 -0.035876811 1.190709 5673948
0.0069510019 -0.038475364 1.1901489 5805277
0.016018 -0.03883392 1.1906785 5541848
0.026260516 -0.038102828 1.1913209 5475544
0.036545169 -0.036237322 1.1920098 5213397
0.047108419 -0.03730705 1.1933091 5082070
0.056703247 -0.03697446 1.1955955 5016536
0.065604724 -0.035218634 1.1978012 5213915
0.076362908 -0.034667 1.1984675 5279453
0.087262861 -0.035554007 1.1990864 5213659
0.096664183 -0.038779654 1.1979207 5212628
0.10341428 -0.038881686 1.1959152 5146833
-0.076581597 -0.026083089 1.1856233 4554443
-0.051353253 -0.025262967 1.1871673 5016281
-0.044133369 -0.026457362 1.1875536 5147611
-0.013112609 -0.028592996 1.1893301 5411294
0.057702981 -0.026848957 1.1936425 5148123
0.066391833 -0.027205341 1.19435 5213915
0.076302536 -0.027890295 1.1964605 5213917
0.0870004 -0.028271206 1.1976651 5213659
0.095040508 -0.030240297 1.1960831 5212887
0.088179164 -0.021237411 1.1956872 5279708
0.092712671 -0.021416694 1.1959519 5411037
-0.025049586 -0.17979562 1.1917658 3106213
-0.019339956 -0.18002142 1.1920992 3105959
-0.0081081046 -0.18111971 1.1927298 3105706
0.0023566158 -0.18087941 1.1933664 3105960
-0.035643116 -0.17250857 1.1914138 3105700
-0.028323222 -0.17407927 1.1925435 3105957
-0.019183073 -0.17444071 1.1930773 3106216
-0.0089532612 -0.17500114 1.1945208 3106217
0.001691577 -0.17489971 1.194991 3171752
0.0096084811 -0.17470479 1.1951346 3303337
0.020967094 -0.17245784 1.194809 3369130
0.027818643 -0.17272879 1.1952091 3369132
-0.047818456 -0.16082849 1.1914718 3171753
-0.038399916 -0.16371462 1.194317 3171752
-0.028267425 -0.16448416 1.1969798 3172010
-0.019209124 -0.16616142 1.19841 3172012
-0.0092279864 -0.16617383 1.1998053 3237802
0.0014725327 -0.16587222 1.1999116 3303338
0.01064091 -0.16627119 1.2006462 3369133
0.021042105 -0.16637658 1.1995411 3369388
0.031206135 -0.16641381 1.1994566 3303853
0.040634599 -0.16552612 1.1980115 3369643
0.050838005 -0.16506088 1.1971226 3303851
-0.065054931 -0.14845167 1.190585 3303598
