# .PCD v0.7 - Point Cloud Data file format
VERSION 0.7
FIELDS x y z rgba
SIZE 4 4 4 4
TYPE F F F U
COUNT 1 1 1 1
WIDTH 174
HEIGHT 1
VIEWPOINT 0 0 0 1 0 0 0
POINTS 174
DATA ascii
-0.13079002 -0.20005122 0.76152247 5134174
-0.12550977 -0.20394069 0.75927889 5134176
-0.12917241 -0.19582899 0.76282179 4871515
-0.14477189 -0.21463004 0.76586848 4936281
-0.13662226 -0.22070265 0.76238018 5199967
-0.13229266 -0.222516 0.76104546 5397348
-0.14915977 -0.20566882 0.76951236 4673880
-0.14280495 -0.20834233 0.76548505 4870232
-0.13418736 -0.21207388 0.76355571 5068382
-0.12523891 -0.21558279 0.76147181 5068384
-0.11747433 -0.21748409 0.76060122 4476504
-0.1455635 -0.19688708 0.77070796 4607822
-0.13946901 -0.19904417 0.76753908 4673623
-0.13004492 -0.2037762 0.76434571 5134174
-0.12039497 -0.20688072 0.7617147 4739419
-0.11340065 -0.21042334 0.76071733 4081746
-0.1418152 -0.19015256 0.7743938 4410445
-0.13436338 -0.19130611 0.76958942 4213839
-0.12498617 -0.19469698 0.76689547 4345429
-0.11622567 -0.19879866 0.764036 4016211
-0.10898542 -0.20251769 0.76279396 3621193
-0.1314318 -0.18683504 0.77077699 3884109
-0.12266845 -0.18947715 0.7684527 3752784
-0.11344614 -0.19341061 0.76558357 3621192
-0.10745376 -0.19706205 0.76331729 3686459
-0.156069 -0.22558266 0.77482057 4673626
-0.14966705 -0.22842187 0.76973176 4870741
-0.14202385 -0.23289713 0.76710653 5265754
-0.13273388 -0.23611659 0.76477665 5397604
-0.12352882 -0.23793623 0.765872 4608350
-0.15355611 -0.21608996 0.77368701 4673629
-0.14711492 -0.2197924 0.76900047 4870744
-0.14035229 -0.22417369 0.76598847 5134174
-0.12842774 -0.22726017 0.76371437 5397606
-0.12012967 -0.23108326 0.76551282 4476760
-0.11248393 -0.23066334 0.76683348 4015442
-0.1554403 -0.20790336 0.7818262 3883351
-0.15309106 -0.20741341 0.77604568 4475995
-0.1248349 -0.2217508 0.76447874 5068641
-0.11500509 -0.22310591 0.76467127 4082513
-0.10857428 -0.22585084 0.76745695 3752531
-0.14994492 -0.19792718 0.77774876 4079443
-0.10931824 -0.21579421 0.76588047 3621705
-0.10590155 -0.22057857 0.76693338 3751503
-0.10762361 -0.20814233 0.76681197 3490378
-0.15222776 -0.24959219 0.77787107 5002588
-0.14939788 -0.25079918 0.77699071 5528419
-0.15739611 -0.23730233 0.78318006 4739163
-0.15268086 -0.24150839 0.77773833 5002333
-0.14442453 -0.24533571 0.77499771 5397092
-0.13518137 -0.24752603 0.77422583 5332066
-0.12909751 -0.24937212 0.77437615 4740695
-0.15764378 -0.23154713 0.77967942 4082256
-0.15225841 -0.2345663 0.7758553 5068120
-0.13147211 -0.24343383 0.77154064 5200736
-0.122407 -0.24436538 0.77209693 4345175
-0.11494417 -0.24616057 0.77275169 4278096
-0.11628914 -0.23609042 0.7706582 4147028
-0.11165077 -0.23970491 0.77301067 3819087
-0.10901354 -0.23187649 0.77144885 3687502
-0.14958867 -0.26632354 0.78316331 5528423
-0.14553922 -0.26748487 0.78211117 5397348
-0.1559819 -0.25384 0.78299206 4804702
-0.14776821 -0.25739643 0.77979326 5462626
-0.1387943 -0.26127237 0.77976036 5003105
-0.12992629 -0.26158339 0.77928001 4804440
-0.15942454 -0.24216896 0.78924233 3817824
-0.15638404 -0.24627921 0.78295851 4673622
-0.1421968 -0.2523303 0.77854472 5660265
-0.13497105 -0.25377783 0.77689654 5069150
-0.1254427 -0.25544503 0.77696449 4475986
-0.11872315 -0.25380459 0.77652776 4014924
-0.12042114 -0.25038186 0.77589351 4606547
-0.11419623 -0.25062057 0.7753818 3620428
-0.15740761 -0.27211973 0.78977954 4079956
-0.1523335 -0.27468011 0.78559536 5266270
-0.14662619 -0.27728748 0.7862165 5002845
-0.15749879 -0.2650395 0.79023916 4079963
-0.15220673 -0.26946568 0.78564411 5330781
-0.14167398 -0.27208433 0.78482771 5002331
-0.13633558 -0.26761189 0.78387088 5001816
-0.13120395 -0.2671406 0.78454214 4540755
-0.12437715 -0.26250082 0.78389788 4213074
-0.15509628 -0.28765577 0.79663754 5265766
-0.15466255 -0.2823377 0.79544669 5068639
-0.14629574 -0.28403291 0.79301858 4214103
-0.15984471 -0.27209494 0.79447097 1580089
-0.14019756 -0.27873817 0.78971344 4145996
-0.13530278 -0.27456412 0.78977096 4212054
-0.16081451 -0.28716144 0.80093187 3618132
-0.15644689 -0.29017791 0.79914975 5199718
-0.15013261 -0.29171744 0.79760867 4214875
-0.17581156 -0.34815991 0.79808772 528927
-0.17157935 -0.35066682 0.7965135 1517876
-0.17503417 -0.36295062 0.80545628 4419983
-0.18566588 -0.35068679 0.80944753 1651559
-0.18095839 -0.35100836 0.80521894 1782104
-0.17166975 -0.35702032 0.79930878 4154236
-0.16504696 -0.35733518 0.80228269 3028033
-0.17450683 -0.34781423 0.81092936 2369321
-0.16815364 -0.34962377 0.80540824 2040105
-0.1664803 -0.32995901 0.81193531 4146252
-0.18615244 -0.3584508 0.81743717 5077683
-0.18146226 -0.36279017 0.81368458 4617364
-0.1732939 -0.36667064 0.81099784 4549258
-0.16659708 -0.3631174 0.80839622 6582660
-0.18254706 -0.34682935 0.8168391 7695014
-0.1739838 -0.34674001 0.81626564 2040625
-0.16636874 -0.34851283 0.81372035 2172202
-0.16258642 -0.35534286 0.81062925 2760198
-0.18533584 -0.3733812 0.82044291 4683677
-0.18029514 -0.37553114 0.81887472 3831442
-0.18918489 -0.36418027 0.82318425 3299734
-0.18413317 -0.36826214 0.81939572 4683420
-0.17663929 -0.37224978 0.81779158 3960460
-0.22192082 -0.43792844 0.81640458 3829135
-0.21451755 -0.44057977 0.81428719 4223637
-0.20921129 -0.44331467 0.81246328 3960467
-0.21847586 -0.4295449 0.81894851 3498881
-0.21087858 -0.43219247 0.81637198 3895695
-0.20328566 -0.43414426 0.8149125 3631246
-0.21383756 -0.41893134 0.81889725 3499128
-0.2077854 -0.42235532 0.81670517 4025235
-0.19930921 -0.42548692 0.8162446 3499655
-0.2094207 -0.41040149 0.81919187 3826560
-0.20340942 -0.41315278 0.81779116 4156303
-0.19624929 -0.41748339 0.81778604 3630985
-0.20454991 -0.40332156 0.82426614 3893387
-0.19879925 -0.40500909 0.82108355 4157333
-0.19177848 -0.40804866 0.82109529 3762828
-0.19899486 -0.3973434 0.82775384 3762325
-0.19334158 -0.39603168 0.82341468 4420507
-0.18758349 -0.39931625 0.82383066 3828877
-0.19387102 -0.38500088 0.83149105 4222878
-0.18887439 -0.38801846 0.82559294 4552347
-0.18316196 -0.39171243 0.82651156 3631755
-0.1927073 -0.37561736 0.82872701 3627913
-0.18612 -0.37964979 0.82400441 4683676
-0.1787928 -0.38224438 0.82508343 3892613
-0.17491746 -0.37469274 0.82373285 3563127
-0.22693491 -0.44764686 0.81945658 3033484
-0.21966386 -0.45245978 0.81914419 2897991
-0.21046928 -0.45540088 0.81611592 3891064
-0.20322016 -0.45816666 0.81577426 2638186
-0.22666362 -0.43781129 0.82148629 666715
-0.21802117 -0.44385734 0.81793159 4813457
-0.20469764 -0.44644266 0.81492317 3499654
-0.1977728 -0.45030427 0.81640112 3561592
-0.22218522 -0.42774832 0.82448673 6722
-0.20057662 -0.4381794 0.81731844 3694979
-0.19436808 -0.44112206 0.81743157 3233144
-0.19455995 -0.42981365 0.81945831 3104639
-0.18995744 -0.43265548 0.82112873 2640231
-0.19085917 -0.42118895 0.82205117 2907007
-0.18640751 -0.42449021 0.8250441 3099492
-0.20525062 -0.40217537 0.83125329 4089741
-0.18690258 -0.41290668 0.82486326 3496061
-0.18192503 -0.4151524 0.8282671 4278874
-0.1996105 -0.39607838 0.83261877 2972810
-0.18274498 -0.40408814 0.82854003 3757171
-0.17934167 -0.4077166 0.83059645 3748927
-0.19602002 -0.39153647 0.83373046 3630740
-0.17914715 -0.39751837 0.82892698 3953004
-0.22225836 -0.45936 0.82258487 984897
-0.21126334 -0.45997065 0.82066107 4350584
-0.19139688 -0.44341213 0.82438397 4674411
-0.18733227 -0.43684828 0.82867587 6974583
-0.18395513 -0.42663586 0.83190143 3815753
-0.2077183 -0.40437835 0.84051359 5799072
-0.17939472 -0.41768247 0.83125293 5064001
-0.19218162 -0.45280749 0.83433264 7039097
-0.18971084 -0.44806367 0.83676785 7565430
-0.18652111 -0.44022399 0.83879292 8223350
-0.18376845 -0.43140817 0.8365795 9076613
