# .PCD v0.7 - Point Cloud Data file format
VERSION 0.7
FIELDS x y z rgba
SIZE 4 4 4 4
TYPE F F F U
COUNT 1 1 1 1
WIDTH 1127
HEIGHT 1
VIEWPOINT 0 0 0 1 0 0 0
POINTS 1127
DATA ascii
-0.042277396 -0.22784711 1.1378257 9678537
-0.031295016 -0.22661246 1.1439618 4422071
-0.02189411 -0.22620785 1.1450971 2778029
-0.011993008 -0.22688167 1.1447371 2513574
-0.0041212738 -0.22869498 1.144448 2315684
0.025679572 -0.22595854 1.1433759 2120102
0.037638661 -0.2245654 1.1429464 2185635
0.05055847 -0.22195774 1.1424849 2186146
0.056120887 -0.22241239 1.1422825 2316696
0.071088605 -0.21846353 1.1417501 4486314
0.078475736 -0.21719226 1.1394844 5997746
0.089232631 -0.21296525 1.1399628 6063288
0.097711891 -0.21051064 1.1408054 6589614
0.10578238 -0.20979102 1.140515 8757678
-0.049057059 -0.21659243 1.1380976 1855898
-0.041977912 -0.21831472 1.1410775 2249885
-0.033938035 -0.21973035 1.1448206 2381985
-0.025595898 -0.22090545 1.1452436 3039902
0.091087326 -0.20565897 1.1410565 2841504
0.097003646 -0.20441848 1.1408453 3302564
0.10619131 -0.20106867 1.1391865 4420011
0.11566801 -0.19909716 1.1344643 6984117
0.12463729 -0.19526362 1.1318614 6254993
-0.061308056 -0.20743391 1.1393632 2710418
-0.053131863 -0.20979102 1.1426449 2775447
-0.046098135 -0.2112345 1.1452079 2906776
0.10774382 -0.19294773 1.1400834 3171492
0.11593262 -0.19059241 1.1369907 3237285
0.12391549 -0.18841222 1.1324756 3629215
-0.064832211 -0.20087492 1.1435088 2775191
-0.056260273 -0.20340836 1.1457275 2906012
0.11686842 -0.1812261 1.1385133 3040421
0.12344483 -0.17874341 1.1348929 3105703
0.12923115 -0.17830423 1.1317352 2777257
-0.08184918 -0.18865886 1.1393503 2710677
-0.074555807 -0.19174343 1.1426108 2709909
-0.067877524 -0.19461456 1.1448345 2709910
0.1237501 -0.17029552 1.138483 3368100
0.13090655 -0.1675856 1.1338346 3302561
-0.083711706 -0.18230781 1.1425458 2710421
-0.078484304 -0.1845971 1.1464429 2644886
0.12495005 -0.1623507 1.1399331 3040936
0.13250099 -0.15833752 1.1375809 3237031
0.13841875 -0.15470842 1.1344603 3368615
-0.094906121 -0.17047077 1.1398658 2776209
-0.088824615 -0.17430517 1.1443897 2841240
0.13361441 -0.14967811 1.1396494 3237287
0.13958068 -0.14670777 1.1342942 3302822
-0.09650363 -0.16398937 1.1444752 2710683
-0.0913608 -0.16672331 1.1470845 2841499
0.14094739 -0.1380913 1.1368214 3237541
0.14543188 -0.13481055 1.1328526 3237798
-0.099582814 -0.15573867 1.145216 2907293
0.14170134 -0.12919515 1.139405 3237797
0.14592604 -0.12610969 1.134256 3303334
-0.1073402 -0.14483979 1.1415198 2907805
-0.10474933 -0.14622505 1.1474839 2907805
0.1467644 -0.11660247 1.1368054 3434407
-0.10885528 -0.13565622 1.1431211 3039392
-0.10592623 -0.13654047 1.1483499 3039391
0.1475839 -0.10686888 1.1366717 3500202
0.15117158 -0.10348162 1.1311176 3631274
-0.11297306 -0.12691872 1.1451586 3170979
0.14841294 -0.096449614 1.1387945 3631791
0.15150592 -0.095478624 1.1329033 3566510
-0.1145267 -0.11668766 1.1464207 3105957
0.14626902 -0.08550223 1.1376749 3632305
0.15137924 -0.085971735 1.131485 3501227
-0.1161458 -0.10676781 1.1442156 3237546
0.14473557 -0.076542683 1.1368722 3698099
0.14918014 -0.07637392 1.1316539 3698094
-0.11664428 -0.097013429 1.1444948 3434923
0.14491172 -0.067189254 1.1374336 3895479
0.1471526 -0.068911381 1.1313446 3895477
-0.11745325 -0.086583823 1.1451682 3566256
0.14391175 -0.05593561 1.1388307 4027579
0.14620034 -0.055067353 1.1354144 4157882
-0.11752199 -0.077616826 1.144435 3567024
0.1407671 -0.04669641 1.1384561 4159422
0.14492185 -0.046331119 1.1338801 4289724
-0.11643958 -0.067572944 1.1422219 3567791
-0.11338931 -0.06530565 1.1474538 3764403
0.13785689 -0.036920354 1.1370933 4356797
-0.11291294 -0.056214277 1.1413587 3830196
0.13407338 -0.027707517 1.136318 4619718
-0.112625 -0.045221031 1.1437135 3896507
0.12865685 -0.016368672 1.13703 4817095
0.13310139 -0.016410895 1.1336447 4948420
-0.12119743 -0.036991227 1.1451347 6916535
-0.11371309 -0.036651205 1.1445568 5210049
0.12715483 -0.010123111 1.1392117 5013440
0.13145041 -0.0091874301 1.1367235 5998788
0.018862817 0.051864311 1.1391315 5859448
0.026924295 0.052893534 1.1369839 6122362
0.032537092 0.053657085 1.1397845 6319482
0.043566227 0.056190819 1.143394 5330522
0.018871831 0.056352615 1.137617 5792108
0.02652321 0.058098331 1.1368105 5527648
0.032032959 0.057993501 1.1398129 5067354
0.0023857225 -0.23086935 1.1472093 4354997
0.0098822238 -0.23104364 1.1489389 4684224
0.019620163 -0.22960326 1.1471221 4289976
0.030233819 -0.22604601 1.1462127 2054307
0.040652469 -0.22538508 1.1458372 2777510
0.0462294 -0.22584091 1.1456343 4026798
0.062579788 -0.22393623 1.1450471 5604271
0.066204675 -0.22185573 1.1449207 4881326
-0.017651727 -0.22278027 1.1479535 3039902
-0.0096363053 -0.22277386 1.1481638 2710943
-0.00090765767 -0.22369741 1.1506519 2645152
0.0093497913 -0.22540206 1.1536412 2514339
0.019187007 -0.22414829 1.1527544 2514851
0.028687611 -0.22050893 1.1508849 2842787
0.038372293 -0.21893972 1.1483365 2908579
0.047945015 -0.21743017 1.1484829 3039651
0.058186047 -0.21695231 1.1492252 2908578
0.067358077 -0.21500444 1.1486477 2778020
0.077040836 -0.21218851 1.145981 2646433
0.086805038 -0.21374422 1.1441944 5012145
0.098398246 -0.21368346 1.1437749 8955830
-0.031549558 -0.21592507 1.1487586 2841242
-0.021465177 -0.21685055 1.1504405 2775960
-0.012305269 -0.21708007 1.152043 2841500
-0.0025804751 -0.21815857 1.1554242 2907551
0.028798625 -0.21376108 1.1542989 3105184
0.037902642 -0.21232951 1.1539729 3170722
0.047780942 -0.21117875 1.153618 3302053
0.057778336 -0.20945758 1.1532602 3170723
0.068099029 -0.20732765 1.1528918 3105188
0.077209197 -0.20545629 1.150851 3170467
0.086580999 -0.20412797 1.1466267 3236258
0.09618409 -0.19953099 1.1443331 3171236
-0.04936488 -0.2065756 1.1491395 2906776
-0.042582422 -0.20804444 1.1500342 2907033
-0.033947043 -0.20805448 1.1534146 2841497
-0.024175396 -0.21102673 1.1562226 2775704
0.077619657 -0.19991063 1.1525646 3105443
0.086400375 -0.19888775 1.1522492 3105443
0.096641175 -0.19394356 1.1506263 3105956
0.10448709 -0.19011605 1.1468122 3105956
-0.061533168 -0.19693813 1.1496027 2644884
-0.053995036 -0.19967216 1.1523254 2775705
-0.045256957 -0.20156372 1.1546731 2841497
0.099392213 -0.18624264 1.1518089 3172006
0.10668278 -0.18298849 1.150552 3040421
0.11214124 -0.17997046 1.1478599 2974628
-0.071267799 -0.18922815 1.1499732 2645144
-0.064358763 -0.19022363 1.1527816 2710425
-0.058725387 -0.19231719 1.1540864 2776216
0.11459485 -0.17098814 1.1480426 3171493
0.11916596 -0.16818929 1.1447316 3237026
-0.075116575 -0.18162189 1.1527203 2710424
-0.068395488 -0.18308927 1.1564335 2710937
0.11685053 -0.16417187 1.151229 3302823
0.12254956 -0.15937439 1.1478741 3172005
0.12790993 -0.15558253 1.1468464 3172006
-0.085134923 -0.17131311 1.1505173 2841498
-0.080303036 -0.17332014 1.155264 2907290
0.12435442 -0.15216607 1.1509858 3303592
0.13011818 -0.14808086 1.1494527 3237544
0.13548115 -0.14303379 1.1425993 3303337
-0.087801814 -0.16312043 1.1523485 2973342
-0.082656533 -0.16570592 1.1584461 3038879
0.13285092 -0.13995074 1.15004 3237544
0.13666612 -0.1364267 1.1453739 3303336
-0.097128831 -0.15257117 1.1519963 2973342
-0.090579614 -0.1550238 1.1562564 2973600
0.13904016 -0.12697089 1.1465111 3368872
-0.099554658 -0.14494663 1.1534559 3039392
-0.093866915 -0.14514604 1.1589003 3236259
0.13930474 -0.11744769 1.1482751 3500460
0.14321133 -0.11449586 1.1423869 3434923
-0.10174088 -0.13549681 1.1540936 3170978
0.13934103 -0.10846013 1.1492122 3500719
0.14359197 -0.1054257 1.14573 3500718
-0.1096503 -0.12515855 1.1515135 3237029
-0.10549026 -0.12609307 1.1573646 3237286
0.14300483 -0.096595585 1.1485459 3697329
-0.11066471 -0.11643274 1.1515707 3237543
-0.10790347 -0.11572219 1.1589774 3172263
0.14314376 -0.087403201 1.148057 3697843
-0.11196966 -0.10690237 1.1546425 3303340
-0.1098527 -0.105609 1.1595721 3303852
0.14172791 -0.077054545 1.1485329 3764149
-0.11326824 -0.097205572 1.1517103 3500716
-0.11043908 -0.09555278 1.1596171 3501229
0.14339091 -0.066344276 1.1470684 3764661
-0.11383478 -0.089164592 1.1517497 3566512
-0.11092418 -0.085409053 1.1560198 3632306
0.13924864 -0.056548785 1.1471405 3896764
-0.11143781 -0.07578326 1.1560611 3698357
0.13222767 -0.047272895 1.1496141 4291265
0.13596851 -0.0479775 1.1439495 4225217
-0.11089192 -0.066648707 1.155699 3764408
0.13187143 -0.03764211 1.1489825 4554434
0.13420835 -0.037054323 1.1428953 4488640
-0.10916597 -0.055668358 1.1564629 3895997
-0.10532887 -0.052021012 1.1595348 4027323
0.1301996 -0.026959643 1.1480676 4817354
-0.10886048 -0.046011731 1.1530057 3962044
-0.10484023 -0.04436858 1.1587346 4093118
0.11962535 -0.015797332 1.1514785 5014224
0.12515044 -0.017878093 1.147271 4751563
-0.10902105 -0.035539966 1.1517019 4290235
-0.10402599 -0.034858815 1.1560591 4158908
-0.098029591 -0.031875804 1.1593181 4028609
0.11709661 -0.0089943558 1.1498072 4817874
0.12350988 -0.0079261214 1.144352 5145287
-0.10250422 -0.02797471 1.1538856 4487616
-0.097316533 -0.024717301 1.157975 4356800
0.1068543 0.0024132356 1.1499825 5276623
0.11336277 0.00016355515 1.1460248 5604813
0.12278783 4.5120716e-005 1.1442857 6720449
-0.095988274 -0.017537892 1.159278 5671109
0.10441764 0.0077229664 1.1515126 5802961
0.1106791 0.007705152 1.1471881 6787017
0.027093973 0.01461079 1.1548992 12972031
-0.028970418 0.018073082 1.1549352 5869264
0.003686931 0.01819203 1.1557548 7515376
0.011168709 0.018692516 1.1554853 8764660
0.020756613 0.019364178 1.1551398 10146554
0.027461315 0.019106247 1.1548965 10870005
-0.087451316 0.01966808 1.1510515 8028800
-0.082406797 0.020624235 1.1508712 7305855
-0.024671951 0.019712187 1.1567848 5671370
-0.021379186 0.020095766 1.1566665 5869265
0.0016701873 0.022780821 1.1558386 6988787
0.0060605453 0.023292251 1.1556809 7185904
0.090651043 0.042051643 1.1526637 6314850
-0.081773318 0.025734171 1.1508603 8028802
0.087169215 0.045208186 1.1527971 6117979
0.06188146 0.052909493 1.1457253 5593178
0.064061515 0.053163454 1.1456469 5658970
0.0033416711 -0.22048068 1.1592071 2973083
0.0089766476 -0.22094126 1.1590021 2973595
0.01831083 -0.21942508 1.1593349 2973598
-0.017764231 -0.21176931 1.1599915 2842012
-0.011271192 -0.2124092 1.159755 2776219
-0.0016569588 -0.21379644 1.1609286 2907806
0.0080860117 -0.21406081 1.1622105 2907807
0.01863561 -0.21337727 1.1620058 2973599
0.027084403 -0.21002042 1.1590396 3039136
0.037659038 -0.20779611 1.1593292 3170723
0.047526546 -0.20652208 1.158308 3236770
0.057176366 -0.20492971 1.1572953 3170979
0.066132136 -0.20367163 1.1569742 3170980
0.072548173 -0.20124871 1.1567477 3171236
-0.029802917 -0.20423567 1.160445 2842012
-0.022828808 -0.20571372 1.1616446 2842011
-0.012987847 -0.2068481 1.1622934 2842012
-0.0045375694 -0.2073331 1.1635259 2907805
0.041763239 -0.2033405 1.1618595 3302309
0.047556393 -0.20149362 1.1605107 3302308
0.056083441 -0.20036945 1.1588467 3171236
0.066785075 -0.19968605 1.15696 3171236
0.077234857 -0.19709694 1.1582557 3105443
0.086739272 -0.19404961 1.1572517 3171492
0.092987195 -0.19142106 1.1560311 3040420
-0.052010186 -0.1956526 1.1612689 2841497
-0.042961612 -0.19736978 1.1614711 2907291
-0.034230188 -0.19903016 1.1625011 2907549
-0.027390765 -0.19944072 1.1643716 2907551
0.089104302 -0.1866173 1.1601856 3040420
0.095788427 -0.1839723 1.158054 3106213
0.10317566 -0.18047905 1.1556883 3106214
-0.05417943 -0.18938792 1.1633636 2907290
-0.047253937 -0.19148985 1.164609 2973340
0.099127337 -0.17648301 1.1598468 3302823
0.10476642 -0.17340931 1.1572484 3237030
0.11047444 -0.16931579 1.1572293 3237031
-0.073039688 -0.17799631 1.1620717 2841497
-0.064282954 -0.18048294 1.1622826 2842012
-0.057860427 -0.18200225 1.1645149 2907547
0.11470352 -0.16108114 1.1562405 3368361
0.11934169 -0.15726107 1.1551579 3237285
-0.075191505 -0.17228962 1.1621631 2973085
-0.068335466 -0.17173529 1.1646549 3039135
0.11613984 -0.15372455 1.1552821 3368615
0.1222583 -0.14966375 1.155798 3237799
0.12638481 -0.1458291 1.15493 3303337
-0.084028743 -0.16028738 1.1625112 2973857
-0.078175642 -0.16316962 1.1638491 3039137
-0.072095819 -0.16336426 1.1660746 3104930
0.12341277 -0.14198698 1.1570479 3172264
0.12920804 -0.13839306 1.1555125 3238059
-0.086122401 -0.15228018 1.1636065 3039650
-0.081646852 -0.15539809 1.1664392 3105700
0.13135172 -0.12834373 1.1569467 3369132
0.13547668 -0.12801492 1.1546429 3434410
-0.089821488 -0.14409485 1.1644745 3171236
0.13232948 -0.12005965 1.1579777 3500719
0.13536757 -0.11737819 1.1566732 3435183
-0.098373637 -0.13291636 1.163095 3302823
-0.093431465 -0.13435112 1.1655811 3171495
0.13495137 -0.10725986 1.1565303 3566514
-0.1010522 -0.12454432 1.1646671 3368873
-0.097200833 -0.12529162 1.1662725 3368875
0.13654871 -0.0978119 1.1554759 3697588
-0.10295275 -0.11564623 1.1659698 3303850
0.13709141 -0.088101432 1.1581094 3763892
0.14009015 -0.087041989 1.1545726 3698099
-0.10550368 -0.10566185 1.1650183 3435181
-0.099547781 -0.1054765 1.1672047 3435438
0.1369548 -0.07792604 1.1587101 3829942
0.13961397 -0.077044956 1.155757 3764149
-0.10557778 -0.095934436 1.1654441 3501229
0.13541204 -0.064655691 1.1587973 3896505
0.14002973 -0.06700547 1.1564413 3830455
-0.10613932 -0.086069174 1.1650259 3632563
-0.10224759 -0.082253404 1.1673572 3567542
0.13215041 -0.05781186 1.1563584 4027837
0.13770166 -0.060735557 1.154721 3896505
-0.10655482 -0.075989701 1.1648595 3829940
-0.10301896 -0.07561823 1.1674008 3699127
0.12959446 -0.04843919 1.1577119 4291009
-0.10732967 -0.065866858 1.1643777 3895737
-0.1036547 -0.064644024 1.1674497 4027576
0.1287051 -0.038431697 1.1571006 4422849
-0.10695784 -0.059077144 1.1635798 4158911
-0.10285784 -0.054888498 1.1654426 4093372
0.12750597 -0.028757893 1.1566665 4817355
-0.10023892 -0.045117799 1.164909 4093630
-0.095824309 -0.041154969 1.1672217 4094397
0.11889284 -0.018945575 1.157724 5080014
0.12366355 -0.021600269 1.1553215 4883149
-0.099069998 -0.037307557 1.1633457 4028348
-0.094838284 -0.034249753 1.1647006 4028864
0.11330387 -0.0098849013 1.1575029 4949202
-0.092397884 -0.024310008 1.1649542 4029123
-0.088389024 -0.021608196 1.1669986 3963586
0.1061563 -0.00079189241 1.1586726 5146069
0.10998514 -0.0047631264 1.1558563 5080276
-0.092565224 -0.016443744 1.1631594 5342665
-0.085598536 -0.013494737 1.1669168 4882633
-0.023039991 -0.0024136081 1.1646788 6070261
-0.016409075 -0.0016411692 1.1644406 6528744
-0.0097781606 -0.0008687228 1.1642025 8827627
0.0056939693 0.00093363971 1.1636467 10340848
0.014450774 0.0013132542 1.1633307 8895736
0.021983467 0.0014862195 1.1630585 6266608
0.095703132 0.010865062 1.1594119 5475287
0.10049821 0.0078929439 1.1575636 5475028
-0.082914874 -0.0071375296 1.1648334 5999306
-0.076430991 -0.0052652061 1.1646031 5540557
-0.068334594 -0.00096026063 1.1636531 5803727
-0.055815168 0.0022369251 1.165876 4950220
-0.04678829 0.002156347 1.165549 5016280
-0.037077762 0.0026749223 1.1647986 5411294
-0.027168317 0.0038277283 1.1626015 5806569
-0.017194817 0.0049916729 1.1638843 7120874
-0.0077407975 0.0068408623 1.1641469 12379901
0.0027455706 0.0075512081 1.1612412 13891069
0.012492679 0.0084508285 1.1602163 12969723
0.022379616 0.0098354071 1.1607466 9946095
0.032419194 0.010769136 1.1607884 10013177
0.041858677 0.013763614 1.1602129 7449069
0.048331767 0.016361721 1.16214 5411552
0.092310227 0.014394931 1.1580421 6526426
-0.054421842 0.0073807389 1.1658376 6264275
-0.047065869 0.0090630576 1.1630738 5803990
-0.037685558 0.010799959 1.1612375 5345755
-0.027897337 0.01321052 1.1608889 5412839
-0.018427433 0.014907494 1.1610504 5676266
-0.0092641767 0.015031897 1.1630778 7253489
0.00045028515 0.015993014 1.1608701 8436213
0.010578458 0.01493296 1.1595004 12051453
0.024383783 0.02100917 1.1590151 10082302
0.032252222 0.021181114 1.1587307 10607102
0.040772706 0.021322623 1.1584227 7515119
0.047878984 0.021523833 1.1595001 6068200
-0.016879419 0.020670377 1.1605077 6001365
-0.012473935 0.02118358 1.1603495 6396124
0.098538816 0.039924011 1.1563759 6447199
0.011280787 -0.20988041 1.1669501 3039391
0.018757112 -0.20844337 1.1681838 3039135
0.030132663 -0.20768434 1.166273 3104930
-0.018841518 -0.20214269 1.1680585 2776478
-0.01233569 -0.20229971 1.169824 2842271
-0.0022368785 -0.20278816 1.1716406 2907807
0.0071561821 -0.20356925 1.171813 2908063
0.017239846 -0.20325735 1.1725538 2973600
0.027355194 -0.20108683 1.1717259 3105187
0.037137255 -0.19958772 1.1704552 3236773
0.046592295 -0.19713338 1.1694379 3237029
0.057472244 -0.19595259 1.1691136 3171237
0.067079999 -0.19577442 1.1664648 3171236
0.076330125 -0.19312292 1.1655589 3105444
0.084908299 -0.19061908 1.1643307 3171493
-0.031855151 -0.1947494 1.171749 2841758
-0.023519078 -0.19610658 1.1722447 2907551
-0.014443835 -0.19618206 1.1747414 2842271
-0.0036560316 -0.19612987 1.1755284 2908064
0.0031728335 -0.19646671 1.1752805 2973857
0.024386276 -0.19399554 1.1745185 3105444
0.037048511 -0.19151397 1.1740661 3237030
0.047044504 -0.19076288 1.1729056 3302823
0.056541048 -0.18886909 1.1724432 3171495
0.065655068 -0.18638542 1.1716505 3105703
0.075316533 -0.18551895 1.1710942 3105703
0.084925801 -0.18388546 1.1688489 3105702
0.092809133 -0.18042746 1.1657842 3105958
-0.043997228 -0.18840349 1.1706495 2973598
-0.035704002 -0.18919858 1.1747032 2907551
-0.025596937 -0.18991014 1.1763371 2908065
0.085848957 -0.17533804 1.172338 3237288
0.094434164 -0.17360333 1.1695853 3302823
0.10269114 -0.1705652 1.1663076 3237287
-0.054590702 -0.17830084 1.1722676 3105183
-0.046674497 -0.18079717 1.1752379 2974112
-0.038112558 -0.18202627 1.1768087 2842786
0.095223151 -0.1667203 1.172019 3171750
0.10332489 -0.16213323 1.1704024 3172008
0.11097298 -0.15944642 1.1657958 3303081
-0.06385383 -0.16961735 1.1704314 3104930
-0.057187542 -0.17121714 1.1761904 3170978
0.10488007 -0.15356016 1.1717006 3303337
0.11234455 -0.15114571 1.1691846 3368873
0.11896894 -0.14903757 1.1657431 3237543
-0.075020239 -0.15805683 1.1728641 3040164
-0.067871824 -0.1610138 1.173722 3105701
-0.06087625 -0.1646733 1.1776735 3302822
0.11294577 -0.14200889 1.171436 3303597
0.11985688 -0.13873123 1.166827 3238059
0.12646639 -0.13487154 1.1649594 3303852
-0.078135423 -0.1520495 1.1741029 3106213
-0.070038199 -0.15319043 1.1780322 3172007
0.11985366 -0.12962803 1.171015 3369387
0.12756908 -0.12846324 1.1669359 3435181
-0.086507238 -0.14270177 1.1719819 3237030
-0.079747528 -0.14262116 1.1760736 3237800
-0.072933726 -0.14531824 1.1781555 3303594
0.12096807 -0.1234098 1.1711894 3500972
0.12870443 -0.11817983 1.1676697 3500976
0.1328468 -0.11474257 1.1627747 3500977
-0.088643052 -0.13364229 1.1738595 3237545
-0.083676644 -0.13476665 1.1776798 3303852
0.12949777 -0.10852608 1.1709158 3566772
0.13268939 -0.10846101 1.1667978 3566515
-0.092253223 -0.12428845 1.1741512 3369389
0.12924753 -0.09895727 1.1709474 3763639
0.13230169 -0.097627334 1.1659479 3763639
-0.10065555 -0.11132371 1.172568 3435181
-0.094779477 -0.11437296 1.1755884 3435438
0.12860525 -0.087870412 1.1709969 3895737
0.13335241 -0.087162532 1.1656468 3764149
-0.10086823 -0.10483515 1.1736583 3435438
-0.095316172 -0.1048508 1.1775216 3501231
0.12795584 -0.082284346 1.1710335 3961530
0.13264857 -0.077696219 1.1656946 3961528
0.13929208 -0.073503517 1.1626387 3895735
-0.10163551 -0.095614389 1.1743082 3501489
-0.097320236 -0.094907038 1.177038 3501490
0.12587772 -0.064408928 1.1711509 4159679
0.13191603 -0.068382427 1.1661925 3962041
0.13903408 -0.071284235 1.1626532 3895735
-0.10298502 -0.088374108 1.1733735 3501747
-0.098483577 -0.08465559 1.1758877 3567541
0.1243974 -0.058164757 1.1712192 4225473
0.12797722 -0.058227066 1.1670868 4159424
-0.097933352 -0.074364111 1.1748247 3764919
0.12312467 -0.049380083 1.171286 4422597
0.12681223 -0.048206195 1.1671526 4357059
-0.098579019 -0.064599723 1.1746995 3896505
-0.093709968 -0.06394504 1.1790993 3962298
0.12177395 -0.038843069 1.1713597 4685767
0.12564726 -0.038185332 1.1672183 4422851
-0.098248482 -0.055361625 1.1728797 4027836
-0.093282901 -0.053041734 1.178018 4028094
0.11861281 -0.028532214 1.1693794 4948684
0.12451088 -0.029721998 1.1642776 4751818
-0.09755826 -0.047110163 1.1712731 4093632
-0.092214428 -0.043052986 1.1769392 4094399
0.11078967 -0.018985562 1.1718041 5080784
0.11502047 -0.019535527 1.1668465 5211343
-0.090018287 -0.034287851 1.1753969 4094402
-0.083796233 -0.030495822 1.1778188 4226244
-0.077509478 -0.028087512 1.1785976 4620744
-0.024047511 -0.020727329 1.1766801 5412064
-0.001717573 -0.018126078 1.175878 6463211
0.006738062 -0.021004379 1.1755652 6397929
0.016280463 -0.019247703 1.1752239 6397929
0.02522679 -0.016281411 1.1749072 6003432
0.10664573 -0.010110237 1.1694733 5081042
0.11197814 -0.012578964 1.1637709 5081041
-0.083534017 -0.02256687 1.1726912 4160963
-0.075433768 -0.020715371 1.1776822 4752075
-0.06081447 -0.015951596 1.178022 4949201
-0.05405055 -0.015729837 1.1777778 5016022
-0.044434331 -0.015732482 1.1767626 5213659
-0.034591839 -0.015492454 1.1758424 5411552
-0.024712188 -0.015131637 1.1759168 5740773
-0.014648454 -0.013970695 1.1763558 6003172
-0.0046159308 -0.012796305 1.1755952 6331366
0.0053111613 -0.011597097 1.172637 6989552
0.015353976 -0.010434046 1.1726766 6792432
0.025341952 -0.0092586875 1.1716673 5937640
0.033743415 -0.0073737055 1.1736193 5806054
0.04426612 -0.0048429891 1.1742451 5674725
0.050835222 -0.0029453933 1.1740118 5674983
0.09662471 -0.00015910715 1.1723611 5146841
0.10263012 -0.0014979467 1.1664226 5080789
-0.081209518 -0.013714813 1.1707602 4554184
-0.077774867 -0.012502424 1.1736406 4751049
-0.062556274 -0.010479644 1.1760966 4818129
-0.055197321 -0.0096148327 1.1750318 5015507
-0.045851409 -0.0084899589 1.171294 5147609
-0.035865217 -0.007313624 1.1696345 5346018
-0.026156632 -0.0065846741 1.1718975 5937898
-0.015689874 -0.0061183274 1.1717422 6462952
-0.0054286961 -0.0041643754 1.170486 8303605
0.0038517248 -0.0031803325 1.1691359 8501495
0.013720385 -0.0030099675 1.1679654 7252467
0.024914104 -0.0011650994 1.1684043 6069484
0.033900939 0.00097107887 1.1689459 6135528
0.044095289 0.0017519742 1.1716769 5741031
0.0534508 0.0030285567 1.1729306 5543655
0.062746838 0.0054104775 1.1736004 5477092
0.072584867 0.007892102 1.1732502 5739747
0.083902746 0.008958891 1.1728431 5280481
0.093225159 0.007426165 1.1688073 5015513
0.098818146 0.0061074868 1.1662925 4949463
-0.075329937 -0.0062818527 1.1705649 4818122
-0.066080265 -0.0042046532 1.170235 5147606
-0.057541221 -0.0024601519 1.1699301 4818639
-0.048715524 -0.0031815097 1.169609 5344472
-0.0044226646 0.0025405511 1.1680194 12971007
7.757172e-005 0.0025024489 1.1678565 12905215
0.02447411 0.0053444281 1.1669801 5807584
0.037781321 0.0068945959 1.1665022 6004710
0.043690674 0.0085470006 1.1662922 5807083
0.052209333 0.012017988 1.1681268 5477863
0.060792878 0.012562893 1.1703525 5542628
0.072982833 0.010958038 1.173243 5673698
0.083193779 0.0141294 1.1713799 5804766
0.088792272 0.012836926 1.16467 5147865
0.054234236 0.020057961 1.1659378 5412324
0.010330983 -0.1985988 1.1790189 3039650
0.016807042 -0.19849364 1.1787847 3039650
-0.01074628 -0.19310088 1.1797947 2842271
-0.0040246118 -0.19231787 1.1795533 2973857
0.0063965581 -0.19221102 1.1804403 2973857
0.016325172 -0.1928274 1.1813436 3039395
0.026656333 -0.18967134 1.180228 3171237
0.035704933 -0.1871848 1.1791948 3237030
0.045928214 -0.18544281 1.179301 3302569
0.054214962 -0.18461826 1.1787978 3237546
-0.031481273 -0.18496609 1.1805643 2908065
-0.023847694 -0.18505071 1.1802878 2973857
-0.014989516 -0.18580113 1.1809661 2973857
-0.0050546527 -0.18656513 1.1817231 2973858
0.0033409465 -0.18643418 1.1833031 3105444
0.034814626 -0.18276778 1.1821727 3237030
0.046255559 -0.17991498 1.1817653 3302825
0.05505801 -0.17842935 1.1811423 3171754
0.064841658 -0.17780034 1.1790963 3171752
0.07503923 -0.17618223 1.1781425 3171753
0.083040141 -0.17210868 1.1774505 3237546
0.090885788 -0.16876367 1.1761738 3303592
-0.043669581 -0.17686366 1.1810246 2908579
-0.035213061 -0.17807633 1.182717 2908579
-0.025247933 -0.17840134 1.1832652 3105444
-0.016416846 -0.17915967 1.1840354 3105443
0.077606864 -0.16866276 1.1806573 3303339
0.085270584 -0.16547242 1.1790532 3303082
0.093286455 -0.16240212 1.1766738 3237545
0.098805442 -0.15875168 1.1759108 3303850
-0.053935036 -0.1666977 1.1814201 3302822
-0.046792537 -0.17021506 1.1834047 3040165
-0.039217383 -0.17315163 1.1848748 3040167
0.087801367 -0.15835507 1.1803125 3303598
0.093324177 -0.15368342 1.1791819 3238061
0.10151739 -0.15063979 1.1769435 3303596
0.10883534 -0.14735766 1.1755747 3369131
-0.064860433 -0.15736607 1.1818376 3171751
-0.058011398 -0.16023515 1.1829956 3368615
-0.050641552 -0.1630823 1.185312 3171751
0.10993172 -0.14062023 1.1770518 3369134
-0.067635432 -0.15058821 1.1819539 3369130
-0.061226584 -0.15183464 1.184721 3434922
0.10998921 -0.13089301 1.1786213 3435183
-0.070292786 -0.14224994 1.183404 3434923
0.11190748 -0.12352769 1.1787217 3501232
0.11823454 -0.11963302 1.1778897 3435694
0.12462202 -0.11711417 1.1750746 3501232
-0.07975395 -0.13213095 1.1834368 3369646
-0.073583603 -0.13520253 1.1848738 3435182
0.1209197 -0.11003653 1.1792278 3567282
0.12485435 -0.10902561 1.1769047 3567027
-0.08958672 -0.1204802 1.1828194 3501231
-0.084482037 -0.12386082 1.1853784 3435439
0.12000437 -0.10216305 1.1792796 3829686
0.1246823 -0.098774672 1.1773393 3829431
-0.089977682 -0.11711721 1.1828414 3501231
-0.085937142 -0.11339531 1.1843717 3567024
0.12590574 -0.08919163 1.1777624 3830201
-0.091606706 -0.10310474 1.1829334 3632818
-0.088245384 -0.10345165 1.1848123 3698612
0.12675844 -0.078405604 1.1770899 3896507
-0.092714444 -0.09357626 1.182996 3633333
-0.088773869 -0.093332738 1.1856558 3764919
0.12539826 -0.068283379 1.1766627 4093886
-0.094179079 -0.084884681 1.1830696 3633334
-0.090162896 -0.083498031 1.1861296 3830201
0.12133126 -0.059072144 1.1775542 4291523
-0.090987742 -0.073212415 1.1846493 3896506
0.11961198 -0.048713006 1.1770183 4619975
-0.088832825 -0.063346222 1.1846422 4028348
0.11255094 -0.03805051 1.1797005 5146320
0.11716726 -0.039742097 1.1785288 4883148
-0.088266522 -0.053792164 1.1832148 3962814
-0.083386354 -0.051872354 1.1856158 3963072
0.11049248 -0.029393561 1.1782945 5146577
0.11434319 -0.030565172 1.176151 5080527
-0.087959602 -0.044621129 1.1829394 4028607
-0.081950754 -0.042176601 1.1848624 4291526
-0.032558382 -0.034434203 1.184961 5147865
-0.025165739 -0.033345021 1.184696 5344731
-0.0090838876 -0.030559614 1.1841204 5345501
-0.0023395289 -0.029773958 1.1838782 5739743
0.0079751546 -0.030810416 1.1821682 5936862
0.016976861 -0.029772297 1.1821785 5871068
0.027016791 -0.027494214 1.1828212 5739228
0.044870988 -0.024274349 1.1821826 5213656
0.10760059 -0.020787954 1.1783193 4949970
-0.081123754 -0.034564957 1.1827158 4422856
-0.073237412 -0.028863624 1.1842631 4686797
-0.063067205 -0.026544251 1.1840824 4884690
-0.052526824 -0.02677428 1.1852014 4950486
-0.042090572 -0.026317246 1.1839908 5213659
-0.033516057 -0.026485585 1.1818123 5279707
-0.023283968 -0.026441261 1.1818423 5345244
-0.0133851 -0.023644239 1.1814017 5411808
-0.0034767352 -0.023609996 1.180841 5806052
0.0061190659 -0.025632806 1.1795793 6068964
0.018112142 -0.024614438 1.1791476 6068963
0.027833927 -0.021091223 1.1797278 6003173
0.03606189 -0.018408403 1.1803137 5608417
0.0462102 -0.017239518 1.1805496 5411038
0.053078897 -0.016478114 1.1819038 5279709
0.097206555 -0.0095629469 1.1793994 5212630
0.10316274 -0.012472607 1.1774323 5015248
-0.070286244 -0.022792831 1.1823512 4949712
-0.063564584 -0.02200982 1.1821098 4949713
-0.053482071 -0.020835295 1.1817477 5016279
-0.044102982 -0.020121433 1.18141 5213659
-0.035427295 -0.019868247 1.1810966 5345501
0.036765501 -0.010890342 1.1785048 5871590
0.045102432 -0.0093510747 1.1782068 5871847
0.055098847 -0.0059520155 1.1798543 5543139
0.06221085 -0.0039886683 1.1798874 5280225
0.086617142 -0.0011710748 1.1807262 5411294
0.092506938 -0.0018912628 1.1779642 5279196
0.063729882 0.001340203 1.1775578 5411556
0.07305678 0.0041309744 1.1772268 5412066
0.084259555 0.0054360032 1.1768245 5477344
0.091241866 0.0039770156 1.1765683 5213404
0.016980462 -0.18816957 1.1868081 3105189
-0.0041822828 -0.18211868 1.188589 3039906
0.005709473 -0.18311812 1.1886574 3039908
0.015377009 -0.18317333 1.1902134 3105447
0.025725229 -0.18116888 1.1872586 3105702
0.034570925 -0.17887604 1.1861933 3171750
0.043443419 -0.17742652 1.1858757 3237289
0.054609671 -0.174254 1.185479 3237548
0.064760238 -0.17307156 1.1851145 3171752
0.073782973 -0.17202049 1.1847904 3171752
-0.032990038 -0.17393517 1.1886503 3039909
-0.02508148 -0.17375593 1.1892539 3105701
-0.016619036 -0.1754487 1.1906012 3105443
-0.0064147227 -0.17969967 1.1916775 3040163
0.024033783 -0.17523456 1.190586 3105960
0.035221294 -0.17280911 1.1901867 3105958
0.044048879 -0.1702539 1.1890727 3237545
0.054208688 -0.16799504 1.1876149 3237547
0.064123668 -0.16652167 1.186754 3237544
0.074090809 -0.16513237 1.1864808 3237545
0.082413472 -0.16215456 1.1851684 3303339
-0.045244649 -0.16586877 1.1891128 3172009
-0.036431581 -0.16804352 1.1911902 3105961
-0.026850378 -0.1691688 1.1924418 3171752
0.056771368 -0.16086221 1.189435 3303337
0.063561112 -0.16007127 1.1891911 3303593
0.073471218 -0.1579331 1.1888375 3303594
0.082264021 -0.15426821 1.1872771 3303596
0.088762492 -0.1519739 1.1842955 3238062
-0.053559631 -0.15825853 1.1894317 3434409
-0.047554493 -0.15935239 1.1920371 3237547
-0.038960196 -0.16074592 1.1928999 3237805
0.082420938 -0.14690749 1.1885395 3238318
0.091270581 -0.1429165 1.1871079 3238572
0.10123503 -0.14152877 1.1850696 3434926
0.10757486 -0.14017409 1.1836425 3369134
-0.056881838 -0.14956059 1.190804 3435179
-0.050665587 -0.15087575 1.1929022 3369388
0.095140249 -0.13573426 1.1881056 3500977
0.100276 -0.13156649 1.1869289 3435186
0.10558798 -0.13094972 1.1837362 3500720
-0.066583842 -0.13987425 1.1909471 3566511
-0.060530491 -0.14207852 1.1923906 3566767
-0.053023867 -0.14381257 1.1934489 3500977
0.10086595 -0.12381651 1.1874261 3501234
0.10831572 -0.12047236 1.1844126 3501490
-0.077665627 -0.12789504 1.1903757 3566770
-0.070331499 -0.13167208 1.192703 3632306
-0.063129991 -0.13580836 1.1938336 3632563
0.10917027 -0.11166222 1.1862419 3699127
0.11633423 -0.10951792 1.1838686 3633076
-0.079474486 -0.12248608 1.1914546 3566770
-0.073301151 -0.12269131 1.1942326 3763892
0.10906025 -0.10255136 1.18768 3633335
0.11534669 -0.099593759 1.1850134 3764407
-0.080704257 -0.11249283 1.1933239 3698868
-0.076277949 -0.11260102 1.1943642 3699126
0.10824384 -0.090595782 1.1877378 3962811
0.11470363 -0.089924619 1.1863382 3830969
0.12229502 -0.089241132 1.1832298 3830714
-0.083086818 -0.10273483 1.1915549 3699126
-0.077684939 -0.1026908 1.1944385 3830712
0.11427014 -0.079971418 1.1869444 4028606
0.12226081 -0.079113871 1.183255 3962300
-0.083581679 -0.093247369 1.1922725 3830970
-0.078666709 -0.09236671 1.1944983 3962813
0.11351553 -0.070943624 1.1875933 4291522
0.1211604 -0.06961368 1.1836811 4094399
-0.085039571 -0.08328101 1.1924633 3962044
-0.08008077 -0.083022043 1.1945715 4093630
0.11383753 -0.060087275 1.1873405 4554438
0.11859903 -0.0602584 1.183432 4357059
-0.085593924 -0.073231623 1.1921258 4093886
-0.081036262 -0.07198441 1.1946322 4291009
0.11077824 -0.049823824 1.1868527 4686026
0.11666127 -0.049209051 1.1835282 4685769
-0.084881723 -0.065823935 1.1907833 4159935
-0.080098294 -0.062800258 1.1934763 4225985
0.10245161 -0.040772405 1.1880649 5015248
0.10854499 -0.041328043 1.1851747 5014991
-0.078264832 -0.05269732 1.1926938 4292037
-0.072608188 -0.054279216 1.1943688 4619977
-0.050765574 -0.04484864 1.1936005 5279449
-0.042844214 -0.043925874 1.1933161 5016538
-0.030264722 -0.043608155 1.1928616 4950743
-0.020618739 -0.044172261 1.1925111 4950488
-0.01160603 -0.042964831 1.1921878 5147351
-0.0013425183 -0.040812816 1.1918213 5278422
0.0093839895 -0.041887589 1.1905411 5212886
0.01855951 -0.040145952 1.1893516 5278423
0.028380707 -0.038162131 1.189501 5147094
0.039294459 -0.03730863 1.1903589 4885460
0.048511952 -0.034715891 1.1893036 4950741
0.057522893 -0.033152141 1.1897089 5016279
0.099784188 -0.031153999 1.1867832 5212370
0.10716548 -0.031441711 1.1839137 5212369
-0.077006996 -0.045535658 1.1925474 4423370
-0.075332314 -0.042121354 1.1920946 4554187
-0.050891981 -0.039805152 1.1933502 5147610
-0.041252755 -0.037936661 1.1912713 5081818
-0.031950802 -0.03914316 1.1909318 5016538
-0.02104277 -0.036427028 1.1906768 5278938
-0.012073429 -0.034771621 1.1903561 5344730
-0.0016172826 -0.034430947 1.1889112 5673948
0.0087543717 -0.035470713 1.1874659 5805277
0.017777104 -0.034419645 1.1871419 5541848
0.027796473 -0.03210862 1.1867847 5475544
0.037684642 -0.028669052 1.186435 5213397
0.048358791 -0.028057471 1.1867564 5082070
0.057949722 -0.026164375 1.1881089 5016536
0.066629559 -0.022975385 1.1894034 5213915
0.077186316 -0.020761907 1.1890265 5279453
0.088102534 -0.019949324 1.1886333 5213659
0.097749837 -0.021754473 1.1866789 5212628
0.1042273 -0.020917423 1.184045 5146833
-0.075755507 -0.036164578 1.1905229 4554443
-0.050927356 -0.031442158 1.1896355 5016281
-0.04360421 -0.031504147 1.1893703 5147611
-0.012596386 -0.028807104 1.1882544 5411294
0.057180926 -0.016103275 1.1857589 5148123
0.065847181 -0.015099637 1.1856478 5213915
0.075891748 -0.014170989 1.1868266 5213917
0.086582512 -0.012863107 1.1870198 5213659
0.094657764 -0.013653807 1.184742 5212887
0.086469486 -0.0058283135 1.1847231 5279708
0.090980858 -0.0053027719 1.1845611 5411037
-0.00055616535 -0.17979792 1.1964685 3106213
0.0051255887 -0.17913604 1.1962644 3105959
0.016402287 -0.17848098 1.1958578 3105706
0.026716236 -0.17662093 1.1954888 3105960
-0.012144638 -0.174233 1.196901 3105700
-0.0045981761 -0.17461774 1.1973774 3105957
0.0044973474 -0.17355819 1.1970507 3106216
0.01477696 -0.17248806 1.1975318 3106217
0.025274897 -0.17074516 1.1969844 3171752
0.033045545 -0.16934027 1.1963686 3303337
0.043840304 -0.16540629 1.1948955 3369130
0.050658397 -0.16461204 1.1946507 3369132
-0.025937336 -0.16455331 1.1977565 3171753
-0.01596834 -0.16583973 1.1997809 3171752
-0.0056431461 -0.16493589 1.2014908 3172010
0.0036568753 -0.16514748 1.2021043 3172012
0.013602136 -0.16357635 1.2025441 3237802
0.024091199 -0.16164374 1.2016232 3303338
0.033238243 -0.1606079 1.2014947 3369133
0.043388262 -0.15917736 1.1994096 3369388
0.053385362 -0.15766965 1.1983603 3303853
0.06239336 -0.15542215 1.1959988 3369643
0.07227914 -0.15344861 1.1941299 3303851
-0.044901729 -0.15499935 1.1981319 3303598
-0.036463216 -0.15687606 1.1995375 3303341
-0.027635979 -0.15762736 1.2026471 3303340
-0.018089486 -0.15798813 1.2051597 3369132
-0.0097603481 -0.15891629 1.204856 3303600
0.023413125 -0.15505187 1.2036645 3303598
0.035996169 -0.15358606 1.2032126 3435186
0.043431602 -0.15271989 1.2029455 3369391
0.053154863 -0.15158722 1.2025963 3369392
0.062536918 -0.14755426 1.2016505 3369390
0.071781784 -0.14537202 1.1977341 3435184
0.080774352 -0.14266415 1.1936125 3369392
-0.046626955 -0.14815454 1.199011 3369646
-0.039105497 -0.1496536 1.2035384 3303853
-0.031415358 -0.15215771 1.2056557 3173034
0.063545287 -0.1392394 1.2022494 3566773
0.071495727 -0.13698956 1.2012998 3566516
0.080911279 -0.13397349 1.1980309 3500977
0.090732396 -0.13346489 1.194959 3500975
-0.058131166 -0.13744225 1.198652 3632562
-0.048853643 -0.1394815 1.2013135 3501236
-0.041208461 -0.13880706 1.2055969 3501494
0.082203753 -0.12471026 1.2016083 3698612
0.089668274 -0.12416282 1.1989743 3567283
0.098085195 -0.12070182 1.195973 3567283
0.1049897 -0.11679371 1.1927971 3501747
-0.06638813 -0.12869035 1.1989715 3895478
-0.060462758 -0.13057604 1.2012544 3698613
-0.051377244 -0.13051404 1.2050951 3633080
0.082868479 -0.11796198 1.2016002 3699128
0.08901149 -0.11403365 1.2013872 3830713
0.098334514 -0.11254773 1.1998525 3699126
0.10470398 -0.11037311 1.1928226 3633333
-0.068612158 -0.12088208 1.1990705 3961271
-0.061680138 -0.12057454 1.2038236 3896247
-0.054587871 -0.12237294 1.2065647 3764921
0.088103369 -0.10714285 1.2014363 3962300
0.098579779 -0.1033897 1.200595 3896506
0.10564686 -0.10061613 1.1948128 3764920
-0.070986547 -0.11178762 1.2006788 3830712
-0.064039655 -0.11058981 1.2056004 4093627
0.1002867 -0.092265867 1.2010304 4028352
0.10537747 -0.0910234 1.1955123 3962812
-0.072556891 -0.10158784 1.2012601 3962556
-0.065835163 -0.10198832 1.206575 4028606
0.098562323 -0.081992254 1.201117 4357317
0.10480413 -0.081426851 1.1968899 4225985
0.10958598 -0.077074006 1.1927243 4225985
-0.073109098 -0.092582732 1.2013013 4028606
-0.068139069 -0.092240788 1.2071261 4094655
0.098157562 -0.073951513 1.2011507 4554695
0.10353458 -0.071119584 1.1963598 4554182
0.10937414 -0.068647169 1.1927519 4619462
-0.075072125 -0.082075998 1.1998667 4159424
-0.067041628 -0.080192223 1.2058833 4160448
-0.060921565 -0.077864952 1.2068988 4554440
0.097071484 -0.0606203 1.2012213 4620747
0.10263848 -0.06098054 1.1987677 4686026
0.10887167 -0.061022513 1.1927881 4619977
-0.075589538 -0.072404265 1.1994374 4291265
-0.067393914 -0.071495652 1.2043964 4357573
-0.061719991 -0.070997059 1.206944 4751563
0.011561238 -0.059753429 1.2043183 4818903
0.01909861 -0.05810196 1.2040493 4819160
0.094256505 -0.052363116 1.2013427 4752590
0.10157352 -0.051840659 1.1988276 4817869
0.10680996 -0.053195339 1.1928811 4752076
-0.07472346 -0.062652946 1.199429 4291778
-0.068725869 -0.061272349 1.2027965 4554440
-0.062651493 -0.062984526 1.2069966 4883149
-0.045159206 -0.053798582 1.2023826 5674209
-0.039458543 -0.053134505 1.2021778 5082331
-0.027782725 -0.054645143 1.2036195 4950745
-0.018420478 -0.05528589 1.2008109 4884953
-0.0093084741 -0.0542139 1.2002835 4753366
0.00086151995 -0.05193292 1.2011216 4884692
0.011527908 -0.052318498 1.1998897 4884692
0.020164058 -0.05058955 1.2002366 4884692
0.030238129 -0.048233666 1.2023352 4950484
0.041142434 -0.047908407 1.2001624 4950488
0.049863726 -0.046637282 1.2008439 4950489
0.060263887 -0.043975417 1.2015254 5411037
0.069190875 -0.042695422 1.2022728 5542623
0.082970932 -0.039059907 1.2017826 5213404
0.091025025 -0.041022055 1.2014865 5081558
0.099444695 -0.042281132 1.1987772 5015248
-0.070737332 -0.051651645 1.1993107 4685772
-0.048687577 -0.048623171 1.1996114 5542365
-0.039760433 -0.047765177 1.1993424 4951002
-0.030982552 -0.047768932 1.197881 4884951
-0.02157213 -0.048558582 1.1975385 4753366
-0.0080681201 -0.045833007 1.1970562 4950484
0.00077163614 -0.045091365 1.196738 5015763
0.030699965 -0.042469341 1.1956611 5015764
0.037518062 -0.041675095 1.1954162 4885461
0.049255267 -0.039319973 1.194997 4884950
0.05990947 -0.037020199 1.1964642 5082072
0.06919238 -0.034811646 1.1990892 5542624
0.078922801 -0.034859546 1.2011385 5279197
0.088754728 -0.032438643 1.1979865 5213144
0.096141353 -0.034077674 1.1933124 5212627
0.062596582 -0.029533841 1.1945372 5016538
0.068080038 -0.027166352 1.1943443 5213917
0.077263206 -0.02359955 1.1940203 5345245
0.087828472 -0.024698585 1.1943024 5213917
0.17887282 -0.016286694 1.1983653 13158081
0.0032601859 -0.16027537 1.2083843 3303598
0.015884826 -0.15880471 1.2079308 3303850
-0.026201406 -0.15299872 1.2094678 3303853
-0.016305385 -0.15345515 1.2094659 3304111
-0.0064971559 -0.15445727 1.2108579 3303857
0.0025751572 -0.15373161 1.2111764 3303856
0.012939763 -0.15255751 1.2110542 3369903
0.022984108 -0.1498298 1.2076951 3435441
0.032089852 -0.14968801 1.2073659 3435187
0.0424174 -0.14784312 1.2069964 3500978
0.052824169 -0.14635369 1.2066233 3369649
0.059293874 -0.14397046 1.2063948 3435441
-0.035175152 -0.14651698 1.2098079 3370159
-0.028582545 -0.146525 1.2095692 3370416
-0.01819119 -0.14559391 1.2114468 3436469
-0.0077559222 -0.14472139 1.213823 3502005
0.0014634524 -0.1436474 1.2134918 3501749
0.012237427 -0.14589867 1.2130966 3501493
0.022133872 -0.14108026 1.211499 3567542
0.031406641 -0.14011949 1.2121037 3567541
0.041683625 -0.13877249 1.2105467 3633333
0.05183249 -0.13727137 1.2076187 3567541
0.060247749 -0.13555029 1.2063801 3633079
0.06995891 -0.13221897 1.2060364 3632566
-0.036536805 -0.13813971 1.2098769 3501750
-0.029608706 -0.13762175 1.212129 3567798
-0.021119511 -0.13719761 1.2143244 3633848
-0.0072738081 -0.13882133 1.2138194 3633591
-0.00035927445 -0.13801585 1.2135711 3699128
0.021402672 -0.134312 1.2127922 3830714
0.031774465 -0.13310379 1.2124196 3764921
0.041093685 -0.1310619 1.2120872 3830712
0.051453844 -0.12893189 1.2113599 3830713
0.0600546 -0.12762578 1.210742 3830458
0.070205949 -0.12616235 1.2084118 3764409
0.078027964 -0.12369326 1.2063205 3764407
-0.046743818 -0.12838729 1.2102692 3698874
-0.040016606 -0.1283074 1.2122774 3764923
-0.031341337 -0.12801215 1.214716 3765435
-0.024480192 -0.13147549 1.2144595 3699641
0.068481803 -0.12064625 1.2111205 3896252
0.077925608 -0.11503014 1.2081712 3831226
0.085064918 -0.11349833 1.205534 3830458
-0.050427094 -0.11931279 1.2112139 3896508
-0.041204475 -0.11822961 1.215096 4028352
-0.033287562 -0.11800863 1.21481 4094143
0.078008913 -0.10504118 1.2072388 4159936
0.087067962 -0.10271154 1.2054869 4028352
0.094886452 -0.10042337 1.2052093 3962559
-0.059518889 -0.11055334 1.2107737 4093628
-0.05263222 -0.10982075 1.2112767 4028352
-0.042277627 -0.10897657 1.214844 4094401
-0.035780594 -0.10661126 1.2149271 4225986
0.078484409 -0.095763721 1.2094526 4357317
0.08654806 -0.093793608 1.2083411 4225732
0.095163636 -0.092301391 1.2052184 4159938
-0.061627947 -0.1009883 1.2108725 4028609
-0.053450078 -0.10011766 1.2119431 3963330
-0.044046305 -0.099103935 1.2152439 4160708
-0.037319213 -0.10141412 1.214995 4292035
0.079557471 -0.08195512 1.2108109 4620236
0.085234664 -0.084034607 1.2092108 4488649
0.093588032 -0.083674476 1.2052958 4357318
-0.063958168 -0.090950176 1.2109807 4160449
-0.055265442 -0.090140484 1.214366 4160708
-0.045992531 -0.089100413 1.215338 4489161
0.085275948 -0.074692778 1.209549 4555212
0.093211539 -0.072508268 1.2053357 4620489
-0.15626094 -0.093062989 1.2193196 14082013
-0.063443795 -0.083462924 1.2109796 4226242
-0.055573508 -0.080257572 1.213204 4620234
-0.048674963 -0.077413432 1.2154627 5079759
-0.014915286 -0.073091134 1.214251 6791922
-0.0069823992 -0.070998251 1.2139689 5608162
0.003389392 -0.069790028 1.2135963 5016279
0.013622005 -0.070635661 1.2118595 5608413
0.021895168 -0.068218656 1.2129302 4950485
0.028742667 -0.066836596 1.2126857 5016277
0.086765915 -0.063583732 1.2105933 4752847
0.092510447 -0.062904403 1.2071496 4620747
-0.057325318 -0.071482912 1.2117871 4948687
-0.046432853 -0.073256314 1.2153913 5408980
-0.025457172 -0.067646042 1.2127211 6134248
-0.016936893 -0.066170499 1.2118388 5344990
-0.0080331508 -0.065321445 1.211876 4884696
0.0030614492 -0.064073294 1.2115614 4818902
0.013483247 -0.064103343 1.2082411 4818646
0.022445813 -0.061972976 1.2086365 4818646
0.032467734 -0.060369626 1.209314 4884696
0.042424642 -0.058712486 1.2089933 5344733
0.051592432 -0.057622999 1.2083067 5936870
0.061285011 -0.055986002 1.2106996 5608416
0.070240162 -0.054054808 1.2112139 5082072
0.08292684 -0.053336907 1.2077545 5016278
0.089327119 -0.05410422 1.2055197 4884178
-0.026851917 -0.06135254 1.2097074 5082331
0.0018404443 -0.058010131 1.2086768 4687574
0.024794336 -0.055336207 1.2078524 4687574
0.032587949 -0.053763181 1.207574 4819159
0.039714366 -0.053598154 1.2073165 4950233
0.05233901 -0.052127495 1.206863 5542369
0.060862131 -0.049841311 1.20656 5805540
0.073362105 -0.046186537 1.2061162 5213659
0.080630831 -0.045339797 1.2058551 5147866
0.089652345 -0.046228841 1.2055266 5081557
0.011899525 -0.1417571 1.2171211 3633335
-0.016651651 -0.13442293 1.2181718 3699641
-0.00913091 -0.13399832 1.2179006 3765177
0.00059452839 -0.13305219 1.2191991 3830714
0.010963371 -0.13281527 1.2200581 3962299
0.02099693 -0.12904589 1.217489 4028092
0.029828632 -0.12881197 1.2167888 3962300
0.039246835 -0.12735313 1.2168932 3962299
0.048639871 -0.1249577 1.2180548 3962299
0.060749762 -0.12246415 1.2153987 3896509
0.070408061 -0.12086999 1.2150528 3830714
-0.027519992 -0.12524207 1.2185868 3962813
-0.020744869 -0.12620611 1.2201183 3962813
-0.0096509326 -0.12615243 1.2219406 4028350
-0.00023116544 -0.12719409 1.2215972 4093886
0.0067287423 -0.12638333 1.2213472 4093886
0.020243734 -0.12127962 1.2208701 4291263
0.029523611 -0.12019859 1.2205368 4291265
0.038803484 -0.11911757 1.2202035 4291265
0.049243346 -0.11790142 1.2198286 4225471
0.059458867 -0.11644232 1.2169605 4159424
0.068579353 -0.11521997 1.2151324 4028351
-0.029752197 -0.1161212 1.2186891 4159681
-0.023949521 -0.11722803 1.2213875 4159937
0.019299148 -0.11315452 1.2209235 4685507
0.028703069 -0.11111788 1.220588 4685766
0.037518948 -0.11009091 1.2202713 4685768
0.049466059 -0.10878474 1.219842 4685254
0.058581017 -0.10737646 1.2192652 4553924
0.067526311 -0.1059859 1.2154424 4357059
0.073015362 -0.10297707 1.2150007 4291524
-0.031629741 -0.1083561 1.2191089 4291267
-0.025884764 -0.10681532 1.2217733 4291525
0.028929362 -0.10497399 1.2205943 5080013
0.035889268 -0.10416321 1.2203443 5013964
0.050429307 -0.097763643 1.2198331 5014215
0.057389215 -0.09695287 1.2195832 4948424
0.066592388 -0.09580534 1.2184522 4686025
0.074028447 -0.094324164 1.2165855 4554696
-0.04026664 -0.096239001 1.2191166 4423366
-0.03446009 -0.097748004 1.2207707 4489158
-0.028099308 -0.099852838 1.2226703 4554697
0.049214832 -0.087317079 1.2199017 6725605
0.05643373 -0.086711429 1.2196419 5541334
0.065454617 -0.085425287 1.2193184 4949456
0.075443462 -0.085418887 1.2174321 4752076
-0.042498849 -0.087118119 1.2192189 4751821
-0.036554299 -0.087797306 1.2216705 4817612
-0.011428723 -0.081440583 1.2221104 6133729
-0.0091087539 -0.081170321 1.2220271 5804510
0.01534088 -0.079106458 1.2211471 6726116
0.023370812 -0.077386737 1.2208605 6791913
0.036130641 -0.075900331 1.2204022 5673696
0.04512592 -0.07798966 1.2200717 5344728
0.056255199 -0.077085346 1.219671 5475805
0.064375095 -0.07613945 1.2193794 5147095
0.074690841 -0.074849337 1.2178082 4949712
0.082747415 -0.070769116 1.2147244 4621777
0.19040859 -0.057928324 1.2148609 11781308
-0.045483753 -0.081602767 1.2193398 4883150
-0.03684371 -0.078641929 1.2190342 6001884
-0.026231816 -0.075842254 1.2186567 6133474
-0.014300192 -0.077378355 1.2198223 6067939
-0.0066100862 -0.075764716 1.2190384 6594284
0.0041869357 -0.073227741 1.2186536 6002915
0.015413214 -0.075212374 1.2171509 6857704
0.024157826 -0.072168663 1.2175088 6397928
0.03325294 -0.070448793 1.2183844 6397674
0.042266481 -0.069591381 1.218594 6002659
0.054167703 -0.067926988 1.2187008 5476060
0.063136876 -0.066758491 1.2176951 5213402
0.073788732 -0.066751823 1.2182603 5081814
0.083571106 -0.06453561 1.2153251 4818898
0.19273503 -0.052657403 1.2147892 12896707
0.046070967 -0.062729165 1.2160708 6331369
0.055320591 -0.061651666 1.2157385 5805025
0.062257804 -0.060843542 1.2154894 5213658
0.07305795 -0.058543105 1.215104 5213658
0.081343181 -0.057682171 1.2148061 5082070
-0.017152378 -0.12262843 1.2272238 4160192
-0.010342861 -0.12230767 1.2269781 4159936
-0.00057544373 -0.12305985 1.2266227 4225472
0.010385526 -0.12257048 1.2262272 4225471
-0.018615423 -0.11512078 1.2272943 4160194
-0.010977058 -0.1148216 1.2270186 4291265
-0.0016593654 -0.11373618 1.226684 4422851
0.0089114588 -0.11269073 1.2282251 4685254
0.018898966 -0.10779758 1.2259539 4882628
0.024722524 -0.10711919 1.2257447 4817092
0.041028485 -0.10521969 1.225159 4948684
0.046608411 -0.10752279 1.2249517 4816582
-0.020566152 -0.10511059 1.2273886 4291525
-0.012188425 -0.10435331 1.2273374 4422855
-0.0028027669 -0.10341528 1.2287509 4619977
0.0077677583 -0.1023296 1.229972 4883149
0.018086022 -0.10080483 1.2259998 5146063
0.027403714 -0.099719398 1.2256651 5211603
0.036721408 -0.098633975 1.2253305 5145806
0.044874385 -0.097684219 1.2250377 5014214
-0.029543104 -0.095249519 1.2277367 4555210
-0.02259809 -0.096094228 1.2274834 4686540
-0.013502331 -0.095683649 1.2288705 4883407
-0.0036813859 -0.095404938 1.230803 5014738
0.0068350472 -0.094179861 1.2304252 5541336
0.017068956 -0.091575541 1.2273092 5672923
0.026334282 -0.090414375 1.225976 5935587
0.035637476 -0.089310296 1.2253917 6132702
0.043790452 -0.088360548 1.2250988 7120103
0.052701682 -0.083778746 1.2247871 8699647
-0.030263813 -0.091081001 1.2277726 4818381
-0.023275545 -0.090266928 1.2275217 4752589
