# .PCD v0.7 - Point Cloud Data file format
VERSION 0.7
FIELDS x y z rgba
SIZE 4 4 4 4
TYPE F F F U
COUNT 1 1 1 1
WIDTH 174
HEIGHT 1
VIEWPOINT 0 0 0 1 0 0 0
POINTS 174
DATA ascii
-0.27736929 -0.1864742 0.78071761 5134174
-0.27221501 -0.1905643 0.77853876 5134176
-0.27627921 -0.18198559 0.77982527 4871515
-0.28684562 -0.198998 0.79414427 4936281
-0.27888414 -0.20538449 0.7907843 5199967
-0.27478209 -0.20727903 0.78894067 5397348
-0.29172873 -0.18965304 0.79543304 4673880
-0.28623417 -0.19327646 0.79091299 4870232
-0.27786112 -0.19686642 0.78792733 5068382
-0.26925454 -0.2002925 0.78462303 5068384
-0.26175749 -0.20184436 0.78216386 4476504
-0.28962648 -0.18090734 0.79218113 4607822
-0.2842547 -0.18373196 0.78830773 4673623
-0.27525502 -0.18868822 0.78432721 5134174
-0.26619688 -0.19191691 0.78017908 4739419
-0.25916114 -0.19507121 0.7784428 4081746
-0.28636679 -0.17301866 0.79181731 4410445
-0.28030938 -0.17549153 0.78572345 4213839
-0.27147344 -0.17902571 0.78170806 4345429
-0.2631343 -0.18331784 0.77799553 4016211
-0.25589523 -0.18671468 0.77603281 3621193
-0.27804655 -0.17073029 0.78423846 3884109
-0.26983663 -0.17347446 0.78046399 3752784
-0.2610926 -0.17758512 0.7765398 3621192
-0.25531206 -0.18141803 0.77403545 3686459
-0.29326436 -0.20617402 0.80947495 4673626
-0.2879658 -0.21037243 0.80406749 4870741
-0.2805585 -0.21498829 0.80104023 5265754
-0.27174389 -0.21822555 0.79730934 5397604
-0.26239237 -0.21881306 0.79610616 4608350
-0.29291639 -0.19779056 0.80424929 4673629
-0.28731889 -0.20261261 0.79949778 4870744
-0.28086346 -0.20735878 0.79636693 5134174
-0.26955855 -0.21027096 0.79182702 5397606
-0.26051942 -0.21246716 0.79225028 4476760
-0.25300255 -0.21102668 0.79090875 4015442
-0.29413199 -0.18717253 0.80900294 3883351
-0.29346949 -0.18888853 0.80302042 4475995
-0.26696736 -0.20468652 0.7893886 5068641
-0.25733906 -0.20517007 0.78703052 4082513
-0.25001839 -0.20611334 0.78850293 3752531
-0.29179445 -0.17932652 0.80009645 4079443
-0.25297853 -0.1976172 0.78368342 3621705
-0.24858595 -0.20132665 0.78530133 3751503
-0.25254065 -0.1901401 0.78119504 3490378
-0.28441951 -0.22660276 0.81971961 5002588
-0.28173637 -0.22786412 0.81851542 5528419
-0.29023063 -0.21360283 0.8215 4739163
-0.2863715 -0.21930708 0.81679839 5002333
-0.27853101 -0.22333562 0.81324536 5397092
-0.2695522 -0.22500992 0.81052381 5332066
-0.26339966 -0.22621638 0.80945861 4740695
-0.29241961 -0.20977351 0.81640261 4082256
-0.28772959 -0.21369749 0.81248504 5068120
-0.26747108 -0.22209871 0.80553293 5200736
-0.25855359 -0.22210185 0.8035754 4345175
-0.25097272 -0.22296408 0.80251139 4278096
-0.25463787 -0.21470492 0.79741704 4147028
-0.24896908 -0.21673958 0.79937607 3819087
-0.24830613 -0.21003923 0.7943418 3687502
-0.27748257 -0.23956785 0.82965416 5528423
-0.27369422 -0.24077272 0.82790762 5397348
-0.28589219 -0.22867946 0.82692242 4804702
-0.27825913 -0.23264791 0.82288098 5462626
-0.26903674 -0.2355824 0.82150573 5003105
-0.26068544 -0.23544954 0.81847137 4804440
-0.28971103 -0.21574719 0.82922536 3817824
-0.28767422 -0.2218179 0.82426316 4673622
-0.27422276 -0.22814158 0.81822634 5660265
-0.26751935 -0.229629 0.8150838 5069150
-0.25815156 -0.2304683 0.81282246 4475986
-0.25218746 -0.22868407 0.80977613 4014924
-0.2545912 -0.22593111 0.80849391 4606547
-0.2487698 -0.22592665 0.80621797 3620428
-0.28214616 -0.24273643 0.8399846 4079956
-0.27792805 -0.24640776 0.83567894 5266270
-0.27187246 -0.24814582 0.83542061 5002845
-0.28341857 -0.23609382 0.83783835 4079963
-0.27875513 -0.24161884 0.83378398 5330781
-0.26848486 -0.24361339 0.83078301 5002331
-0.26448584 -0.23954782 0.82667255 5001816
-0.25953054 -0.23849456 0.82551408 4540755
-0.25406983 -0.23404813 0.82116008 4213074
-0.27534026 -0.25400305 0.85096115 5265766
-0.2762118 -0.24959694 0.8478443 5068639
-0.2685791 -0.25154561 0.84375566 4214103
-0.28326508 -0.24099457 0.84484905 1580089
-0.26461035 -0.24762154 0.8370477 4145996
-0.26071829 -0.24345094 0.83407402 4212054
-0.27976125 -0.25221792 0.85631394 3618132
-0.27551594 -0.2553882 0.85450333 5199718
-0.26963332 -0.25697917 0.85176867 4214875
-0.28349349 -0.310083 0.88063508 528927
-0.27941737 -0.31271371 0.87886339 1517876
-0.2781502 -0.32056934 0.89226061 4419983
-0.28947863 -0.30849898 0.89457089 1651559
-0.28603196 -0.31016943 0.88952363 1782104
-0.27761939 -0.31739622 0.88366234 4154236
-0.27051574 -0.31603202 0.88435632 3028033
-0.27903751 -0.3045128 0.89139831 2369321
-0.27408522 -0.30794838 0.88525081 2040105
-0.27444911 -0.28725487 0.88331395 4146252
-0.28646979 -0.31240731 0.90457201 5077683
-0.28217828 -0.31755561 0.90141171 4617364
-0.27439776 -0.32161707 0.89795244 4549258
-0.26936048 -0.31895876 0.89231318 6582660
-0.28533992 -0.30178982 0.8987062 7695014
-0.27737531 -0.30134985 0.89553797 2040625
-0.27047175 -0.30346823 0.8916055 2172202
-0.26641446 -0.31068689 0.89021271 2760198
-0.28217834 -0.32477316 0.9124006 4683677
-0.27739906 -0.32701996 0.91025573 3831442
-0.28682476 -0.31553525 0.91264302 3299734
-0.28224674 -0.32043809 0.90924621 4683420
-0.27481002 -0.32420835 0.90698504 3960460
-0.30605194 -0.38784343 0.94359845 3829135
-0.29907835 -0.3906064 0.94042724 4223637
-0.29400468 -0.39347178 0.93818897 3960467
-0.3036755 -0.37892944 0.94172347 3498881
-0.29663575 -0.38186026 0.93808758 3895695
-0.28944281 -0.38370687 0.9351818 3631246
-0.30124003 -0.36894116 0.93638796 3499128
-0.29542562 -0.37253246 0.93384773 4025235
-0.28692195 -0.37499368 0.93197834 3499655
-0.29854274 -0.36073136 0.9321835 3826560
-0.29268879 -0.36339304 0.93010658 4156303
-0.28509712 -0.36685628 0.92947865 3630985
-0.29392651 -0.35189176 0.93256956 3893387
-0.28897104 -0.35431683 0.92861879 4157333
-0.28174496 -0.35660416 0.92757839 3762828
-0.28886339 -0.34464899 0.93175179 3762325
-0.28484794 -0.34480774 0.92572188 4420507
-0.27867192 -0.34724304 0.92551416 3828877
-0.28531733 -0.33152518 0.92896825 4222878
-0.28152654 -0.3363086 0.92334604 4552347
-0.27519006 -0.33891863 0.92374337 3631755
-0.28664637 -0.32398996 0.92276347 3627913
-0.2808587 -0.32911772 0.91805553 4683676
-0.27315098 -0.33054844 0.91769731 3892613
-0.27120799 -0.32393065 0.91256899 3563127
-0.30824214 -0.39583346 0.9513616 3033484
-0.3005349 -0.39985293 0.95060515 2897991
-0.29204053 -0.40312356 0.94618815 3891064
-0.28473845 -0.40528736 0.94466722 2638186
-0.30927652 -0.3860189 0.94948101 666715
-0.30086917 -0.39237392 0.94590157 4813457
-0.28851634 -0.3950277 0.94010365 3499654
-0.28085536 -0.39748242 0.94068116 3561592
-0.30611172 -0.37531692 0.94707823 6722
-0.28551406 -0.38623676 0.93793392 3694979
-0.27905086 -0.38845074 0.93719697 3233144
-0.28079671 -0.37732461 0.93491983 3104639
-0.27547845 -0.37893066 0.93600887 2640231
-0.27820933 -0.36815313 0.93292141 2907007
-0.27261174 -0.3696571 0.93538684 3099492
-0.29301724 -0.34808332 0.93851048 4089741
-0.27526012 -0.3591885 0.93116176 3496061
-0.26925269 -0.35952735 0.93344247 4278874
-0.28843749 -0.34157977 0.93575746 2972810
-0.27199787 -0.34937268 0.9299053 3757171
-0.26757437 -0.35162416 0.93198866 3748927
-0.28558171 -0.33673906 0.93397743 3630740
-0.26969358 -0.34297162 0.92674738 3953004
-0.30084807 -0.40494725 0.95694017 984897
-0.29079163 -0.4055222 0.95209223 4350584
-0.27403283 -0.38754085 0.94323021 4674411
-0.27028662 -0.37954253 0.9433642 6974583
-0.26813701 -0.36868933 0.94144332 3815753
-0.29258767 -0.34653983 0.94821244 5799072
-0.2656225 -0.36046228 0.93621123 5064001
-0.27050608 -0.39217117 0.95563942 7039097
-0.26841202 -0.38669086 0.9552936 7565430
-0.26631027 -0.3784996 0.95323884 8223350
-0.26588604 -0.37115192 0.94723666 9076613
