# .PCD v0.7 - Point Cloud Data file format
VERSION 0.7
FIELDS x y z rgba
SIZE 4 4 4 4
TYPE F F F U
COUNT 1 1 1 1
WIDTH 1130
HEIGHT 1
VIEWPOINT 0 0 0 1 0 0 0
POINTS 1130
DATA ascii
0.16104718 -0.12568519 1.0915704 4354994
0.16868338 -0.12343593 1.0887753 13752800
-0.13015459 -0.12756057 1.1074724 2973083
0.16066389 -0.11591132 1.0923696 2121388
-0.13574611 -0.11427517 1.1031145 3301280
-0.13199627 -0.11903913 1.1066394 3039132
0.16096051 -0.10785556 1.0901065 2646946
0.17703281 -0.10193713 1.0911014 13817039
-0.13600296 -0.10798366 1.1030444 3366820
-0.13320601 -0.10828226 1.1079216 3105183
0.15900344 -0.095637634 1.0935774 3631271
0.17799726 -0.099791929 1.0910275 13817037
-0.13645957 -0.096798755 1.1029198 3499424
-0.13355103 -0.097659282 1.1065977 3302563
0.1582154 -0.085418433 1.0927215 3369127
-0.13391635 -0.088168219 1.1061906 3434147
0.15978198 -0.075752698 1.0934899 2908578
0.1653277 -0.072919995 1.091278 8233160
-0.13912144 -0.077245355 1.1036489 3365295
-0.13361952 -0.078202941 1.1063927 3499689
0.1601692 -0.066154689 1.0930836 4024485
0.1649843 -0.064508468 1.0911843 11192030
-0.13785109 -0.068284459 1.1056168 2181536
-0.13258249 -0.067916796 1.1065633 3433908
0.1592883 -0.060724698 1.0954103 2708114
-0.1363827 -0.0599536 1.1094432 8233201
-0.13259892 -0.060940001 1.1075599 3564980
0.0024475055 0.11761067 1.0965232 9935247
0.0081124483 0.11874161 1.0962393 9934992
-0.11327028 -0.17653826 1.1185722 929696
-0.1089704 -0.17669296 1.1206806 1984411
0.15274154 -0.16187865 1.1080568 13424882
-0.11477964 -0.16705443 1.1162249 2512540
-0.10993356 -0.16872284 1.1192871 2906513
0.15370518 -0.15593946 1.105486 8955594
0.15912589 -0.15441619 1.1016488 14080986
-0.12246537 -0.15326329 1.1170104 2381461
-0.11905454 -0.15828957 1.1188539 2776212
0.15347409 -0.14635415 1.1041347 3697834
-0.12311348 -0.14735439 1.1177982 2841752
-0.12066038 -0.15154478 1.1209069 2906774
0.15494294 -0.13636528 1.1044149 2646183
-0.12538108 -0.13686472 1.1187938 2907034
-0.12109545 -0.14088765 1.1207883 2775704
0.1552148 -0.12760079 1.1053888 3696546
0.15705343 -0.12299325 1.1046739 3761571
-0.12685049 -0.12748076 1.1173266 2973083
0.15844843 -0.11683959 1.1038597 3368880
-0.12838478 -0.11733258 1.1167217 3039134
0.15825203 -0.10523476 1.1033229 3500454
-0.12900205 -0.10690305 1.1163143 3171232
0.15688644 -0.09683343 1.1042922 3631529
-0.12994917 -0.098173305 1.1155443 3302564
0.15475605 -0.086565778 1.0999682 3697839
0.15532494 -0.086761035 1.1029474 3763633
-0.13043451 -0.087621175 1.1162304 3368355
0.15541717 -0.075496554 1.1025096 3436468
0.16956885 -0.071295999 1.1020687 10992842
-0.1285248 -0.077118896 1.1160024 3697068
0.15295361 -0.06259577 1.1067488 3765679
0.15602182 -0.065027639 1.1018109 3830452
0.16904187 -0.067062609 1.1020384 11387079
-0.12785015 -0.069334604 1.1136659 3631022
-0.12583287 -0.066046968 1.1130265 3500456
0.15189952 -0.055748641 1.1038171 3830449
0.15850553 -0.056003839 1.1010242 5207985
0.16524686 -0.056699205 1.104753 10334913
-0.12847956 -0.057304051 1.1156125 3434161
0.15066473 -0.04686325 1.1035053 3893939
0.15772727 -0.047071856 1.10237 8428221
-0.12897453 -0.047246616 1.1190803 6194370
-0.12447886 -0.044952039 1.1196949 4421311
0.14814387 -0.035107203 1.1055257 5734064
0.15463613 -0.038509995 1.1063541 10203587
-0.12342007 -0.038237721 1.1195569 6852289
0.14632003 -0.0292781 1.1034245 8955077
0.011095635 0.095011003 1.1114261 9737616
-0.0807596 -0.21188185 1.1281441 7635861
-0.077234857 -0.21220317 1.1306509 8100012
-0.091276646 -0.20234874 1.131189 10535920
-0.08426518 -0.20477119 1.1285318 5996227
-0.077381313 -0.20861591 1.1306109 6394567
-0.10209618 -0.19183031 1.1235555 8431615
-0.094879285 -0.19395448 1.1260133 1526185
-0.088416569 -0.19604337 1.1298264 1262491
0.13483082 -0.1842559 1.1202134 11717846
-0.11098459 -0.18362585 1.1238705 7571711
-0.10384782 -0.18559176 1.1251147 1917611
-0.096601203 -0.18778065 1.1285815 2379673
-0.089609869 -0.19042414 1.1309539 2644619
0.13613741 -0.17732489 1.1200608 5010097
0.14315787 -0.17410995 1.1165386 10599906
0.15015718 -0.17262611 1.1153287 14081762
-0.10414727 -0.17673692 1.1276714 2709143
0.13674593 -0.16669197 1.1198928 2909858
0.14318313 -0.16599971 1.1157553 4026283
0.15059936 -0.16593441 1.1117159 12307424
-0.11181346 -0.16332304 1.1236445 2775446
-0.10712916 -0.16731882 1.1263869 2775442
0.14410563 -0.15699901 1.116413 3105445
0.14877 -0.15603504 1.1111727 2578854
-0.11403364 -0.15618363 1.125813 2775449
-0.1095129 -0.15835883 1.1301451 2906778
0.14609803 -0.14709511 1.1175905 3564451
0.14921534 -0.14603546 1.1134238 3433893
-0.11817922 -0.14765322 1.12704 2840984
0.14733395 -0.13883755 1.1190258 3565217
0.15076928 -0.13664016 1.1134942 3499430
-0.12362199 -0.13597037 1.1238477 2841497
-0.12028727 -0.13754857 1.1297174 2907290
0.15271857 -0.12590496 1.1155974 3237547
-0.12411128 -0.12650859 1.1253493 2973083
-0.12115508 -0.1268231 1.1296183 3038877
0.15546624 -0.11608765 1.1165218 3827369
0.15778658 -0.1149994 1.110208 3564710
-0.12551421 -0.1165745 1.1265447 3039391
-0.12262022 -0.11833116 1.1302444 3170977
0.15531443 -0.10599965 1.1162151 3565735
0.15743758 -0.10645086 1.1101129 3500198
-0.12587269 -0.10836677 1.1285999 3170977
0.15518203 -0.096986927 1.1154361 3631790
0.15645869 -0.098585755 1.1180663 3434923
-0.12650529 -0.097841926 1.1274911 3302823
0.15438725 -0.085555814 1.1154913 3566513
-0.12694556 -0.087865233 1.1260467 3368614
0.15310833 -0.076343417 1.1154702 3632560
-0.12669384 -0.080128163 1.1272684 3565995
0.15143712 -0.066248722 1.1141442 3895728
-0.12430198 -0.06495364 1.1285585 3697842
0.14862731 -0.056413103 1.1126807 4158132
-0.12304051 -0.056606129 1.1271516 3502262
0.14712025 -0.045783881 1.1138147 4027837
-0.12081584 -0.04700119 1.1263337 3698611
0.14199723 -0.034491416 1.1179153 4619197
0.14765564 -0.037427273 1.1121397 4946612
-0.12750454 -0.040867858 1.1227889 7180220
-0.11971217 -0.037473131 1.1295831 4815032
0.14161631 -0.028027438 1.1171813 5209534
0.14591262 -0.026182093 1.1096109 8425655
0.012518095 0.09107209 1.1144137 9474444
-0.053011835 -0.22102162 1.1366241 8300241
-0.071699172 -0.21361387 1.1337742 7642055
-0.064092457 -0.21394148 1.135556 4815810
-0.057134435 -0.21709716 1.1367686 5210825
-0.081323862 -0.20208301 1.1337165 932767
-0.074147113 -0.20522168 1.1351029 2382238
-0.065311603 -0.20788194 1.1370366 2251168
0.11772135 -0.19725361 1.1282045 6518691
0.12343796 -0.19601233 1.1264864 11319227
-0.083234653 -0.19539255 1.1355886 2447513
-0.077608012 -0.19861576 1.1374995 2513045
0.12496106 -0.18771811 1.126682 4617903
0.13185254 -0.18748957 1.1234008 10929103
-0.093142815 -0.18476102 1.1355076 2971544
-0.087062597 -0.18827802 1.1358109 2774929
0.12662254 -0.17838319 1.1258663 2909086
0.13136983 -0.17726862 1.1232901 3105187
-0.10126999 -0.17190345 1.1342692 2709911
-0.096339419 -0.17674208 1.1364541 2644371
0.13251433 -0.16739267 1.1237228 3368356
-0.10378009 -0.1653643 1.1361233 2775444
-0.098611556 -0.16927332 1.1367785 2709910
0.13656989 -0.15734458 1.1243846 3368613
0.14057165 -0.15423363 1.1225519 3499683
-0.10735212 -0.15693516 1.1358643 2841497
0.13817531 -0.14979079 1.1266124 3237027
0.14265855 -0.14692834 1.1236923 3302821
-0.11378849 -0.14560533 1.1350921 2645144
-0.11011921 -0.14715679 1.1374809 2775964
0.14540732 -0.13686639 1.1242796 3237542
0.14930147 -0.13313659 1.1231965 3106215
-0.11591633 -0.13727592 1.1359684 2907291
0.14641149 -0.127261 1.1245918 3499683
0.1493544 -0.12517725 1.1228992 3303338
-0.11725993 -0.12738618 1.1368496 3039134
0.15063246 -0.11662503 1.122996 3499947
-0.12309477 -0.11333827 1.1345402 3236770
-0.12060651 -0.11749423 1.1378137 3236770
0.15195137 -0.10605197 1.123202 3500458
-0.12335907 -0.10686406 1.1344681 3237027
-0.1214322 -0.10710401 1.1383846 3302821
0.15390541 -0.095411249 1.1234381 3632048
-0.12375553 -0.097152747 1.13436 3302824
-0.12180796 -0.097899869 1.1382821 3302569
0.15181349 -0.086600974 1.1233183 3632047
-0.12455674 -0.08810623 1.1342797 3434408
-0.12169193 -0.085576989 1.1381154 3434665
0.14795943 -0.075705111 1.1229949 4026292
-0.12454847 -0.077730127 1.1341437 3631531
-0.12266999 -0.076784477 1.138047 3631531
0.14767553 -0.067747548 1.1215289 4157366
-0.12481277 -0.071255922 1.1340717 4025255
-0.12176898 -0.065981254 1.1361465 3632304
0.14663792 -0.055995841 1.1209795 4289211
-0.11870895 -0.05686548 1.1353099 3568048
0.14308031 -0.045355424 1.1216769 4094399
0.14564934 -0.049627651 1.1229457 4224702
-0.11773057 -0.050795469 1.1334678 3764911
-0.11435421 -0.046313576 1.1357518 3895729
0.14022246 -0.037034117 1.1224927 4487616
-0.11953866 -0.032715604 1.1363209 6458567
-0.11448708 -0.036294356 1.1355271 3895996
0.13965204 -0.026023157 1.12132 5735616
0.14635019 -0.022502348 1.1205554 9477559
-0.11916247 -0.030004427 1.1372688 6852289
-0.11591743 -0.029873684 1.137113 5933254
0.046145476 0.078298859 1.1239969 9474701
-0.015323956 -0.22982845 1.1469638 7248329
0.017486671 -0.2301082 1.1446083 5801654
0.0254227 -0.22866416 1.1436784 5210039
0.03828226 -0.22876468 1.1444039 6328255
0.04593391 -0.22845638 1.1440365 7379645
0.057467148 -0.22786993 1.143481 8430007
0.065141007 -0.22583044 1.1390851 8625323
-0.05386731 -0.22333869 1.1407 9678537
-0.042753164 -0.22281998 1.1466995 4422071
-0.033335838 -0.2231009 1.1477314 2778029
-0.023517668 -0.22452167 1.1472837 2513574
-0.01580745 -0.22692508 1.1469489 2315684
0.014100202 -0.22645077 1.1455222 2120102
0.02612422 -0.22596633 1.1449448 2185635
0.039196663 -0.2243436 1.1443027 2186146
0.044706795 -0.22521764 1.1440524 2316696
0.059920747 -0.22241253 1.1432931 4486314
0.067355588 -0.22174004 1.1409289 5997746
0.078403264 -0.21832354 1.1412176 6063288
0.087051518 -0.21649677 1.1419272 6589614
0.095149323 -0.21638972 1.1415412 8757678
-0.059782743 -0.21160427 1.1408275 1855898
-0.052818246 -0.21379822 1.1437674 2249885
-0.044864029 -0.21574461 1.1474546 2381985
-0.036628798 -0.2175341 1.147815 3039902
0.080811664 -0.21115831 1.1421539 2841504
0.086801335 -0.21036893 1.1418591 3302564
0.096193999 -0.20774812 1.1400437 4420011
0.1057364 -0.2065787 1.1351889 6984117
0.11493656 -0.20347634 1.1324229 6254993
-0.071299084 -0.20153147 1.1420437 2710418
-0.063284688 -0.20443512 1.1452863 2775447
-0.056349441 -0.20635526 1.1478045 2906776
0.098359726 -0.19975153 1.1407708 3171492
0.10666545 -0.19807333 1.137551 3237285
0.1147363 -0.19658008 1.1329144 3629215
-0.074274734 -0.19465262 1.1461 2775191
-0.065891184 -0.19778103 1.1482792 2906012
0.10831659 -0.18877751 1.1388862 3040421
0.11501797 -0.18686096 1.1351528 3105703
0.12078405 -0.18691421 1.1319287 2777257
-0.090377443 -0.18127236 1.1418841 2710677
-0.08329796 -0.18483549 1.1451281 2709909
-0.076827839 -0.18815851 1.1473378 2709910
0.1159956 -0.17839605 1.138579 3368100
0.12328048 -0.1763151 1.1338074 3302561
-0.091722734 -0.17474264 1.1449775 2710421
-0.086636491 -0.17734642 1.1488638 2644886
0.117803 -0.1705386 1.1398659 3040936
0.12560523 -0.16714622 1.1373615 3237031
0.13174136 -0.16402823 1.1341127 3368615
-0.10203084 -0.16215006 1.1421876 2776209
-0.096201234 -0.16634703 1.1467214 2841240
0.12738691 -0.15855859 1.1392541 3237287
0.13349634 -0.15614158 1.1337832 3302822
-0.10308582 -0.15548462 1.1466894 2710683
-0.098132007 -0.15854871 1.1492976 2841499
0.13553268 -0.14760745 1.1361327 3237541
0.14020379 -0.14474469 1.132057 3237798
-0.1055306 -0.14701419 1.147305 2907293
0.13697961 -0.1387475 1.1385396 3237797
0.14136343 -0.13608137 1.1332904 3303334
-0.11249343 -0.13563311 1.1434821 2907805
-0.10994466 -0.13710038 1.1494447 2907805
0.14293981 -0.12661913 1.1356505 3434407
-0.11329889 -0.12633428 1.1449244 3039392
-0.11038393 -0.12734072 1.150139 3039391
0.1444833 -0.11697842 1.135324 3500202
0.14824983 -0.11397097 1.1296706 3631274
-0.1167279 -0.1172771 1.1468378 3170979
0.14611371 -0.10661387 1.1372406 3631791
0.14920233 -0.10598452 1.1313009 3566510
-0.11749741 -0.10693716 1.1479216 3105957
0.14478163 -0.095558658 1.1359357 3632305
0.14977056 -0.096522175 1.129704 3501227
-0.11839554 -0.096965447 1.1455454 3237546
0.14391333 -0.086525388 1.134979 3698099
0.14829747 -0.086785011 1.1297134 3698094
-0.11815989 -0.087197691 1.1456449 3434923
0.14479493 -0.077202857 1.1353613 3895479
0.14683025 -0.079198278 1.1292835 3895477
-0.1181788 -0.076726303 1.1461288 3566256
0.14465556 -0.065882444 1.136555 4027579
0.14696302 -0.065250322 1.1330997 4157882
-0.11758524 -0.067794167 1.1452265 3567024
0.14220652 -0.056441765 1.1360375 4159422
0.14632376 -0.056472067 1.1314133 4289724
-0.11578043 -0.057901505 1.1428127 3567791
-0.11250889 -0.055774827 1.1479694 3764403
0.14001995 -0.046501338 1.1345193 4356797
-0.11142443 -0.046856776 1.1416986 3830196
0.13692729 -0.037046306 1.1336081 4619718
-0.11028802 -0.03587519 1.1438416 3896507
0.13238247 -0.025322206 1.1341602 4817095
0.13677198 -0.025758937 1.1307313 4948420
-0.11820401 -0.027001359 1.1451938 6916535
-0.11072235 -0.027234033 1.1445334 5210049
0.13137701 -0.018943071 1.1362382 5013440
0.13570151 -0.018377386 1.1336893 5998788
0.028030105 0.050978325 1.1360848 5859448
0.036120616 0.051361032 1.1338362 6122362
0.041806787 0.051752232 1.1365645 6319482
0.05303549 0.053516842 1.1400131 5330522
0.028357234 0.0554251 1.1344855 5792108
0.036107905 0.056577243 1.1335683 5527648
0.041628715 0.056114055 1.136516 5067354
-0.0094498023 -0.22953081 1.1496845 4354997
-0.0019678362 -0.23023534 1.1513408 4684224
0.0078289025 -0.22956237 1.1493983 4289976
0.018667635 -0.22682804 1.1483138 2054307
0.029101498 -0.22695711 1.1478199 2777510
0.034626015 -0.22783348 1.1475689 4026798
0.051065169 -0.22717112 1.1467795 5604271
0.054833788 -0.22537091 1.146577 4881326
-0.028816283 -0.21994986 1.1504791 3039902
-0.020820938 -0.22054067 1.1506077 2710943
-0.012157621 -0.22207087 1.153024 2645152
-0.0020225104 -0.22448537 1.1559407 2514339
0.007870011 -0.22398904 1.1549304 2514851
0.017593928 -0.22110683 1.1528956 2842787
0.027338743 -0.22031471 1.1502197 2908579
0.0369986 -0.2195248 1.1502401 3039651
0.047254577 -0.2198028 1.1508691 2908578
0.056539305 -0.21855895 1.1501615 2778020
0.066374063 -0.21652582 1.1473436 2646433
0.075973287 -0.21884146 1.1454877 5012145
0.08753296 -0.21965778 1.1449493 8955830
-0.042152315 -0.21205837 1.1512954 2841242
-0.032146618 -0.21370676 1.1528919 2775960
-0.023011621 -0.2145934 1.1544052 2841500
-0.013356285 -0.21633658 1.1577073 2907551
0.018248698 -0.21432552 1.1561799 3105184
0.027429901 -0.21358678 1.1557342 3170722
0.037361834 -0.21318659 1.1552572 3302053
0.047455139 -0.21222667 1.1547654 3170723
0.057901271 -0.21088365 1.1542517 3105188
0.067101672 -0.20973797 1.1520834 3170467
0.076497123 -0.20919295 1.1477395 3236258
0.086389951 -0.20537132 1.1452618 3171236
-0.05921299 -0.20139402 1.1516802 2906776
-0.052549481 -0.20335081 1.1525335 2907033
-0.043900538 -0.20394704 1.1558256 2841497
-0.03434673 -0.20759225 1.15859 2775704
0.06794548 -0.20420855 1.1536874 3105443
0.076773867 -0.20385286 1.1532633 3105443
0.087336287 -0.19972074 1.151443 3105956
0.095401861 -0.19656208 1.1474775 3105956
-0.070620321 -0.19086444 1.1520844 2644884
-0.06327679 -0.19410621 1.1547816 2775705
-0.05467809 -0.19660476 1.1570758 2841497
0.090668984 -0.1922276 1.1524514 3172006
0.098167479 -0.18955261 1.1510592 3040421
0.10380488 -0.18700168 1.148255 2974628
-0.079746194 -0.18244079 1.1524076 2645144
-0.072898962 -0.18390045 1.1551641 2710425
-0.067423217 -0.1863865 1.156451 2776216
0.10692529 -0.1782268 1.1482424 3171493
0.11165433 -0.17583907 1.1448327 3237026
-0.082983382 -0.17451878 1.1550493 2710424
-0.076348394 -0.17641844 1.158721 2710937
0.10972105 -0.17154221 1.1512761 3302823
0.11572374 -0.16724718 1.1477731 3172005
0.12134043 -0.1638872 1.1466194 3172006
-0.092227541 -0.16352944 1.1527532 2841498
-0.087504745 -0.16580674 1.1574878 2907290
0.11809844 -0.16013926 1.1507292 3303592
0.12413346 -0.15652621 1.1490604 3237544
0.12977929 -0.15202057 1.1420586 3303337
-0.094252966 -0.15512802 1.154456 2973342
-0.089245319 -0.15798105 1.1605488 3038879
0.12747315 -0.14861459 1.1494658 3237544
0.13148701 -0.14547172 1.1446953 3303336
-0.10276842 -0.1439172 1.1539987 2973342
-0.096372165 -0.14677636 1.1582378 2973600
0.1345745 -0.13620149 1.1456289 3368872
-0.10460025 -0.13610703 1.1553383 3039392
-0.098880798 -0.1366336 1.1607274 3236259
0.13557088 -0.12669452 1.1472094 3500460
0.13961899 -0.12415118 1.1412269 3434923
-0.10606617 -0.12650988 1.1558189 3170978
0.13628998 -0.11771947 1.1479757 3500719
0.14071545 -0.11507598 1.1443936 3500718
-0.11320959 -0.11565612 1.153124 3237029
-0.10906376 -0.11679371 1.1589493 3237286
0.14082286 -0.1061771 1.1470474 3697329
-0.1135679 -0.10687921 1.1530262 3237543
-0.11067586 -0.10624354 1.1603897 3172263
0.14164317 -0.097031392 1.146383 3697843
-0.11412095 -0.097223699 1.15593 3303340
-0.11185633 -0.09600354 1.1608125 3303852
0.14101076 -0.086598776 1.1466773 3764149
-0.11472453 -0.087511592 1.152828 3500716
-0.11168849 -0.085932508 1.1606729 3501229
0.14345299 -0.07607168 1.1449933 3764661
-0.11468765 -0.079451375 1.1527209 3566512
-0.11145519 -0.075847864 1.1568892 3632306
0.14005598 -0.065993473 1.1449219 3896764
-0.11124705 -0.066211492 1.1567533 3698357
0.13377739 -0.056173913 1.1472905 4291265
0.13738936 -0.057259627 1.1416026 4225217
-0.11002381 -0.057151657 1.1562127 3764408
0.13413508 -0.046556566 1.1464803 4554434
0.13643894 -0.046256129 1.1403596 4488640
-0.10747284 -0.046319596 1.1567509 3895997
-0.10333848 -0.042915151 1.159714 4027323
0.13325632 -0.035797168 1.1453801 4817354
-0.10648604 -0.036777344 1.1531085 3962044
-0.10228822 -0.035336673 1.158764 4093118
0.12358657 -0.023813382 1.1486864 5014224
0.12889159 -0.026378512 1.1444632 4751563
-0.10587811 -0.026348382 1.1516082 4290235
-0.10079609 -0.025964804 1.1559007 4158908
-0.094556138 -0.023381233 1.1590414 4028609
0.12155449 -0.016871363 1.1469122 4817874
0.12796623 -0.016386107 1.1413728 5145287
-0.098788992 -0.019254737 1.1535817 4487616
-0.093325324 -0.016321875 1.1575558 4356800
0.11219665 -0.0047265962 1.1469754 5276623
0.11847249 -0.0075293481 1.1429952 5604813
0.12784156 -0.0083856881 1.1411629 6720449
-0.091448918 -0.0092398375 1.158709 5671109
0.11018174 0.00077776611 1.1484295 5802961
0.11637393 0.00021209568 1.1440426 6787017
0.033633985 0.013504483 1.1524708 12972031
-0.022010334 0.021161012 1.1530112 5869264
0.010571752 0.018845707 1.1534964 7515376
0.018066391 0.018778801 1.1531413 8764660
0.027673043 0.018723264 1.1526858 10146554
0.034336422 0.017958947 1.1523793 10870005
-0.080249161 0.027065963 1.1496928 8028800
-0.075149685 0.027637728 1.149443 7305855
-0.017580237 0.022506468 1.1547856 5671370
-0.014269594 0.022639856 1.1546266 5869265
0.00890492 0.02357357 1.1535138 6988787
0.013319112 0.023751415 1.1533017 7185904
0.099035077 0.036057301 1.1490698 6314850
-0.074136011 0.032684751 1.1493289 8028802
0.095800824 0.039467923 1.1491789 6117979
0.071079768 0.048914231 1.1422198 5593178
0.073271662 0.049002536 1.1421145 5658970
-0.0075810552 -0.21902725 1.1614732 2973083
-0.0019990467 -0.21991271 1.1612196 2973595
0.0074256044 -0.21909492 1.1614287 2973598
-0.027965926 -0.20874502 1.1623069 2842012
-0.021542083 -0.20987415 1.1620165 2776219
-0.012045596 -0.21195689 1.1631184 2907806
-0.0023355149 -0.2129278 1.1643059 2907807
0.0082325879 -0.21304104 1.1639811 2973599
0.016873911 -0.21038151 1.160866 3039136
0.027587911 -0.2089515 1.161006 3170723
0.037510604 -0.20843969 1.1598605 3236770
0.047240131 -0.20759401 1.1587199 3170979
0.056260593 -0.20701705 1.1582839 3170980
0.062836811 -0.20508654 1.1579463 3171236
-0.039401472 -0.20032291 1.1627399 2842012
-0.032544028 -0.20229773 1.1638963 2842011
-0.022808611 -0.20415489 1.1644664 2842012
-0.014404595 -0.20524973 1.1656219 2907805
0.032042783 -0.20477104 1.1634096 3302309
0.037941858 -0.20338853 1.1619672 3302308
0.046509292 -0.20293725 1.1601956 3171236
0.057209551 -0.20309256 1.1581875 3171236
0.067837961 -0.20127124 1.1593276 3105443
0.077531412 -0.19896385 1.1581696 3171492
0.083943881 -0.19683376 1.156836 3040420
-0.060893685 -0.19008529 1.1636269 2841497
-0.05199714 -0.19247219 1.1637695 2907291
-0.043403011 -0.19476365 1.1647419 2907549
-0.036592286 -0.19565192 1.1665503 2907551
0.080479376 -0.19167784 1.1609379 3040420
0.087317497 -0.18958057 1.1586888 3106213
0.094917439 -0.18669453 1.1561823 3106214
-0.06256403 -0.18363865 1.1656243 2907290
-0.055801176 -0.18623102 1.1668388 2973340
0.091227606 -0.18233146 1.1603053 3302823
0.097050369 -0.17973687 1.1575919 3237030
0.10304791 -0.17608389 1.1574373 3237031
-0.080533244 -0.17089018 1.1643087 2841497
-0.07198514 -0.1740222 1.1644776 2842012
-0.065668851 -0.17597809 1.1666728 2907547
0.10786925 -0.16820882 1.1562496 3368361
0.11276729 -0.16476756 1.1550479 3237285
-0.082251072 -0.16503751 1.1643138 2973085
-0.075344443 -0.16495372 1.1667248 3039135
0.10984051 -0.16099925 1.1551375 3368615
0.11625107 -0.15739998 1.1555142 3237799
0.12064248 -0.1539019 1.1545317 3303337
-0.090161406 -0.15240207 1.1645243 2973857
-0.084525168 -0.15569034 1.1658571 3039137
-0.078451611 -0.15629995 1.1680239 3104930
0.11799075 -0.14980999 1.1566066 3172264
0.12402043 -0.14668918 1.1549445 3238059
-0.091637619 -0.14424187 1.165489 3039650
-0.08737532 -0.14763473 1.1683345 3105700
0.12692605 -0.13680452 1.1561662 3369132
0.13103715 -0.13682778 1.1538149 3434410
-0.09470395 -0.13578784 1.1662393 3171236
0.12853244 -0.12859976 1.1570301 3500719
0.13174725 -0.12617774 1.1556443 3435183
-0.10241156 -0.1240264 1.1647352 3302823
-0.097562127 -0.12578239 1.1671977 3171495
0.13208726 -0.11606095 1.1553138 3566514
-0.10443819 -0.11544996 1.1661756 3368873
-0.10063521 -0.11645471 1.1677557 3368875
0.13437438 -0.10678004 1.1540645 3697588
-0.10565283 -0.10641225 1.1673287 3303850
0.13567214 -0.097091459 1.156508 3763892
0.13870063 -0.096324153 1.1529214 3698099
-0.1074608 -0.096283592 1.1662142 3435181
-0.10148285 -0.096505754 1.1683362 3435438
0.13630378 -0.086925246 1.1569172 3829942
0.13898708 -0.086299732 1.153921 3764149
-0.10680232 -0.086571902 1.1664565 3501229
0.13575885 -0.073577195 1.1567686 3896505
0.14016032 -0.076308936 1.1544107 3830455
-0.10662933 -0.076701507 1.1658572 3632563
-0.10243648 -0.073146656 1.168076 3567542
0.13299018 -0.066553399 1.1542337 4027837
0.13828796 -0.069914326 1.1525958 3896505
-0.10629182 -0.066623941 1.165504 3829940
-0.10270895 -0.066472635 1.1680018 3699127
0.1311581 -0.056992471 1.1554353 4291009
-0.10631299 -0.056481894 1.1648384 3895737
-0.10252162 -0.055482578 1.1678492 4027576
0.13101259 -0.046959192 1.1546437 4422849
-0.1054437 -0.049754769 1.1639082 4158911
-0.1010207 -0.045852266 1.1656495 4093372
0.13053533 -0.037232172 1.1540385 4817355
-0.097684778 -0.036316741 1.1649044 4093630
-0.092959754 -0.032654807 1.1670966 4094397
0.12269289 -0.026784085 1.1549975 5080014
0.12722364 -0.029832147 1.1525973 4883149
-0.095953204 -0.028645761 1.1631815 4028348
-0.091489308 -0.025889806 1.1644353 4028864
0.11779497 -0.017335333 1.1546617 4949202
-0.088309661 -0.016158082 1.1644757 4029123
-0.084086619 -0.013727851 1.1664277 3963586
0.11136139 -0.0077122673 1.1557313 5146069
0.11484974 -0.012009844 1.152952 5080276
-0.087909006 -0.0083352551 1.162534 5342665
-0.080698341 -0.0058493018 1.1661638 4882633
-0.017516341 0.00046736002 1.1630805 6070261
-0.010849424 0.00073596835 1.1627603 6528744
-0.0041825082 0.0010045841 1.1624401 8827627
0.011373623 0.0016313419 1.1616931 10340848
0.020130057 0.0013474748 1.1612809 8895736
0.027650941 0.00095016509 1.1609288 6266608
0.10181847 0.0047071651 1.156356 5475287
0.10635618 0.0013508424 1.1545156 5475028
-0.077571042 0.00024995953 1.1639332 5999306
-0.07096839 0.0016263425 1.1636015 5540557
-0.062584251 0.0052941367 1.162488 5803727
-0.049835943 0.0075833499 1.1645224 4950220
-0.040844746 0.0068202093 1.1641053 5016280
-0.031131953 0.0065955073 1.1632465 5411294
-0.021190099 0.0069619864 1.1609273 5806569
-0.011143327 0.0073978677 1.1620864 7120874
-0.00157509 0.0085374191 1.1622177 12379901
0.0089007532 0.0084066615 1.1591926 13891069
0.018675348 0.0085541382 1.158052 12969723
0.028643606 0.0092028454 1.1584553 9946095
0.038724706 0.0093817487 1.1583774 10013177
0.048354413 0.011649057 1.1576493 7449069
0.055025499 0.013788991 1.1594609 5411552
0.098683439 0.0084560961 1.1549541 6526426
-0.048062392 0.012606658 1.1643724 6264275
-0.040633637 0.013682276 1.1615026 5803990
-0.031171557 0.014677338 1.1595384 5345755
-0.021235164 0.016340427 1.1590447 5412839
-0.011663634 0.017325185 1.1590779 5676266
-0.0024939142 0.016798884 1.1610092 7253489
0.0072390568 0.016988687 1.1586851 8436213
0.017243087 0.0151475 1.1572328 12051453
0.031457618 0.020161644 1.1564921 10082302
0.039313063 0.019737899 1.1561246 10607102
0.047816142 0.019234516 1.1557273 7515119
0.054929547 0.0189218 1.1567285 6068200
-0.0096953698 0.022944987 1.1584103 6001365
-0.0052659698 0.023123443 1.1581976 6396124
0.10678404 0.033411853 1.1527413 6447199
0.0012174919 -0.20891351 1.1689327 3039391
0.0087941056 -0.20801894 1.170063 3039135
0.020171719 -0.20814982 1.1680225 3104930
-0.02822699 -0.19892004 1.1702006 2776478
-0.021731164 -0.19953242 1.1719024 2842271
-0.011676839 -0.20074373 1.1736252 2907807
-0.0023671277 -0.20222369 1.1737169 2908063
0.0077195121 -0.2026554 1.1743491 2973600
0.017958606 -0.20126486 1.1733774 3105187
0.027810045 -0.20052674 1.1719792 3236773
0.03740976 -0.19880712 1.1708195 3237029
0.04834307 -0.19845156 1.1703624 3171237
0.057905987 -0.19904235 1.167613 3171236
0.067317411 -0.19710881 1.1665632 3105444
0.076044038 -0.1952779 1.1652006 3171493
-0.040607788 -0.19050607 1.1738825 2841758
-0.032391381 -0.19247529 1.1743189 2907551
-0.023318943 -0.19318578 1.1767243 2842271
-0.012549074 -0.19392836 1.1774004 2908064
-0.0057678428 -0.19478077 1.1770895 2973857
0.015560774 -0.19392142 1.1760652 3105444
0.028367054 -0.19240491 1.1754372 3237030
0.038377143 -0.19242662 1.1741611 3302823
0.047982737 -0.19125897 1.1735663 3171495
0.057247203 -0.18948045 1.1726342 3105703
0.066939339 -0.18935113 1.1719633 3105703
0.076617256 -0.18848374 1.16959 3105702
0.084701166 -0.18568274 1.1663803 3105958
-0.052253194 -0.18328854 1.1727864 2973598
-0.04399636 -0.18462963 1.17677 2907551
-0.033952605 -0.1860673 1.1783142 2908065
0.078217283 -0.17996776 1.1729069 3237288
0.086875789 -0.17893189 1.1700348 3302823
0.095298409 -0.17658138 1.1666162 3237287
-0.062042102 -0.17239232 1.1743205 3105183
-0.054300949 -0.17542095 1.1772568 2974112
-0.045837313 -0.17725989 1.1787635 2842786
0.088205367 -0.17208439 1.1723295 3171750
0.096608229 -0.1681478 1.1705439 3172008
0.10438207 -0.16612601 1.1658098 3303081
-0.070650518 -0.16307342 1.1724143 3104930
-0.064056426 -0.16506389 1.1781344 3170978
0.098815061 -0.15969336 1.1716636 3303337
0.10640962 -0.15789144 1.1690266 3368873
0.1131329 -0.15634871 1.1654786 3237543
-0.080892287 -0.15066594 1.1747409 3040164
-0.07397557 -0.15413457 1.1755819 3105701
-0.067228064 -0.15823606 1.1795307 3302822
0.1077184 -0.14878611 1.1710981 3303597
0.11480155 -0.14612001 1.1663579 3238059
0.12165917 -0.14280128 1.1643505 3303852
-0.083534986 -0.14442047 1.1758974 3106213
-0.075500891 -0.14609392 1.179765 3172007
0.1155275 -0.13696776 1.1703725 3369387
0.12326076 -0.13645893 1.166194 3435181
-0.091208264 -0.13451132 1.1736848 3237030
-0.084414616 -0.13486362 1.1777053 3237800
-0.077797987 -0.13802584 1.1797686 3303594
0.11710574 -0.13084847 1.1704178 3500972
0.12517035 -0.126278 1.1667211 3500976
0.12950131 -0.12325034 1.16172 3500977
-0.092638768 -0.12528464 1.1754121 3237545
-0.087726533 -0.12670879 1.1792022 3303852
0.12672085 -0.11665365 1.1697756 3566772
0.12986061 -0.11690276 1.1656247 3566515
-0.095535718 -0.11568268 1.1755632 3369389
0.12718725 -0.10709401 1.1696284 3763639
0.13027436 -0.1060877 1.1645738 3763639
-0.10296272 -0.10215525 1.1738201 3435181
-0.097296625 -0.10558125 1.1768378 3435438
0.1273765 -0.095991142 1.1694744 3895737
0.13210116 -0.095738329 1.1640638 3764149
-0.10267696 -0.095650293 1.1747894 3435438
-0.097097352 -0.096012168 1.1785957 3501231
0.12714711 -0.090372361 1.1694118 3961530
0.13210779 -0.086246587 1.1639395 3961528
0.13901049 -0.082619935 1.1607373 3895735
-0.10274498 -0.086387701 1.1752723 3501489
-0.098357633 -0.085956544 1.1779442 3501490
0.12641308 -0.072392255 1.1692115 4159679
0.13207963 -0.076896593 1.1642683 3962041
0.13891935 -0.080387652 1.1607124 3895735
-0.10355999 -0.079084754 1.1742144 3501747
-0.098764308 -0.075669266 1.1766118 3567541
0.12540473 -0.066054463 1.1691766 4225473
0.12892187 -0.066459931 1.16501 4159424
-0.097458333 -0.065468982 1.1753485 3764919
0.12479336 -0.057199322 1.1690899 4422597
0.12851037 -0.05638038 1.1648977 4357059
-0.097373396 -0.055687554 1.1750449 3896505
-0.092418499 -0.055320155 1.1793818 3962298
0.12423534 -0.046591096 1.1689777 4685767
0.12809888 -0.046300832 1.1647855 4422851
-0.096373998 -0.046534769 1.1730471 4027836
-0.091189787 -0.044500966 1.1780897 4028094
0.12183144 -0.036109831 1.1668346 4948684
0.12756467 -0.037830833 1.1616966 4751818
-0.09508726 -0.038388781 1.1712775 4093632
-0.089389846 -0.034641661 1.1768112 4094399
0.11477268 -0.025961056 1.1691575 5080784
0.11889293 -0.026916519 1.1641684 5211343
-0.086562365 -0.026095293 1.1750808 4094402
-0.080046587 -0.022737212 1.1773671 4226244
-0.073588766 -0.020793349 1.1780361 4620744
-0.019751821 -0.017498635 1.175436 5412064
0.0026993565 -0.01659406 1.1743579 6463211
0.010911889 -0.020103499 1.1740137 6397929
0.020554356 -0.019073769 1.1735423 6397929
0.029693197 -0.016792886 1.1730784 6003432
0.11127739 -0.016843714 1.1667012 5081042
0.116344 -0.019808315 1.1609926 5081041
-0.079251431 -0.014944509 1.1720878 4160963
-0.070978269 -0.013615422 1.1769601 4752075
-0.056040719 -0.0099558905 1.177061 4949201
-0.049282424 -0.010246404 1.1767439 5016022
-0.039705716 -0.010988511 1.1756312 5213659
-0.029884122 -0.011503905 1.1746067 5411552
-0.020004958 -0.011883624 1.1745737 5740773
-0.0098781791 -0.011472799 1.1748884 6003172
0.00020461343 -0.011067979 1.1740037 6331366
0.010158735 -0.010670349 1.1709225 6989552
0.020260189 -0.010263093 1.1708379 6792432
0.030295763 -0.0098584592 1.1697052 5937640
0.038836658 -0.0085736886 1.1715355 5806054
0.049525678 -0.0068281963 1.1720062 5674725
0.056215152 -0.0054330602 1.1716703 5674983
0.10206265 -0.0061184615 1.1695017 5146841
0.10788209 -0.0080112964 1.1635288 5080789
-0.076293945 -0.0063281506 1.1699657 4554184
-0.072745189 -0.0053246841 1.1727878 4751049
-0.057390578 -0.0044045448 1.1750501 4818129
-0.050000347 -0.0041134134 1.1738943 5015507
-0.040640313 -0.0037604719 1.1700411 5147609
-0.030613963 -0.0033665225 1.1682581 5346018
-0.020852543 -0.0033266991 1.1704082 5937898
-0.010382716 -0.0036493987 1.1701376 6462952
-1.9354746e-005 -0.0024934635 1.1687404 8303605
0.0092924451 -0.0022327006 1.1672776 8501495
0.019132024 -0.0028240606 1.1660038 7252467
0.030436683 -0.0018160865 1.166294 6069484
0.039563764 -0.0003503114 1.1667036 6135528
0.04981884 -0.00028664619 1.1693153 5741031
0.059257481 0.00030735135 1.1704495 5543655
0.068712726 0.0019972697 1.1709796 5477092
0.078704089 0.0037274659 1.1704824 5739747
0.090064585 0.003935039 1.1699401 5280481
0.099199004 0.0016346723 1.1658396 5015513
0.10464829 -0.0001450479 1.1632935 4949463
-0.069877625 0.00063825399 1.16957 4818122
-0.060502946 0.0020097122 1.1691068 5147606
-0.05186145 0.0031031892 1.1686821 4818639
-0.043118712 0.0017163828 1.168285 5344472
0.0014566928 0.0040713325 1.1661371 12971007
0.0059392946 0.0036929399 1.1659291 12905215
0.030468289 0.0046812221 1.1647512 5807584
0.043847747 0.0052202865 1.1641086 6004710
0.049861301 0.0064208433 1.1638074 5807083
0.058636308 0.0092759877 1.1654892 5477863
0.067261711 0.0092159957 1.1676167 5542628
0.079330109 0.006754294 1.1704131 5673698
0.089727409 0.0091167614 1.1683866 5804766
0.095135652 0.0072866902 1.1616458 5147865
0.061231356 0.017100476 1.1631278 5412324
0.0012535471 -0.19737548 1.1807947 3039650
0.0077161975 -0.19776046 1.1804928 3039650
-0.019343171 -0.19029942 1.1816804 2842271
-0.012585009 -0.19002713 1.181356 2973857
-0.0021754783 -0.19068593 1.1821347 2973857
0.0076890113 -0.19202858 1.1829485 3039395
0.018213678 -0.18967682 1.1816684 3171237
0.027410343 -0.18789491 1.1804963 3237030
0.037735812 -0.18692276 1.1804656 3302569
0.04605465 -0.18673117 1.1798626 3237546
-0.039401483 -0.18062013 1.1825066 2908065
-0.031799316 -0.18128191 1.1821542 2973857
-0.023014817 -0.18268201 1.1827564 2973857
-0.013156824 -0.18417495 1.1834267 2973858
-0.0047572404 -0.18464528 1.1849185 3105444
0.026887316 -0.18337032 1.183399 3237030
0.038504079 -0.1813913 1.1828213 3302825
0.047385193 -0.18058142 1.1820809 3171754
0.057164181 -0.18072499 1.1799239 3171752
0.067442499 -0.17989364 1.178836 3171753
0.075717099 -0.17644472 1.1779857 3237546
0.083775647 -0.17372113 1.1765661 3303592
-0.050943613 -0.17161956 1.1829371 2908579
-0.042582471 -0.17343202 1.1845661 2908579
-0.032663886 -0.17449336 1.185019 3105444
-0.023905922 -0.17589767 1.1857136 3105443
0.070594154 -0.17254353 1.1811816 3303339
0.078455932 -0.16996643 1.1794395 3303082
0.086650938 -0.16754949 1.1769209 3237545
0.092418283 -0.16433758 1.1760329 3303850
-0.060414836 -0.160707 1.1832442 3302822
-0.053532921 -0.16471344 1.1852225 3040165
-0.046182103 -0.16818264 1.1866708 3040167
0.081526272 -0.16303721 1.1805381 3303598
0.087369546 -0.1588141 1.179263 3238061
0.095741011 -0.15643451 1.1768843 3303596
0.10326759 -0.1537357 1.175379 3369131
-0.070606254 -0.15057638 1.1835959 3171751
-0.063978024 -0.15392947 1.1847384 3368615
-0.056815453 -0.15727876 1.1870333 3171751
0.10488174 -0.14707378 1.176717 3369134
-0.072865091 -0.14360851 1.1836121 3369130
-0.066535853 -0.14528163 1.186337 3434922
0.10568463 -0.13735139 1.1781013 3435183
-0.074874505 -0.13506956 1.1849308 3434923
0.10814935 -0.13015005 1.1780427 3501232
0.11473991 -0.12675649 1.1770728 3435694
0.1212649 -0.12477514 1.1741457 3501232
-0.083551452 -0.12427069 1.1848681 3369646
-0.077611893 -0.12776974 1.1863004 3435182
0.11815047 -0.11736567 1.1782016 3567282
0.12212259 -0.11669492 1.1758196 3567027
-0.092491895 -0.11192856 1.1841301 3501231
-0.087625079 -0.11563548 1.1867007 3435439
0.11782716 -0.10944609 1.1781133 3829686
0.12272265 -0.10645375 1.1760617 3829431
-0.092629991 -0.10854587 1.1840925 3501231
-0.088305026 -0.1051103 1.1855108 3567024
0.12466411 -0.096983343 1.1762908 3830201
-0.093205407 -0.094451346 1.1839355 3632818
-0.089857936 -0.095015198 1.1857864 3698612
0.12631321 -0.086305588 1.1754054 3896507
-0.093596682 -0.08486706 1.1838288 3633333
-0.089618459 -0.084871523 1.1864433 3764919
0.12570894 -0.076119289 1.1748003 4093886
-0.094406284 -0.076090232 1.1837525 3633334
-0.090262562 -0.074953385 1.1867447 3830201
0.12235273 -0.066614375 1.1755586 4291523
-0.09033297 -0.064663403 1.1850784 3896506
0.12140686 -0.056166902 1.1748439 4619975
-0.087446503 -0.054988328 1.1848625 4028348
0.11519443 -0.044958092 1.1773953 5146320
0.11965749 -0.047012035 1.1762091 4883148
-0.086183839 -0.045531087 1.1832486 3962814
-0.081146359 -0.0439394 1.1855631 3963072
0.11377303 -0.036198083 1.1758466 5146577
0.11750029 -0.037693806 1.1736866 5080527
-0.085195154 -0.036415391 1.1827964 4028607
-0.078998514 -0.03439384 1.1846116 4291526
-0.029167615 -0.03037636 1.1840612 5147865
-0.021717776 -0.029849559 1.1837006 5344731
-0.0054803882 -0.028288759 1.1829089 5345501
0.0013005883 -0.028015554 1.1825833 5739743
0.011488426 -0.029853359 1.1807885 5936862
0.020542076 -0.029493131 1.1806875 5871068
0.030731007 -0.02796302 1.1811848 5739228
0.048767425 -0.026103102 1.1803038 5213656
0.11153324 -0.027400829 1.1757379 4949970
-0.077629477 -0.02690582 1.1823127 4422856
-0.069321513 -0.02178476 1.1836716 4686797
-0.059009083 -0.020238183 1.1833436 4884690
-0.048503205 -0.021237589 1.1843596 4950486
-0.038076691 -0.021586426 1.1830345 5213659
-0.029564522 -0.022436701 1.1807724 5279707
-0.01935811 -0.023159213 1.1806976 5345244
-0.0092835445 -0.021120764 1.1801034 5411808
0.00059249438 -0.021839745 1.1794416 5806052
0.0099949325 -0.024598941 1.1781209 6068964
0.022024792 -0.024490722 1.1775481 6068963
0.031988882 -0.021696456 1.1779625 6003173
0.040400654 -0.019627981 1.1784139 5608417
0.050610006 -0.019219249 1.1785244 5411038
0.057531599 -0.018950604 1.1797941 5279709
0.10202092 -0.015410312 1.1767106 5212630
0.1077197 -0.018793583 1.1747384 5015248
-0.065946914 -0.015988022 1.1816151 4949712
-0.059188746 -0.015715733 1.1812906 4949713
-0.049051493 -0.0153073 1.1808038 5016279
-0.039649811 -0.015304975 1.1803572 5213659
-0.03098369 -0.015708752 1.179951 5345501
0.041643556 -0.012217879 1.1764559 5871590
0.050068252 -0.011313729 1.1760439 5871847
0.060309231 -0.0086444989 1.177525 5543139
0.067548044 -0.0072196946 1.1774486 5280225
0.092104763 -0.006225355 1.1779857 5411294
0.097891912 -0.0074351206 1.1751781 5279196
0.069434315 -0.0020628422 1.1750032 5411556
0.078939334 1.4252961e-005 1.1745245 5412066
0.09020295 0.00046806782 1.1739837 5477344
0.09705317 -0.0015147701 1.1736842 5213404
0.0087538986 -0.18733467 1.1883169 3105189
-0.011875093 -0.17968269 1.1901978 3039906
-0.0020856466 -0.18141963 1.1901847 3039908
0.0075680241 -0.18217137 1.1916431 3105447
0.018002324 -0.18100241 1.1885458 3105702
0.026981816 -0.17939898 1.1873474 3171750
0.035933595 -0.17862485 1.1869122 3237289
0.047300495 -0.17630626 1.186342 3237548
0.057506174 -0.17589507 1.1858519 3171752
0.066577896 -0.17552957 1.1854162 3171752
-0.039987568 -0.16936234 1.1903969 3039909
-0.032081302 -0.1697657 1.1909167 3105701
-0.023754138 -0.17206354 1.1922097 3105443
-0.013884544 -0.17704749 1.1932625 3040163
0.016797964 -0.17489859 1.1917771 3105960
0.028130166 -0.17332652 1.1912184 3105958
0.037110649 -0.17146105 1.1899664 3237545
0.047393408 -0.16999716 1.1883628 3237547
0.057380192 -0.16928726 1.1873734 3237544
0.067419492 -0.16865441 1.1869726 3237545
0.075925805 -0.16633335 1.1855195 3303339
-0.051598474 -0.1603927 1.1908312 3172009
-0.042949304 -0.16318414 1.1928598 3105961
-0.033465255 -0.16500181 1.1940349 3171752
0.050503176 -0.16304475 1.1900213 3303337
0.057329778 -0.16276971 1.1896935 3303593
0.067367285 -0.16138741 1.1891987 3303594
0.076390922 -0.15842105 1.1874799 3303596
0.083007872 -0.15667492 1.1843895 3238062
-0.059316821 -0.15217587 1.1910903 3434409
-0.053380594 -0.15366952 1.1936548 3237547
-0.044905171 -0.15568767 1.1944566 3237805
0.077112421 -0.15107116 1.188601 3238318
0.086218603 -0.1477816 1.1870041 3238572
0.096234702 -0.14718214 1.1848385 3434926
0.10264117 -0.14633276 1.1833217 3369134
-0.061963208 -0.14322984 1.1923313 3435179
-0.055838861 -0.14496917 1.1943908 3369388
0.090625808 -0.14089282 1.187826 3500977
0.096044905 -0.13714392 1.1865185 3435186
0.10135089 -0.13698518 1.1832608 3500720
-0.070911378 -0.13284229 1.1923895 3566511
-0.065023527 -0.13546772 1.1938128 3566767
-0.057655871 -0.13774028 1.1948276 3500977
0.097218469 -0.12945226 1.1868628 3501234
0.10486215 -0.12673132 1.1837109 3501490
-0.081072144 -0.12007818 1.191704 3566770
-0.074014619 -0.12435172 1.1940278 3632306
-0.067130014 -0.12899517 1.1951631 3632563
0.10639422 -0.11797834 1.1853641 3699127
0.11367057 -0.11642064 1.182878 3633076
-0.082458869 -0.11453015 1.1926985 3566770
-0.07628648 -0.1151473 1.195417 3763892
0.10698246 -0.10886031 1.1866305 3633335
0.11344124 -0.10643125 1.1838446 3764407
-0.0829162 -0.10444058 1.1943905 3698868
-0.078498647 -0.10486148 1.1953876 3699126
0.10706312 -0.096878089 1.18647 3962811
0.11353841 -0.096718684 1.1849923 3830969
0.12112324 -0.096662819 1.1817946 3830714
-0.084582642 -0.094565079 1.1924614 3699126
-0.07915964 -0.09487395 1.1952884 3830712
0.11385749 -0.086751655 1.1854142 4028606
0.12184675 -0.086562723 1.1816282 3962300
-0.084358297 -0.085055776 1.1930041 3830970
-0.079365842 -0.084505923 1.1951628 3962813
0.11378766 -0.077682406 1.1858997 4291522
0.12146486 -0.077000603 1.1818854 4094399
-0.085064508 -0.075006343 1.1930207 3962044
-0.080076195 -0.075081751 1.1950732 4093630
0.11491767 -0.06688714 1.1854379 4554438
0.11960756 -0.06748566 1.1814852 4357059
-0.084869653 -0.06495145 1.1924987 4093886
-0.080202825 -0.064004257 1.1949345 4291009
0.11262905 -0.05643373 1.184787 4686026
0.11850277 -0.056322191 1.1813917 4685769
-0.08362104 -0.057643581 1.1910089 4159935
-0.078594089 -0.054938775 1.1935953 4225985
0.10501717 -0.046762936 1.185912 5015248
0.11101814 -0.047826231 1.182971 5014991
-0.076019414 -0.045017608 1.192603 4292037
-0.070477933 -0.046988573 1.1942501 4619977
-0.04800158 -0.039237872 1.1930813 5279449
-0.040037218 -0.038916983 1.1926988 5016538
-0.027475283 -0.039551709 1.1921105 4950743
-0.01790319 -0.040843781 1.1916728 4950488
-0.0088297576 -0.040321618 1.1912351 5147351
0.0015610252 -0.038952257 1.1907235 5278422
0.012161613 -0.040851355 1.189355 5212886
0.02142732 -0.03982449 1.1880393 5278423
0.031370442 -0.038580295 1.1880515 5147094
0.042326644 -0.038532138 1.188782 4885460
0.051699404 -0.036657423 1.1875842 4950741
0.060806129 -0.035766657 1.1878681 5016279
0.10306187 -0.03699642 1.1844755 5212370
0.11036733 -0.037888784 1.1815372 5212369
-0.074231304 -0.037974261 1.1923082 4423370
-0.072311334 -0.034703922 1.1917738 4554187
-0.047753349 -0.034204476 1.1927367 5147610
-0.038026057 -0.033102036 1.1905249 5081818
-0.028844915 -0.035008587 1.1901138 5016538
-0.017767992 -0.033123091 1.1896966 5278938
-0.0087042786 -0.032150984 1.1892533 5344730
0.0017306674 -0.03262157 1.187696 5673948
0.011978127 -0.034462143 1.1861653 5805277
0.021049846 -0.03409664 1.1857297 5541848
0.031209186 -0.03255026 1.1852269 5475544
0.041322179 -0.029868737 1.1847116 5213397
0.052015174 -0.030053541 1.1849129 5082070
0.061735805 -0.028860733 1.1861317 5016536
0.070644192 -0.026308626 1.1872772 5213915
0.081331864 -0.024900153 1.1867511 5279453
0.092273004 -0.024915658 1.1862317 5213659
0.10173506 -0.027474262 1.1842139 5212628
0.10822611 -0.027173162 1.1814988 5146833
-0.072306015 -0.028761655 1.1900939 4554443
-0.047206149 -0.025931105 1.1888648 5016281
-0.039911699 -0.026546836 1.1885264 5147611
-0.0088039879 -0.026203133 1.1870444 5411294
0.061694443 -0.018814571 1.1835995 5148123
0.070409626 -0.018465765 1.1833812 5213915
0.080508471 -0.018271692 1.18444 5213917
0.091268614 -0.01776585 1.1844997 5213659
0.099235266 -0.019200996 1.1821553 5212887
0.091655456 -0.01078517 1.1820716 5279708
0.096191317 -0.010602415 1.1818537 5411037
-0.0079947598 -0.17749788 1.1979947 3106213
-0.0022821613 -0.17726772 1.1977203 3105959
0.0090064975 -0.17746753 1.1971868 3105706
0.019425709 -0.17639309 1.1966779 3105960
-0.019128852 -0.17107275 1.1984395 3105700
-0.011627294 -0.17201357 1.1988465 3105957
-0.0024823882 -0.1716451 1.1984073 3106216
0.0078533385 -0.17134026 1.1987635 3106217
0.018445186 -0.17039967 1.1980765 3171752
0.026291503 -0.16959277 1.1973552 3303337
0.037332475 -0.16650666 1.1956981 3369130
0.04418759 -0.16623047 1.195369 3369132
-0.032148257 -0.1603722 1.1992517 3171753
-0.022280645 -0.16236556 1.2011987 3171752
-0.011897705 -0.16220763 1.202786 3172010
-0.0026330799 -0.16310483 1.2033088 3172012
0.0074062422 -0.16227615 1.2036177 3237802
0.017999113 -0.16115251 1.2025537 3303338
0.027195912 -0.16080794 1.2023127 3369133
0.037399717 -0.16018057 1.2000978 3369388
0.04746877 -0.15944599 1.1989186 3303853
0.056591727 -0.15792346 1.1964234 3369643
0.066575155 -0.15673095 1.1944171 3303851
-0.050339475 -0.14941786 1.1996387 3303598
-0.042049248 -0.15189624 1.2009938 3303341
-0.033267569 -0.15325083 1.2040272 3303340
-0.023746394 -0.1542808 1.206449 3369132
-0.015514053 -0.15583624 1.2060783 3303600
0.01783953 -0.15449241 1.2044766 3303598
0.03049089 -0.15398268 1.2038691 3435186
0.037966691 -0.15368149 1.20351 3369391
0.047742739 -0.1532876 1.2030406 3369392
0.057388563 -0.14998731 1.2019233 3369390
0.066724859 -0.14857578 1.1978724 3435184
0.075846508 -0.14662501 1.193609 3369392
-0.05153773 -0.14244816 1.2004055 3369646
-0.04409761 -0.14442463 1.2048838 3303853
-0.036592312 -0.14745954 1.20697 3173034
0.059022766 -0.14176197 1.2023542 3566773
0.067107677 -0.1401322 1.2012814 3566516
0.076684013 -0.13789041 1.1978605 3500977
0.086479492 -0.13817544 1.1946799 3500975
-0.062212013 -0.13091165 1.1999607 3632562
-0.053082839 -0.13359223 1.2025658 3501236
-0.045359626 -0.13341542 1.2067578 3501494
0.078706846 -0.12868685 1.2012484 3698612
0.086160466 -0.12874851 1.1985288 3567283
0.09477739 -0.12598336 1.195377 3567283
0.10191765 -0.12266221 1.1920575 3501747
-0.069787122 -0.12156091 1.2001983 3895478
-0.063993372 -0.1238439 1.202456 3698613
-0.054884888 -0.12439372 1.2062023 3633080
0.079874218 -0.12200867 1.2011056 3699128
0.086290926 -0.11855653 1.2007557 3830713
0.095680594 -0.11780193 1.1990985 3699126
0.10211319 -0.11623885 1.1919643 3633333
-0.071419723 -0.11360735 1.2001718 3961271
-0.064429648 -0.11373433 1.2048476 3896247
-0.057460517 -0.11600948 1.2075499 3764921
0.085901283 -0.11161727 1.2006836 3962300
0.096618615 -0.10867612 1.199665 3896506
0.10380602 -0.10654557 1.1937596 3764920
-0.073088616 -0.1043328 1.2016317 3830712
-0.066015176 -0.10357022 1.2064587 4093627
0.099157527 -0.097705543 1.199872 4028352
0.10426285 -0.096948549 1.1942799 3962812
-0.073884971 -0.094035119 1.2020355 3962556
-0.067151032 -0.094842054 1.2072885 4028606
0.098207384 -0.087331675 1.1997815 4357317
0.10442472 -0.087312631 1.1954812 4225985
0.10947024 -0.083406836 1.1911856 4225985
-0.073761694 -0.085014693 1.2019117 4028606
-0.068713032 -0.084940836 1.2076782 4094655
0.098405465 -0.079283938 1.199667 4554695
0.10392348 -0.076950498 1.1947688 4554182
0.10988949 -0.07498873 1.1910557 4619462
-0.074949957 -0.074418083 1.2002983 4159424
-0.066732079 -0.073033005 1.2061962 4160448
-0.060443796 -0.071153149 1.2071053 4554440
0.098320261 -0.065909728 1.1994962 4620747
0.103816 -0.066730812 1.1969932 4686026
0.10995907 -0.067348465 1.1909525 4619977
-0.074747577 -0.06474416 1.1996911 4291265
-0.066450194 -0.064362891 1.2045485 4357573
-0.060725816 -0.064245038 1.2070284 4751563
0.01315579 -0.058577422 1.2034452 4818903
0.020791944 -0.057500925 1.2030685 4819160
0.096132241 -0.057463877 1.1994897 4752590
0.10343829 -0.057537232 1.196891 4817869
0.10848968 -0.05938834 1.1909182 4752076
-0.073154867 -0.055086996 1.1994892 4291778
-0.0670323 -0.054099184 1.2027688 4554440
-0.061054848 -0.056185588 1.2069386 4883149
-0.042979091 -0.048422307 1.2019738 5674209
-0.037247479 -0.04819138 1.2016985 5082331
-0.025701437 -0.05054687 1.2030499 4950745
-0.016446408 -0.051938642 1.2001588 4884953
-0.0072864592 -0.051562667 1.1995187 4753366
0.0030346382 -0.050035872 1.2002099 4884692
0.013627375 -0.051242437 1.1988771 4884692
0.022372067 -0.050159927 1.1991034 4884692
0.032617688 -0.048528399 1.2010546 4950484
0.043489944 -0.049061149 1.1987653 4950488
0.052289162 -0.048435412 1.1993338 4950489
0.062866434 -0.04654897 1.199859 5411037
0.07187219 -0.045928616 1.2004912 5542623
0.085878953 -0.043346103 1.1997921 5213404
0.093759798 -0.0459117 1.1994513 5081558
0.10202986 -0.047847487 1.196681 5015248
-0.068358824 -0.044419523 1.199122 4685772
-0.04614234 -0.043047991 1.1991411 5542365
-0.037179738 -0.042866822 1.198765 4951002
-0.02844419 -0.04355526 1.197215 4884951
-0.019123755 -0.045054391 1.1967919 4753366
-0.0054602176 -0.043358263 1.1961207 4950484
0.0034059798 -0.043287445 1.1956987 5015763
0.033432137 -0.042936895 1.194268 5015764
0.040287249 -0.042660698 1.1939389 4885461
0.052162077 -0.041200303 1.1933557 4884950
0.062974676 -0.039679669 1.1946707 5082072
0.072426468 -0.038126167 1.1971589 5542624
0.082149096 -0.038866397 1.1991098 5279197
0.092097446 -0.037247084 1.1958127 5213144
0.099286303 -0.039519861 1.1910956 5212627
0.066191658 -0.032452047 1.192575 5016538
0.071834214 -0.030506276 1.1922816 5213917
0.081254035 -0.027644575 1.1917968 5345245
0.091710091 -0.029527426 1.1919923 5213917
0.18316942 -0.027893797 1.1949693 13158081
-0.0025917087 -0.15810362 1.2094991 3303598
0.010101474 -0.15759221 1.2088896 3303850
-0.031412151 -0.14861986 1.210744 3303853
-0.021578655 -0.14981702 1.2106502 3304111
-0.011857405 -0.15152639 1.211961 3303857
