# .PCD v0.7 - Point Cloud Data file format
VERSION 0.7
FIELDS x y z rgba
SIZE 4 4 4 4
TYPE F F F U
COUNT 1 1 1 1
WIDTH 174
HEIGHT 1
VIEWPOINT 0 0 0 1 0 0 0
POINTS 174
DATA ascii
-0.3226794 -0.15729599 0.80907899 5134174
-0.31699911 -0.16083121 0.80726814 5134176
-0.32194427 -0.15270233 0.80837899 4871515
-0.33203384 -0.17102022 0.82136977 4936281
-0.32325387 -0.17654946 0.81857669 5199967
-0.31885165 -0.17800553 0.81705493 5397348
-0.33786348 -0.1622038 0.82242823 4673880
-0.33169255 -0.16517541 0.81832463 4870232
-0.32279825 -0.16789423 0.81599879 5068382
-0.31366083 -0.17041925 0.81337929 5068384
-0.3058711 -0.17120501 0.81154513 4476504
-0.33632535 -0.15321153 0.81955498 4607822
-0.33040559 -0.15541807 0.81610173 4673623
-0.32067776 -0.15941051 0.81281042 5134174
-0.31103995 -0.16167319 0.80939358 4739419
-0.30361825 -0.16411722 0.80820584 4081746
-0.33380145 -0.14504994 0.81964052 4410445
-0.3270478 -0.14677906 0.81404221 4213839
-0.31761295 -0.14937003 0.81073195 4345429
-0.30862525 -0.15276979 0.80766445 4016211
-0.30096 -0.15543003 0.80626363 3621193
-0.32512501 -0.14178932 0.81285894 3884109
-0.31640556 -0.14365831 0.80975121 3752784
-0.30701545 -0.14683416 0.8065117 3621192
-0.30071065 -0.15004653 0.80443615 3686459
-0.33901709 -0.17919624 0.8359338 4673626
-0.332912 -0.18273243 0.8309173 4870741
-0.32487595 -0.18655974 0.82844502 5265754
-0.31551406 -0.18886536 0.82542253 5397604
-0.30608076 -0.18855761 0.82501996 4608350
-0.3390193 -0.17066821 0.83093548 4673629
-0.33261427 -0.17481671 0.82658499 4870744
-0.32550156 -0.17885804 0.82392454 5134174
-0.31363168 -0.18058825 0.82031828 5397606
-0.30449408 -0.18195753 0.82147485 4476760
-0.29705954 -0.17979544 0.8208186 4015442
-0.34162152 -0.16034877 0.83578879 3883351
-0.34030014 -0.16182254 0.82985115 4475995
-0.31138024 -0.17472133 0.81823111 5068641
-0.30158502 -0.17425121 0.81670433 4082513
-0.29435799 -0.17456141 0.81878364 3752531
-0.33929002 -0.15206644 0.82728487 4079443
-0.29768664 -0.16623637 0.81390637 3621705
-0.29311699 -0.1695727 0.81581938 3751503
-0.29774481 -0.15868162 0.81162316 3490378
-0.32918686 -0.19901618 0.84647208 5002588
-0.32630548 -0.1999907 0.845478 5528419
-0.33632153 -0.18666114 0.84801692 4739163
-0.3315624 -0.19184865 0.84354734 5002333
-0.32310754 -0.19503638 0.84060121 5397092
-0.31381431 -0.19580051 0.83863115 5332066
-0.30750799 -0.19640622 0.83807647 4740695
-0.33842379 -0.18290249 0.84283125 4082256
-0.33307344 -0.18626453 0.83925188 5068120
-0.31160331 -0.1925672 0.83390123 5200736
-0.30259201 -0.19169571 0.83272207 4345175
-0.29490116 -0.1918278 0.83229929 4278096
-0.29888389 -0.18379533 0.82708228 4147028
-0.29323405 -0.18535748 0.82948065 3819087
-0.29278192 -0.1784814 0.82466471 3687502
-0.32192379 -0.21157306 0.85669374 5528423
-0.31790569 -0.21237427 0.85525614 5397348
-0.33105862 -0.20142724 0.85347527 4804702
-0.32277408 -0.20456001 0.85002607 5462626
-0.31323415 -0.2065952 0.84939146 5003105
-0.30470672 -0.20560902 0.8470937 4804440
-0.33625442 -0.18897195 0.85571146 3817824
-0.33324683 -0.19468379 0.85081708 4673622
-0.31880143 -0.19956939 0.84583354 5660265
-0.31174758 -0.200344 0.84325147 5069150
-0.30218554 -0.20025468 0.84179109 4475986
-0.29618028 -0.19784337 0.83930981 4014924
-0.29871538 -0.19528645 0.83788288 4606547
-0.29274946 -0.19468211 0.83611917 3620428
-0.32712153 -0.21545428 0.86651343 4079956
-0.3222304 -0.21859686 0.86251211 5266270
-0.31603825 -0.21976399 0.86274153 5002845
-0.32882679 -0.20889692 0.86440563 4079963
-0.32334101 -0.21385105 0.86065406 5330781
-0.31271306 -0.21480739 0.85851049 5002331
-0.30878183 -0.2102747 0.85484761 5001816
-0.30386749 -0.20873827 0.85414416 4540755
-0.29850149 -0.20368534 0.85037297 4213074
-0.32023549 -0.22636279 0.87779742 5265766
-0.32125154 -0.22196667 0.87471038 5068639
-0.31315294 -0.22308771 0.87125659 4214103
-0.32880408 -0.21396421 0.87129861 1580089
-0.30902004 -0.21862331 0.86500084 4145996
-0.30530038 -0.21402885 0.86246312 4212054
-0.32523891 -0.22514667 0.88278449 3618132
-0.32057765 -0.22786036 0.88128126 5199718
-0.31436265 -0.22882515 0.87903225 4214875
-0.32555562 -0.28379107 0.90546811 528927
-0.32111612 -0.28598437 0.90400028 1517876
-0.32024834 -0.29407591 0.91728848 4419983
-0.33281362 -0.28316748 0.91886479 1651559
-0.32881323 -0.28436768 0.91410023 1782104
-0.31929654 -0.29061946 0.90883702 4154236
-0.31243593 -0.28863019 0.91017091 3028033
-0.32256308 -0.27815017 0.91669106 2369321
-0.31681088 -0.28093737 0.9109236 2040105
-0.31895119 -0.260317 0.90939873 4146252
-0.33030295 -0.28707176 0.92900401 5077683
-0.32529673 -0.29171097 0.92611867 4617364
-0.31690612 -0.2949397 0.92326003 4549258
-0.31168431 -0.29166821 0.91813445 6582660
-0.32968533 -0.2762298 0.92348272 7695014
-0.3215591 -0.27496952 0.92102456 2040625
-0.31418109 -0.27633089 0.91765976 2172202
-0.30936149 -0.28310356 0.91647112 2760198
-0.32554343 -0.29921377 0.93691206 4683677
-0.32041103 -0.3009496 0.93514138 3831442
-0.33104023 -0.29045185 0.93694645 3299734
-0.32575291 -0.2948136 0.93385553 4683420
-0.31783146 -0.29781872 0.93216664 3960460
-0.3459307 -0.3650859 0.96459478 3829135
-0.3384867 -0.3671045 0.96198064 4223637
-0.33299631 -0.36942637 0.96012938 3960467
-0.34425214 -0.35594088 0.96312028 3498881
-0.33668771 -0.35810703 0.96004552 3895695
-0.32913443 -0.35920113 0.95773399 3631246
-0.34232485 -0.34562084 0.9582268 3499128
-0.33600616 -0.34858856 0.95612347 4025235
-0.32718205 -0.35020426 0.95494461 3499655
-0.34006608 -0.33707982 0.954445 3826560
-0.33383432 -0.33913201 0.95282614 4156303
-0.32592532 -0.34186473 0.95278388 3630985
-0.33634877 -0.327869 0.95541465 3893387
-0.33087295 -0.32971376 0.95185673 4157333
-0.32340229 -0.33129761 0.95139682 3762828
-0.33193702 -0.32017177 0.95519018 3762325
-0.32743162 -0.31978664 0.94952786 4420507
-0.32105878 -0.3216382 0.94980347 3828877
-0.32941687 -0.30670282 0.95300049 4222878
-0.3247346 -0.31095338 0.94762748 4552347
-0.31823707 -0.31298169 0.94851589 3631755
-0.33092079 -0.29914451 0.94686413 3627913
-0.32430208 -0.30358115 0.94256705 4683676
-0.3164914 -0.30428797 0.9428463 3892613
-0.31475377 -0.29737392 0.93804556 3563127
-0.34800634 -0.37346488 0.9719696 3033484
-0.33991969 -0.37673694 0.97179759 2897991
-0.33081463 -0.37908524 0.96806335 3891064
-0.32323977 -0.38052523 0.96713394 2638186
-0.34979549 -0.36373618 0.97021377 666715
-0.34055769 -0.36918688 0.96724129 4813457
-0.32756671 -0.37052724 0.96247804 3499654
-0.319785 -0.37228471 0.96366364 3561592
-0.3474583 -0.35272387 0.96831942 6722
-0.32523099 -0.36143881 0.96076155 3694979
-0.31854954 -0.36302838 0.96053946 3233144
-0.32113424 -0.35204792 0.95835471 3104639
-0.31579921 -0.35319036 0.95986527 2640231
-0.31926024 -0.34262371 0.95678097 2907007
-0.31377342 -0.34367883 0.95968872 3099492
-0.33630374 -0.32416713 0.96149075 4089741
-0.31702793 -0.33337912 0.95547199 3496061
-0.31122839 -0.3332316 0.95825565 4278874
-0.3321394 -0.31719387 0.95928138 2972810
-0.31460732 -0.32327324 0.95470911 3757171
-0.31018296 -0.32516897 0.95711911 3748927
-0.32961106 -0.31206208 0.95785719 3630740
-0.31265664 -0.31659889 0.95189768 3953004
-0.34028494 -0.38202009 0.97797316 984897
-0.32984704 -0.38152945 0.97400147 4350584
-0.31416425 -0.36183748 0.96700162 4674411
-0.31120989 -0.35353655 0.96762729 6974583
-0.30993453 -0.34248081 0.96612829 3815753
-0.33683833 -0.32287279 0.97122395 5799072
-0.30777222 -0.33390957 0.96130753 5064001
-0.31127456 -0.36648276 0.9795689 7039097
-0.30968249 -0.36082578 0.97952086 7565430
-0.3081935 -0.35242015 0.97782838 8223350
-0.30795753 -0.34489357 0.97204137 9076613
