# .PCD v0.7 - Point Cloud Data file format
VERSION 0.7
FIELDS x y z rgba
SIZE 4 4 4 4
TYPE F F F U
COUNT 1 1 1 1
WIDTH 1129
HEIGHT 1
VIEWPOINT 0 0 0 1 0 0 0
POINTS 1129
DATA ascii
-0.098681755 -0.18716803 1.1266118 2379673
-0.091786459 -0.18990093 1.1291575 2644619
0.13430655 -0.17942485 1.1242282 5010097
0.14145406 -0.17628181 1.1209023 10599906
0.14849959 -0.17487669 1.1198812 14081762
-0.10607184 -0.1760335 1.1255419 2709143
0.13504341 -0.16879937 1.1241126 2909858
0.14159462 -0.16817003 1.1201476 4026283
0.14911455 -0.16817945 1.1163042 12307424
-0.11347252 -0.16251794 1.1213614 2775446
-0.10890879 -0.16657703 1.1242119 2775442
0.1426046 -0.15918291 1.12086 3105445
0.14741582 -0.15825759 1.1157471 2578854
-0.11566533 -0.15535964 1.1234955 2775449
-0.11128552 -0.15760133 1.127937 2906778
0.14468096 -0.14930683 1.1221231 3564451
0.14791872 -0.14827099 1.1180432 3433893
-0.11974172 -0.1467849 1.1246425 2840984
0.14597517 -0.14106888 1.1236185 3565217
0.14957988 -0.13889489 1.1181862 3499430
-0.12496205 -0.13502896 1.1213486 2841497
-0.12180114 -0.13666452 1.1272981 2907290
0.15159857 -0.12818995 1.1203766 3237547
-0.12538002 -0.1255668 1.122869 2973083
-0.12254074 -0.12592933 1.127213 3038877
0.15443553 -0.11840856 1.1214062 3827369
0.15693331 -0.11732808 1.1151592 3564710
-0.1266977 -0.11562064 1.1240612 3039391
-0.12392251 -0.11742271 1.1278294 3170977
0.15440965 -0.10831857 1.12113 3565735
0.1566868 -0.10877576 1.1150841 3500198
-0.1270141 -0.10741569 1.1261343 3170977
0.154403 -0.099302545 1.1203786 3631790
0.15559147 -0.10092445 1.1230358 3434923
-0.12749439 -0.096880734 1.1250453 3302823
0.15374063 -0.087863095 1.1204519 3566513
-0.12778006 -0.086895108 1.1236238 3368614
0.15257038 -0.078636266 1.1204288 3632560
-0.12747015 -0.079165369 1.1248784 3565995
0.15105258 -0.068518534 1.119094 3895728
-0.12493591 -0.064024121 1.1262825 3697842
0.14839721 -0.058646034 1.1175909 4158132
-0.12354054 -0.055687696 1.1249375 3502262
0.14698517 -0.04800339 1.1187214 4027837
-0.12118313 -0.046107106 1.1242111 3698611
0.14188856 -0.036664233 1.1227248 4619197
0.14766189 -0.039648496 1.1170895 4946612
-0.12770443 -0.039884511 1.1205132 7180220
-0.12005389 -0.036602832 1.1275208 4815032
0.14160253 -0.030193962 1.1220033 5209534
0.1461173 -0.02837579 1.1145544 8425655
0.0140213 0.090424255 1.1162605 9474444
-0.05570969 -0.2209444 1.1356802 8300241
-0.074228004 -0.21330847 1.1323669 7642055
-0.066675015 -0.21373108 1.1343464 4815810
-0.05978854 -0.21697216 1.13573 5210825
-0.083712526 -0.20166503 1.1320964 932767
-0.076611787 -0.20489222 1.1336596 2382238
-0.067861736 -0.20766225 1.1358151 2251168
0.11545162 -0.19916075 1.1318184 6518691
0.12122543 -0.19798148 1.130255 11319227
-0.085593514 -0.19495842 1.1339407 2447513
-0.08005698 -0.19825353 1.1359873 2513045
0.12283967 -0.18970639 1.1305188 4617903
0.12981707 -0.18954876 1.1274201 10929103
-0.095371291 -0.18421084 1.1336364 2971544
-0.089342609 -0.18780005 1.134087 2774929
0.12463089 -0.18038917 1.1297789 2909086
0.12945685 -0.17932254 1.1273317 3105187
-0.10331244 -0.17125475 1.1322294 2709911
-0.098497741 -0.17615783 1.1345261 2644371
0.13070488 -0.16946213 1.127828 3368356
-0.10579377 -0.16469231 1.1340394 2775444
-0.10069022 -0.16866389 1.1348164 2709910
0.13485874 -0.15946455 1.1286302 3368613
0.1389433 -0.15639523 1.1269135 3499683
-0.10925908 -0.15622097 1.1337156 2841497
0.13649327 -0.15193716 1.1309251 3237027
0.14108472 -0.14911857 1.1281332 3302821
-0.11554019 -0.14481385 1.1328138 2645144
-0.11195323 -0.14641578 1.1352925 2775964
0.14393447 -0.13909154 1.1288267 3237542
0.147899 -0.13540447 1.1278586 3106215
-0.11759289 -0.13646273 1.1336626 2907291
0.14504224 -0.12949963 1.129198 3499683
0.14805268 -0.1274454 1.1275901 3303338
-0.11884356 -0.12656067 1.134542 3039134
0.14942756 -0.11890916 1.1277494 3499947
-0.12445126 -0.11243796 1.1321285 3236770
-0.12209851 -0.11663307 1.1354518 3236770
0.15086402 -0.10835303 1.1280261 3500458
-0.12463795 -0.1059609 1.1320716 3237027
-0.12281746 -0.10623568 1.1360363 3302821
0.15293534 -0.097736828 1.1283498 3632048
-0.12491798 -0.096245311 1.1319863 3302824
-0.12308288 -0.097027473 1.1359555 3302569
0.15095034 -0.08890222 1.1282053 3632047
-0.1256111 -0.087189786 1.1319159 3434408
-0.12281859 -0.084706359 1.135834 3434665
0.14723359 -0.077960812 1.1278181 4026292
-0.12547806 -0.076814122 1.1318157 3631531
-0.12369175 -0.075902775 1.13577 3631531
0.14708126 -0.06999594 1.1263725 4157366
-0.12566474 -0.070337065 1.1317588 4025255
-0.12261505 -0.065105036 1.1339308 3632304
0.14619572 -0.05823119 1.1258363 4289211
-0.11942787 -0.056023348 1.1332058 3568048
0.14274557 -0.04755187 1.1264765 4094399
0.14523035 -0.051857948 1.1277975 4224702
-0.11833064 -0.049959574 1.1314106 3764911
-0.11496328 -0.045524836 1.1337976 3895729
0.1399647 -0.039200094 1.1272455 4487616
-0.1200017 -0.031868637 1.1342771 6458567
-0.11497319 -0.035504092 1.1336037 3895996
0.1395539 -0.028179593 1.1260959 5735616
0.14631045 -0.024735473 1.125519 9477559
-0.11961886 -0.029165044 1.1352438 6852289
-0.11636953 -0.029072009 1.1351734 5933254
0.047234133 0.077226564 1.126678 9474701
-0.018411545 -0.2302261 1.1469738 7248329
0.014444089 -0.23088457 1.1454778 5801654
0.022418108 -0.22953112 1.1447612 5210039
0.035252154 -0.22978517 1.1458231 6328255
0.042913888 -0.2295658 1.1456573 7379645
0.054463796 -0.22911334 1.1454064 8430007
0.062273666 -0.22715063 1.1412199 8625323
-0.056698829 -0.2232639 1.1397244 9678537
-0.045740649 -0.22289462 1.1460148 4422071
-0.036357559 -0.22328953 1.1472921 2778029
-0.026548287 -0.22482429 1.147097 2513574
-0.018860536 -0.22731721 1.1469561 2315684
0.011077751 -0.22719042 1.1463152 2120102
0.02311762 -0.22684568 1.1460547 2185635
0.036220469 -0.22537485 1.145761 2186146
0.041724689 -0.22631289 1.1456522 2316696
0.05698505 -0.22368462 1.1453015 4486314
0.064486727 -0.22309233 1.1431351 5997746
0.075562164 -0.21980697 1.1437249 6063288
0.084209561 -0.21808428 1.1446671 6589614
0.092315406 -0.21807131 1.1444938 8757678
-0.06247811 -0.21146113 1.1397369 1855898
-0.055619262 -0.213746 1.1428508 2249885
-0.047787815 -0.21579731 1.1467385 2381985
-0.039586335 -0.21768466 1.1473085 3039902
0.078028701 -0.21267349 1.1447483 2841504
0.084032856 -0.21195374 1.1446133 3302564
0.093499899 -0.209438 1.1430537 4420011
0.1031794 -0.20836583 1.1384546 6984117
0.1124846 -0.20536333 1.1359413 6254993
-0.073903963 -0.20125735 1.1406853 2710418
-0.066011876 -0.20426518 1.1441269 2775447
-0.059168011 -0.2062746 1.1468195 2906776
0.095739044 -0.20146972 1.1438645 3171492
0.10414544 -0.19987938 1.1408691 3237285
0.11235206 -0.19846678 1.1364509 3629215
-0.076904483 -0.19435662 1.1446857 2775191
-0.068618119 -0.1975902 1.1470731 2906012
0.10586943 -0.19060779 1.142279 3040421
0.1126884 -0.18875864 1.138729 3105703
0.11853609 -0.18886971 1.135657 2777257
-0.092733636 -0.18077478 1.140095 2710677
-0.085783824 -0.18443105 1.1435113 2709909
-0.079413168 -0.1878368 1.1458784 2709910
0.11367459 -0.18031651 1.1422086 3368100
0.12110598 -0.17830661 1.1376367 3302561
-0.094083287 -0.17423934 1.1431744 2710421
-0.089131534 -0.17691484 1.1471838 2644886
0.11553925 -0.1724849 1.1435692 3040936
0.1234436 -0.16917679 1.1412817 3237031
0.12969887 -0.16612114 1.1382055 3368615
-0.10416684 -0.16151774 1.1401584 2776209
-0.09850762 -0.16579708 1.1448289 2841240
0.12527519 -0.16061665 1.1432498 3237287
0.13155389 -0.15825468 1.1379491 3302822
-0.10526167 -0.15485436 1.1446537 2710683
-0.10041413 -0.15798463 1.1473804 2841499
0.13362743 -0.14975244 1.1403801 3237541
0.13843699 -0.1469322 1.1364381 3237798
-0.10762266 -0.14635772 1.145234 2907293
0.13511406 -0.14091766 1.1428543 3237797
0.13966496 -0.13828699 1.1377311 3303334
-0.11434935 -0.13488369 1.1412688 2907805
-0.11197525 -0.13639936 1.1472912 2907805
0.14128928 -0.12885132 1.1401639 3434407
-0.11508371 -0.12558055 1.1427213 3039392
-0.11231858 -0.1266374 1.148007 3039391
0.14295331 -0.11922848 1.1399109 3500202
0.14690176 -0.116248 1.1343685 3631274
-0.11845574 -0.11648963 1.1445751 3170979
0.1446538 -0.10888985 1.1419051 3631791
0.14790438 -0.10827842 1.1360505 3566510
-0.11913259 -0.10614476 1.1456736 3105957
0.14348565 -0.097815722 1.1406033 3632305
0.14862479 -0.098818496 1.1345013 3501227
-0.11985154 -0.096155845 1.1433089 3237546
0.1427483 -0.088769928 1.1396551 3698099
0.14726579 -0.089064747 1.1345054 3698094
-0.11950451 -0.086391896 1.1434479 3434923
0.14372841 -0.079459645 1.1400923 3895479
0.14589906 -0.081459984 1.134063 3895477
-0.11941382 -0.075922564 1.1439668 3566256
0.14368998 -0.068142146 1.1413205 4027579
0.14609455 -0.067526475 1.137929 4157882
-0.11869249 -0.066995271 1.143111 3567024
0.14136581 -0.058671739 1.1407712 4159422
0.14560236 -0.058736112 1.1362565 4289724
-0.11670956 -0.057117067 1.140779 3567791
-0.11354983 -0.055045068 1.1460268 3764403
0.13933611 -0.048701603 1.1392303 4356797
-0.1121971 -0.046120949 1.1398172 3830196
0.13637905 -0.039208055 1.1382706 4619718
-0.11098914 -0.035160203 1.1420267 3896507
0.13195854 -0.02743306 1.1387435 4817095
0.13643114 -0.027910754 1.1354293 4948420
-0.11883369 -0.026198089 1.1432014 6916535
-0.11134051 -0.026516721 1.1427364 5210049
0.13097349 -0.02104903 1.1408162 5013440
0.1353697 -0.020526342 1.1383834 5998788
0.028489932 0.050083593 1.1381936 5859448
0.036640584 0.050378084 1.1361591 6122362
0.04225738 0.05069387 1.1390368 6319482
0.053411566 0.052315518 1.1427844 5330522
0.028910831 0.054531157 1.1366186 5792108
0.036695831 0.055594891 1.1359087 5527648
0.042131603 0.0550576 1.1389985 5067354
-0.012607737 -0.23000607 1.1498486 4354997
-0.0051805526 -0.2308037 1.1516979 4684224
0.0046709813 -0.23024003 1.150015 4289976
0.015565639 -0.22763008 1.1492243 2054307
0.02600665 -0.22788037 1.1490035 2777510
0.031525232 -0.22882085 1.1488944 4026798
0.04798606 -0.22834952 1.1485382 5604271
0.051779464 -0.22659315 1.1484407 4881326
-0.031875171 -0.22020043 1.1501681 3039902
-0.023893399 -0.22088569 1.1505041 2710943
-0.01531494 -0.22252521 1.1531414 2645152
-0.0052887499 -0.22506784 1.1563143 2514339
0.0046320017 -0.22468479 1.1555653 2514851
0.014438964 -0.22191088 1.1537958 2842787
0.024259232 -0.22122514 1.151379 2908579
0.03392379 -0.22054902 1.1516552 3039651
0.044155791 -0.22094962 1.1525517 2908578
0.053469777 -0.2198129 1.152092 2778020
0.063398175 -0.21788688 1.1495396 2646433
0.073015094 -0.22030951 1.147928 5012145
0.08457458 -0.2212601 1.1476899 8955830
-0.045134954 -0.21215516 1.1506616 2841242
-0.035194531 -0.21392614 1.152514 2775960
-0.026113374 -0.21492487 1.1542633 2841500
-0.016569031 -0.21679178 1.1578112 2907551
0.015086483 -0.21514797 1.1571194 3105184
0.024284223 -0.21451591 1.1569169 3170722
0.034229249 -0.21423113 1.1567018 3302053
0.044342518 -0.2133885 1.1564777 3170723
0.054813497 -0.21216691 1.1562425 3105188
0.064080395 -0.21112283 1.15432 3170467
0.07359232 -0.21067488 1.1502258 3236258
0.083590709 -0.20696223 1.1480211 3171236
-0.062074125 -0.20129207 1.1506356 2906776
-0.055458613 -0.20332977 1.1516566 2907033
-0.046906598 -0.20403795 1.1551721 2841497
-0.037471846 -0.20780388 1.1581733 2775704
0.064946339 -0.20560873 1.1559644 3105443
0.073786363 -0.20535561 1.1557732 3105443
0.084440455 -0.2013424 1.1542443 3105956
0.092643656 -0.19826657 1.1505023 3105956
-0.073364377 -0.19063032 1.1507767 2644884
-0.066132516 -0.19396663 1.1536543 2775705
-0.057626747 -0.19657329 1.1561645 2841497
0.087832838 -0.19389217 1.1553653 3172006
0.09539602 -0.19130129 1.1541791 3040421
0.10113448 -0.18880814 1.1515324 2974628
-0.082396582 -0.18210092 1.1508895 2645144
-0.07564155 -0.1836496 1.1538194 2710425
-0.070230871 -0.1862039 1.1552409 2776216
0.1043564 -0.18007059 1.1516315 3171493
0.10920086 -0.17772807 1.1483551 3237026
-0.085609213 -0.17414962 1.1534724 2710424
-0.079095498 -0.17613861 1.1573102 2710937
0.10714949 -0.17342882 1.1547602 3302823
0.11329179 -0.16919383 1.1514305 3172005
0.11897568 -0.16589659 1.1504358 3172006
-0.094660968 -0.1630452 1.1509725 2841498
-0.090090953 -0.16539261 1.1558214 2907290
0.11567096 -0.16212358 1.154472 3303592
0.12178948 -0.15857661 1.1529742 3237544
0.12766935 -0.15411597 1.1461382 3303337
-0.096632101 -0.15462585 1.1526504 2973342
-0.091819726 -0.15755652 1.1588625 3038879
0.12520956 -0.15070613 1.153494 3237544
0.12938367 -0.1475959 1.148841 3303336
-0.10500111 -0.14331427 1.1520084 2973342
-0.098752111 -0.14626163 1.1564038 2973600
0.13255367 -0.13836557 1.149887 3368872
-0.1067761 -0.13548726 1.153326 3039392
-0.10120658 -0.13609785 1.1588614 3236259
0.1336192 -0.12887594 1.1515255 3500460
0.13785233 -0.12636183 1.1456598 3434923
-0.10814192 -0.12587507 1.153801 3170978
0.13442273 -0.1199124 1.152341 3500719
0.13897122 -0.11731003 1.1488851 3500718
-0.11508492 -0.11492971 1.1509569 3237029
-0.11110692 -0.1161341 1.1568848 3237286
0.1391129 -0.10842133 1.1515713 3697329
-0.11533801 -0.10614893 1.1508797 3237543
-0.11263293 -0.1055702 1.1583185 3172263
0.14005713 -0.099283881 1.1509598 3697843
-0.11585423 -0.096496642 1.153801 3303340
-0.11370443 -0.095318399 1.1587453 3303852
0.13953911 -0.088845521 1.1512729 3764149
-0.11626272 -0.086768515 1.1507174 3500716
-0.11341536 -0.085249647 1.1586444 3501229
0.1421475 -0.078342699 1.1496896 3764661
-0.11612892 -0.078708999 1.1506388 3566512
-0.11296509 -0.075156733 1.1549027 3632306
0.13887146 -0.068225048 1.1495636 3896764
-0.11264092 -0.065523103 1.1548052 3698357
0.13264801 -0.058339704 1.1518004 4291265
0.13639505 -0.059450157 1.1462054 4225217
-0.11129816 -0.056476649 1.1543278 3764408
0.13313913 -0.048724759 1.1510327 4554434
0.13560614 -0.048432428 1.1449755 4488640
-0.10863586 -0.045677077 1.1549697 3895997
-0.1045412 -0.042330734 1.1580516 4027323
0.13241526 -0.037952397 1.1499467 4817354
-0.10744242 -0.036135823 1.1513869 3962044
-0.10337792 -0.034762222 1.1571554 4093118
0.12280271 -0.025866009 1.1530393 5014224
0.1281864 -0.028480232 1.1489477 4751563
-0.10667358 -0.025710121 1.1499388 4290235
-0.10170181 -0.025399707 1.1543642 4158908
-0.095516674 -0.022899501 1.1576762 4028609
0.12089912 -0.018895082 1.1512362 4817874
0.12745923 -0.018468089 1.1458684 5145287
-0.099556305 -0.018706538 1.1521215 4487616
-0.094164923 -0.015850537 1.1562474 4356800
0.11168533 -0.006641306 1.1510956 5276623
0.11803029 -0.0095053241 1.1472716 5604813
0.12743358 -0.010466136 1.1456826 6720449
-0.092236839 -0.0087946728 1.1574736 5671109
0.10969739 -0.0011181682 1.1525152 5802961
0.11599553 -0.0017430112 1.1482902 6787017
0.033223812 0.012495682 1.1545929 12972031
-0.022322306 0.020804651 1.1537011 5869264
0.010206567 0.018104665 1.1550319 7515376
0.017706651 0.017950691 1.1548731 8764660
0.027320644 0.017783538 1.1546693 10146554
0.033980392 0.016941838 1.1545349 10870005
-0.080381058 0.027404696 1.1488779 8028800
-0.075270459 0.027917191 1.1487639 7305855
-0.017924884 0.022092365 1.1555955 5671370
-0.014609873 0.022187285 1.1555238 5869265
0.0085951872 0.022851735 1.1550218 6988787
0.013015199 0.022978283 1.1549261 7185904
0.098950587 0.034287885 1.1529837 6314850
-0.074195258 0.032952264 1.1486936 8028802
0.095754638 0.037735999 1.1530195 6117979
0.071336731 0.047494084 1.1454474 5593178
0.073531508 0.047556922 1.1453999 5658970
-0.010926429 -0.2195619 1.1617178 2973083
-0.0053504109 -0.22051218 1.1616076 2973595
0.0040744124 -0.21980599 1.1620665 2973598
-0.031204669 -0.20904319 1.1620523 2842012
-0.024789052 -0.21024692 1.1619265 2776219
-0.015349725 -0.21244468 1.1632696 2907806
-0.0056861471 -0.21353343 1.1647079 2907807
0.0048847953 -0.21376999 1.1646597 2973599
0.01363536 -0.21120264 1.1617813 3039136
0.024357971 -0.20989925 1.1622068 3170723
0.034312606 -0.20950064 1.1613235 3236770
0.044077933 -0.20876597 1.1604412 3170979
0.05311285 -0.20829383 1.1602436 3170980
0.059717759 -0.20643979 1.1600851 3171236
-0.042548493 -0.20048851 1.1622143 2842012
-0.03574729 -0.20254746 1.1635432 2842011
-0.026052544 -0.20452079 1.1643618 2842012
-0.017695101 -0.20571803 1.1657333 2907805
0.028796759 -0.20577899 1.1647406 3302309
0.034747399 -0.20446149 1.1634579 3302308
0.043363057 -0.20410554 1.161913 3171236
0.054109782 -0.20438048 1.1601856 3171236
0.064725168 -0.20268789 1.1616099 3105443
0.074471951 -0.20049113 1.1607141 3171492
0.080941647 -0.19843251 1.1595564 3040420
-0.063935541 -0.19000155 1.1625727 2841497
-0.055074289 -0.19249338 1.1629403 2907291
-0.046535984 -0.1948888 1.1641297 2907549
-0.039785899 -0.19586276 1.1661128 2907551
0.07743115 -0.19324894 1.1635838 3040420
0.084349968 -0.19122529 1.1615217 3106213
0.092046261 -0.1884211 1.159225 3106214
-0.065582313 -0.18354192 1.1645477 2907290
-0.058884405 -0.18621744 1.1659302 2973340
0.08830072 -0.18402773 1.1632649 3302823
0.094222575 -0.18149342 1.1607138 3237030
0.10026438 -0.17791079 1.1607289 3237031
-0.083360702 -0.1705789 1.1628052 2841497
-0.074857131 -0.17381176 1.1631874 2842012
-0.068623893 -0.17584865 1.1655407 2907547
0.10520687 -0.17008935 1.1596949 3368361
0.11017462 -0.16670224 1.1586336 3237285
-0.085009597 -0.16470645 1.1627853 2973085
-0.078168094 -0.16471143 1.1653767 3039135
0.10729071 -0.16290005 1.1586595 3368615
0.11373077 -0.15937763 1.1592163 3237799
0.11818703 -0.15592843 1.1583612 3303337
-0.0927746 -0.15197954 1.1628317 2973857
-0.087214068 -0.15533802 1.1643003 3039137
-0.081206992 -0.15602578 1.1666235 3104930
0.11552974 -0.15181208 1.1603798 3172264
0.12163699 -0.14875725 1.1588869 3238059
-0.094180204 -0.14380558 1.1637851 3039650
-0.090033963 -0.14725718 1.1667297 3105700
0.1246248 -0.13891132 1.1602181 3369132
0.12879564 -0.13897564 1.1579752 3434410
-0.09716621 -0.13531843 1.1644837 3171236
0.12630369 -0.13072875 1.1611518 3500719
0.12958184 -0.12834042 1.1598589 3435183
-0.10469381 -0.12346249 1.1628183 3302823
-0.099931501 -0.12528306 1.165401 3171495
0.13004853 -0.11822736 1.1595721 3566514
-0.10665724 -0.11486731 1.1642344 3368873
-0.10290901 -0.11592165 1.1659101 3368875
0.1324759 -0.10897017 1.1584148 3697588
-0.10779606 -0.10581958 1.1653862 3303850
0.13382216 -0.09930516 1.1609246 3763892
0.13695247 -0.098562397 1.1574212 3698099
-0.10945573 -0.09566693 1.1642593 3435181
-0.10353852 -0.095966004 1.1665363 3435438
0.13456155 -0.08914841 1.1613848 3829942
0.13732968 -0.088545196 1.1584622 3764149
-0.10869045 -0.085964456 1.1645519 3501229
0.13417664 -0.075794466 1.1612676 3896505
0.13860628 -0.078570463 1.1590166 3830455
-0.10838652 -0.07609497 1.163991 3632563
-0.10421211 -0.07259661 1.1663312 3567542
0.13155767 -0.068730742 1.1586851 4027837
0.13685699 -0.072148658 1.1571751 3896505
-0.10792217 -0.06602101 1.1636813 3829940
-0.10440456 -0.065919638 1.1662725 3699127
0.1298065 -0.059152693 1.159871 4291009
-0.10780741 -0.055877399 1.1630501 3895737
-0.10408494 -0.054932121 1.1661624 4027576
0.12979901 -0.049115989 1.15911 4422849
-0.1068355 -0.049158115 1.1621659 4158911
-0.10241444 -0.045313347 1.1640358 4093372
0.12945144 -0.039382193 1.1585258 4817355
-0.098948963 -0.035815459 1.1634109 4093630
-0.094240643 -0.032216206 1.1657386 4094397
0.1217091 -0.028845586 1.1593146 5080014
0.12626536 -0.031939276 1.1570235 4883149
-0.0970833 -0.028160073 1.1617602 4028348
-0.092621945 -0.025460742 1.1631399 4028864
0.11693236 -0.019338869 1.1588827 4949202
-0.089331008 -0.015767261 1.1632968 4029123
-0.085132547 -0.01339297 1.1653671 3963586
0.11058579 -0.0096441433 1.1598164 5146069
0.11409542 -0.013973802 1.1571147 5080276
-0.088788196 -0.0079436973 1.161393 5342665
-0.081646718 -0.0055540428 1.1652191 4882633
-0.018336097 2.835691e-005 1.1638138 6070261
-0.01166039 0.00021950155 1.1636693 6528744
-0.004984688 0.0004106462 1.163525 8827627
0.01059195 0.00085666031 1.163188 10340848
0.019352272 0.00047106296 1.1630044 8895736
0.02687465 -1.360476e-005 1.1628482 6266608
0.10117546 0.0028847158 1.1602331 5475287
0.10572039 -0.00051903725 1.1585009 5475028
-0.078390941 0.00051490217 1.1630919 5999306
-0.071766235 0.0018145368 1.1629381 5540557
-0.063313499 0.0053868666 1.1620572 5803727
-0.050597094 0.0075195953 1.1644328 4950220
-0.041607566 0.0066520199 1.1642488 5016280
-0.031878874 0.0063157305 1.163644 5411294
-0.021875979 0.0065724254 1.1615874 5806569
-0.011858677 0.0068864599 1.1630108 7120874
-0.0022845268 0.0079129413 1.1633968 12379901
0.0082648527 0.0076683462 1.1606467 13891069
0.018067069 0.0077043548 1.1597631 12969723
0.028028209 0.0082344785 1.1604297 9946095
0.038109288 0.0082949996 1.1606165 10013177
0.047780603 0.010451101 1.1601487 7449069
0.054426394 0.012506753 1.1621419 5411552
0.098122299 0.0066746026 1.1587625 6526426
-0.048761666 0.012522124 1.1643466 6264275
-0.041248098 0.013519183 1.1616759 5803990
-0.031726755 0.014408946 1.1599637 5345755
-0.021762079 0.015956543 1.1597363 5412839
-0.012183871 0.016828522 1.1600236 5676266
-0.0030747633 0.016188361 1.1621927 7253489
0.0067173978 0.016270861 1.1601251 8436213
0.016733905 0.014316626 1.1589292 12051453
0.031020571 0.019165449 1.1585784 10082302
0.038877472 0.018650465 1.1584153 10607102
0.047381587 0.018048301 1.1582394 7515119
0.054462135 0.017648809 1.1594255 6068200
-0.010133263 0.022426814 1.159427 6001365
-0.0056980215 0.022553809 1.1593311 6396124
0.1065691 0.031540066 1.1568478 6447199
-0.0022091344 -0.20957559 1.1694399 3039391
0.0053451424 -0.20877378 1.1707714 3039135
0.016770078 -0.20903216 1.1690292 3104930
-0.031558022 -0.19924039 1.1699699 2776478
-0.02511668 -0.19993445 1.1718394 2842271
-0.01512586 -0.20126931 1.1738209 2907807
-0.0058396813 -0.20285898 1.1741513 2908063
0.0042211637 -0.20341131 1.1750462 2973600
0.014497773 -0.2021383 1.1743479 3105187
0.024390461 -0.2015118 1.1732107 3236773
0.034036733 -0.19990167 1.1723089 3237029
0.044981681 -0.19967334 1.1721395 3171237
0.054605901 -0.20036808 1.1696398 3171236
0.064063579 -0.19854212 1.1688435 3105444
0.072843745 -0.1968098 1.1677164 3171493
-0.043932043 -0.19069283 1.1733549 2841758
-0.035753481 -0.19275993 1.1739997 2907551
-0.026756207 -0.19358456 1.1766396 2842271
-0.016017197 -0.19445594 1.177595 2908064
-0.0092405621 -0.1953871 1.177459 2973857
0.01211617 -0.19477558 1.1769969 3105444
0.024951361 -0.19340789 1.1767099 3237030
0.034990557 -0.1935434 1.1756964 3302823
0.044621427 -0.192487 1.1753576 3171495
0.053927302 -0.19081473 1.1746746 3105703
0.06363456 -0.19079736 1.1742584 3105703
0.073380895 -0.19003654 1.1721424 3105702
0.081578404 -0.18732089 1.1691552 3105958
-0.055459589 -0.18333542 1.1719786 2973598
-0.047326356 -0.18478593 1.1761726 2907551
-0.037344061 -0.18634647 1.1779746 2908065
0.074992687 -0.18155031 1.1755292 3237288
0.083735093 -0.18060745 1.1728884 3302823
0.092271388 -0.17834559 1.1696998 3237287
-0.065157436 -0.1723296 1.1732929 3105183
-0.057531908 -0.17545822 1.1764207 2974112
-0.049132794 -0.17740127 1.1781424 2842786
0.08508388 -0.17378324 1.1752406 3171750
0.093576111 -0.16994026 1.1736894 3172008
0.10149459 -0.16799536 1.1691674 3303081
-0.073603444 -0.16290417 1.1711937 3104930
-0.067185424 -0.16498986 1.1770778 3170978
0.095851392 -0.16151589 1.1748953 3303337
0.10353307 -0.15979525 1.1724644 3368873
0.1103647 -0.15832072 1.1690991 3237543
-0.083757125 -0.15038434 1.1732935 3040164
-0.076905847 -0.15393671 1.1743037 3105701
-0.070312649 -0.15812956 1.1784139 3302822
0.10489329 -0.15071245 1.1746006 3303597
0.11212905 -0.14811513 1.1700567 3238059
0.11907528 -0.14487112 1.168241 3303852
-0.086356126 -0.14411184 1.1744015 3106213
-0.078446388 -0.14589171 1.1784726 3172007
0.11285625 -0.13898459 1.1741202 3369387
0.12070192 -0.1385538 1.1701474 3435181
-0.093852445 -0.13410626 1.1720226 3237030
-0.087171219 -0.13455096 1.1762185 3237800
-0.080648392 -0.13779721 1.1784437 3303594
0.11450412 -0.13288444 1.1742277 3500972
0.1227158 -0.12839772 1.1707592 3500976
0.12721159 -0.1254057 1.1658838 3500977
-0.095219918 -0.1248688 1.1737432 3237545
-0.090425797 -0.12636241 1.1776559 3303852
0.12429792 -0.11880182 1.1738862 3566772
0.12754239 -0.11907496 1.1698183 3566515
-0.098007485 -0.11523394 1.1738513 3369389
0.12487966 -0.10924792 1.1737839 3763639
0.12810987 -0.10826229 1.1688154 3763639
-0.10522769 -0.10161471 1.1719604 3435181
-0.099683121 -0.1051165 1.1751138 3435438
0.12520255 -0.098147623 1.1736728 3895737
0.13007019 -0.097933598 1.1683888 3764149
-0.10489149 -0.095116608 1.172959 3435438
-0.09941829 -0.095555931 1.1769089 3501231
0.12504052 -0.092526361 1.1736233 3961530
0.13019095 -0.088442251 1.1682971 3961528
0.13721718 -0.084887132 1.1652893 3895735
-0.10486397 -0.085855402 1.1734716 3501489
-0.10054352 -0.085484199 1.1762589 3501490
0.12452205 -0.074538335 1.1734655 4159679
0.13026337 -0.079093643 1.1686569 3962041
0.13715281 -0.082653865 1.1652696 3895735
-0.10556559 -0.078540117 1.1724175 3501747
-0.1007949 -0.075188756 1.1749516 3567541
0.12358906 -0.068189025 1.1734257 4225473
0.12720935 -0.068622902 1.1693512 4159424
-0.099337168 -0.065000676 1.1737577 3764919
0.12308364 -0.059327081 1.1733532 4422597
0.1269187 -0.058538906 1.1692628 4357059
-0.099130064 -0.055220023 1.1734899 3896505
-0.094286717 -0.054924421 1.1779563 3962298
0.1226527 -0.048712727 1.1732627 4685767
0.12662804 -0.048454914 1.1691742 4422851
-0.097971737 -0.046073463 1.1715502 4027836
-0.092898242 -0.044116475 1.1767339 4028094
0.12042845 -0.038197301 1.1710932 4948684
0.12627405 -0.03996966 1.1661012 4751818
-0.09654396 -0.037937719 1.1698427 4093632
-0.090950347 -0.0342751 1.1755366 4094399
0.11343019 -0.027973443 1.1732649 5080784
0.1176685 -0.028961807 1.1683823 5211343
-0.087978795 -0.025757261 1.1739101 4094402
-0.081486478 -0.022483192 1.1763778 4226244
-0.075026169 -0.020617537 1.1772225 4620744
-0.021104725 -0.017948411 1.1760453 5412064
0.0013760459 -0.017304704 1.1755589 6463211
0.0095532313 -0.020909429 1.175418 6397929
0.019216117 -0.019991763 1.175203 6397929
0.028390002 -0.017817125 1.1749865 6003432
0.11010729 -0.018808015 1.1707491 5081042
0.11528698 -0.021814272 1.1651652 5081041
-0.080462098 -0.014684014 1.1711478 4160963
-0.072304681 -0.013467506 1.1762397 4752075
-0.057333194 -0.009984307 1.1767445 4949201
-0.05057276 -0.010353334 1.1766036 5016022
-0.040979475 -0.011204593 1.1757396 5213659
-0.031141063 -0.011832334 1.1749711 5411552
-0.021269543 -0.01232814 1.1751957 5740773
-0.011150405 -0.012037486 1.1757771 6003172
-0.0010438263 -0.011748567 1.1751583 6331366
0.0089916866 -0.011458501 1.1723404 6989552
0.019095948 -0.011169873 1.1725218 6792432
0.029161833 -0.01087983 1.1716539 5937640
0.037666179 -0.0097013265 1.1737118 5806054
0.048358828 -0.008083187 1.1744684 5674725
0.055070654 -0.0067658126 1.1743126 5674983
0.10094813 -0.0079838485 1.1733438 5146841
0.1068998 -0.0099264383 1.167519 5080789
-0.077349506 -0.0060964897 1.1691334 4554184
-0.073864542 -0.0051436275 1.1720508 4751049
-0.058564886 -0.0044112429 1.1747179 4818129
-0.051143974 -0.0042034984 1.1737572 5015507
-0.041682571 -0.0039487258 1.1701517 5147609
-0.031608962 -0.0036672354 1.1686335 5346018
-0.021907529 -0.0037489384 1.1710387 5937898
-0.011438688 -0.0041939542 1.1710415 6462952
-0.0010294374 -0.0031557009 1.1699202 8303605
0.0083199516 -0.0029999688 1.1687028 8501495
0.018181991 -0.0037030876 1.1676853 7252467
0.029486146 -0.0028290972 1.168275 6069484
0.03861583 -0.0014720932 1.1689286 6135528
0.048798881 -0.0015372038 1.1718085 5741031
0.058210813 -0.0010578334 1.1731915 5543655
0.067667983 0.0005190745 1.173975 5477092
0.07768847 0.0021331236 1.1737456 5739747
0.089060932 0.0022087097 1.173502 5280481
0.098272324 -0.00018621236 1.1696343 5015513
0.10376538 -0.0020220131 1.1672258 4949463
-0.070844077 0.00079513341 1.1689297 4818122
-0.061445095 0.0020576268 1.168717 5147606
-0.052783251 0.0030506775 1.1685226 4818639
-0.044049889 0.001562342 1.16835 5344472
0.00059099216 0.0033993348 1.1673789 12971007
0.0050727837 0.0029688776 1.1672872 12905215
0.029634114 0.0036721528 1.1667558 5807584
0.043031208 0.0040557534 1.1664659 6004710
0.049064212 0.0051864088 1.1663264 5807083
0.057824805 0.007932879 1.1682473 5477863
0.066390127 0.0077647865 1.1705999 5542628
0.078351416 0.0051525831 1.1737032 5673698
0.088825189 0.0073988512 1.1719579 5804766
0.094386719 0.0055262372 1.1653548 5147865
0.060572147 0.015733592 1.1659814 5412324
-0.0023496039 -0.19807571 1.1813381 3039650
0.0041138055 -0.19853579 1.1812043 3039650
-0.022878421 -0.19076061 1.181708 2842271
-0.01611135 -0.19056685 1.1815616 2973857
-0.0057342481 -0.19135049 1.1826108 2973857
0.0040891375 -0.19281164 1.183678 3039395
0.014670521 -0.19057989 1.1826823 3171237
0.023914961 -0.18890271 1.1817577 3237030
0.03424833 -0.188052 1.1820008 3302569
0.042581797 -0.18795644 1.1816167 3237546
-0.042837083 -0.18084861 1.1820413 2908065
-0.035236537 -0.18159869 1.181886 2973857
-0.026487814 -0.1831039 1.1827134 2973857
-0.016668918 -0.18471481 1.1836367 2973858
-0.0083174407 -0.18528856 1.1853465 3105444
0.023368828 -0.18438128 1.1846609 3237030
0.03501907 -0.18253729 1.1843947 3302825
0.043925408 -0.18182966 1.18389 3171754
0.053755291 -0.18208158 1.1819896 3171752
0.064067625 -0.18136784 1.1811742 3171753
0.072401412 -0.17801389 1.1805527 3237546
0.080525689 -0.1753809 1.1793541 3303592
-0.054280631 -0.17171425 1.1822 2908579
-0.045986839 -0.17363001 1.1840413 2908579
-0.036096632 -0.17480937 1.1847504 3105444
-0.027376914 -0.17631878 1.1856694 3105443
0.067242272 -0.17406264 1.1836265 3303339
0.075176626 -0.17157283 1.1820999 3303082
0.083462574 -0.16924465 1.1798053 3237545
0.089288346 -0.16609809 1.1790797 3303850
-0.063628539 -0.16069201 1.1822962 3302822
-0.056848168 -0.16478528 1.1844404 3040165
-0.049578913 -0.16834518 1.1860689 3040167
0.078297809 -0.16468365 1.1833022 3303598
0.084221445 -0.16052565 1.1821952 3238061
0.092679687 -0.15823731 1.1800447 3303596
0.10027418 -0.15562259 1.1787465 3369131
-0.073706657 -0.15044333 1.1824152 3171751
-0.06715031 -0.15387771 1.1837195 3368615
-0.060090035 -0.15731815 1.1861899 3171751
0.10193036 -0.14898431 1.1801491 3369134
-0.075883597 -0.14344946 1.1823959 3369130
-0.06964802 -0.14520538 1.1852801 3434922
0.10281015 -0.1392764 1.1815871 3435183
-0.077827059 -0.1348916 1.1836908 3434923
0.1053595 -0.1321044 1.1816176 3501232
0.11201243 -0.12878563 1.1808324 3435694
0.11863468 -0.12687209 1.178084 3501232
-0.086372644 -0.12399123 1.1834375 3369646
-0.080513984 -0.12756436 1.1850131 3435182
0.11550166 -0.11943915 1.1820822 3567282
0.11954247 -0.11880778 1.1798075 3567027
-0.095145889 -0.11154253 1.1825078 3501231
-0.09039183 -0.11531442 1.1851923 3435439
0.1152733 -0.11151607 1.1820126 3829686
0.12025554 -0.10857518 1.1801002 3829431
-0.095243432 -0.10815835 1.1824781 3501231
-0.090917319 -0.10477833 1.184021 3567024
0.12230081 -0.099129014 1.1804124 3830201
-0.095649861 -0.094057612 1.1823542 3632818
-0.092358932 -0.094666556 1.1842902 3698612
0.12409717 -0.088468701 1.1796069 3896507
-0.095926233 -0.084469102 1.1822701 3633333
-0.092018306 -0.084528491 1.1849878 3764919
0.12362801 -0.078274161 1.1790211 4093886
-0.096630983 -0.075683154 1.1822026 3633334
-0.092554204 -0.074604452 1.1853061 3830201
0.1203643 -0.068732828 1.1797235 4291523
-0.09246067 -0.064309224 1.1836736 3896506
0.11955961 -0.058272783 1.17902 4619975
-0.089456715 -0.054668151 1.1835666 4028348
0.11341371 -0.046999633 1.1814461 5146320
0.11788206 -0.049102247 1.1803701 4883148
-0.088041782 -0.045221448 1.1820185 3962814
-0.083048515 -0.043696344 1.1844697 3963072
0.11213585 -0.038218737 1.1798905 5146577
0.11590078 -0.039751485 1.1778239 5080527
-0.086935155 -0.03611666 1.1816236 4028607
-0.080765091 -0.034173809 1.1836073 4291526
-0.030893387 -0.030741192 1.1843767 5147865
-0.023431005 -0.03030096 1.1842132 5344731
-0.0071613081 -0.028928861 1.1838526 5345501
-0.00037139282 -0.028734446 1.1837057 5739743
0.0098378733 -0.030686401 1.1821722 5936862
0.018894644 -0.030432403 1.1823097 5871068
0.029084194 -0.029023826 1.183079 5739228
0.04715801 -0.027373523 1.1826774 5213656
0.1100026 -0.029395446 1.1797532 4949970
-0.079248838 -0.026695311 1.1813709 4422856
-0.07092014 -0.021676593 1.1829643 4686797
-0.060585313 -0.02025044 1.182912 4884690
-0.050122082 -0.021376543 1.1841995 4950486
-0.039669171 -0.021843895 1.183147 5213659
-0.03111109 -0.022787236 1.1811057 5279707
-0.020915365 -0.023629546 1.181296 5345244
-0.010805558 -0.021707937 1.1809729 5411808
-0.00092461705 -0.022541001 1.1805676 5806052
0.00847637 -0.02540651 1.1794844 6068964
0.020517558 -0.025438063 1.1792274 6068963
0.0304993 -0.022762522 1.1799122 6003173
0.038919915 -0.02079457 1.180591 5608417
0.049126931 -0.020506337 1.1809703 5411038
0.056015484 -0.020323083 1.1824218 5279709
0.10060871 -0.017296918 1.1805173 5212630
0.10631739 -0.020740859 1.1786836 5015248
-0.067425266 -0.015913598 1.1810169 4949712
-0.060658187 -0.015719831 1.1808705 4949713
-0.050507575 -0.015429184 1.1806508 5016279
-0.041098028 -0.015536085 1.1804508 5213659
-0.032429531 -0.016040534 1.1802703 5345501
0.040300239 -0.013393551 1.1786915 5871590
0.048742831 -0.012587316 1.1785035 5871847
0.058971897 -0.010043375 1.1802616 5543139
0.066226371 -0.0087036118 1.1803797 5280225
0.090770468 -0.0079999343 1.1815635 5411294
0.096614771 -0.0092689767 1.1789044 5279196
0.068236262 -0.0035617277 1.1780022 5411556
0.077774189 -0.0015951321 1.1777799 5412066
0.089052632 -0.0012721941 1.1775359 5477344
0.095884733 -0.0033345595 1.1774093 5213404
0.0050675338 -0.18814729 1.1890886 3105189
-0.01551293 -0.180259 1.1904544 3039906
-0.0057474673 -0.18211095 1.1906918 3039908
0.0038551735 -0.18298076 1.1924001 3105447
0.014380099 -0.18192503 1.1895813 3105702
0.023406059 -0.18042365 1.1886241 3171750
0.032374613 -0.17975353 1.1884261 3237289
0.043778863 -0.17756708 1.188162 3237548
0.053998001 -0.17727447 1.1879408 3171752
0.063081674 -0.17701438 1.1877444 3171752
-0.043498486 -0.16960928 1.189952 3039909
-0.035613835 -0.17010725 1.1906774 3105701
-0.027350878 -0.17250691 1.1921804 3105443
-0.01757119 -0.17760989 1.1934743 3040163
0.013162732 -0.17581753 1.1928008 3105960
0.024523284 -0.17437716 1.1925445 3105958
0.033554703 -0.17261359 1.1915348 3237545
0.043892398 -0.17126581 1.1902062 3237547
0.053909317 -0.17067039 1.1894811 3237544
0.063962378 -0.17015448 1.1893457 3237545
0.072530434 -0.16792914 1.1881239 3303339
-0.055011243 -0.16050504 1.1901125 3172009
-0.046451472 -0.16340435 1.1923574 3105961
-0.037023403 -0.16533712 1.1937746 3171752
0.04703857 -0.16435567 1.1919693 3303337
0.053874172 -0.16415994 1.1918213 3303593
0.063936666 -0.16289432 1.1915945 3303594
0.073036328 -0.16002899 1.1901227 3303596
0.079752035 -0.15835124 1.1872128 3238062
-0.062637232 -0.15219882 1.1901973 3434409
-0.056788199 -0.15377018 1.1929114 3237547
-0.048360884 -0.15589039 1.193928 3237805
0.07381396 -0.15269162 1.1912875 3238318
0.082996704 -0.14950447 1.189941 3238572
0.093072496 -0.14901617 1.1880407 3434926
0.099526048 -0.14823751 1.1866952 3369134
-0.065210596 -0.14322618 1.1913991 3435179
-0.059163138 -0.14504382 1.1936123 3369388
0.08746098 -0.14267062 1.1909018 3500977
0.092955947 -0.13898169 1.1897495 3435186
0.098347075 -0.13887526 1.1866325 3500720
-0.074035272 -0.1327343 1.1912583 3566511
-0.068217866 -0.13543323 1.1928264 3566767
-0.060906425 -0.13779546 1.1940261 3500977
0.09420982 -0.13130547 1.1901506 3501234
0.10196484 -0.12866487 1.1872095 3501490
-0.084024787 -0.11984945 1.1903504 3566770
-0.077081054 -0.12421293 1.1928437 3632306
-0.070283316 -0.12894057 1.1941432 3632563
0.10355513 -0.11993571 1.1889322 3699127
0.11091193 -0.11845601 1.1866429 3633076
-0.085372232 -0.11428861 1.1913272 3566770
-0.079280928 -0.11498678 1.1942043 3763892
0.1042164 -0.1108292 1.1902446 3633335
0.110774 -0.10846765 1.1876372 3764407
-0.085755914 -0.10419966 1.1930411 3698868
-0.081371278 -0.10467561 1.1941521 3699126
0.1044412 -0.098848321 1.1901271 3962811
0.11095444 -0.098760523 1.1888202 3830969
0.1186207 -0.098783962 1.1858226 3830714
-0.087255709 -0.094299287 1.1911026 3699126
-0.081912741 -0.094680727 1.1940697 3830712
0.11137874 -0.08879929 1.1892843 4028606
0.11946625 -0.088692613 1.1857097 3962300
-0.086934626 -0.084795013 1.1916835 3830970
-0.081994459 -0.084310651 1.1939741 3962813
0.11140213 -0.079731405 1.1897988 4291522
0.11918946 -0.079127505 1.1859895 4094399
-0.087523602 -0.07473807 1.191716 3962044
-0.082592092 -0.074878536 1.1938982 4093630
0.11266989 -0.068948805 1.1894037 4554438
0.11745457 -0.069590166 1.1855732 4357059
-0.087197691 -0.064684585 1.1912335 4093886
-0.082585648 -0.063799948 1.193794 4291009
0.11052138 -0.058467209 1.1887287 4686026
0.11648306 -0.058414236 1.1854889 4685769
-0.085825145 -0.057387318 1.1898019 4159935
-0.080836549 -0.054749895 1.1925285 4225985
0.10299607 -0.048711073 1.189687 5015248
0.10905932 -0.049835745 1.1869006 5014991
-0.078121006 -0.044856671 1.1916378 4292037
-0.072648056 -0.04689781 1.1934228 4619977
-0.050059788 -0.039408494 1.1928699 5279449
-0.042084917 -0.039180148 1.1926973 5016538
-0.029520141 -0.039960798 1.1924362 4950743
-0.0199556 -0.041364033 1.192245 4950488
-0.010868328 -0.040947303 1.1920469 5147351
-0.00045241788 -0.039698709 1.1918126 5278422
0.010157527 -0.041718125 1.1907158 5212886
0.019465931 -0.040796269 1.189647 5278423
0.029419165 -0.039669193 1.1899238 5147094
0.04035224 -0.039752215 1.1909413 4885460
0.04977446 -0.037984189 1.1899959 4950741
0.058880389 -0.03720152 1.1905215 5016279
0.10119336 -0.03891781 1.1882331 5212370
0.10856247 -0.039886922 1.1854841 5212369
-0.076243646 -0.037833966 1.191414 4423370
-0.07427223 -0.034584802 1.1909412 4554187
-0.049743816 -0.034377322 1.1925491 5147610
-0.039949618 -0.033382535 1.1905967 5081818
-0.030783752 -0.035395686 1.1904198 5016538
-0.019678427 -0.033639364 1.1902994 5278938
-0.010595469 -0.032772593 1.1900971 5344730
-0.00012945384 -0.03336107 1.1888121 5673948
0.010132445 -0.03531732 1.1875442 5805277
0.019216122 -0.035057224 1.1873478 5541848
0.029402524 -0.033628926 1.1871166 5475544
0.03955619 -0.03106498 1.1868756 5213397
0.050237328 -0.031376205 1.1873564 5082070
0.059935898 -0.030301645 1.1888336 5016536
0.06884037 -0.027858093 1.1902208 5213915
0.079553872 -0.026573844 1.1899798 5279453
0.090503953 -0.026716463 1.1897472 5213659
0.099985182 -0.029379927 1.1879692 5212628
0.1065483 -0.029146783 1.1854262 5146833
-0.074153438 -0.028637804 1.1892824 4554443
-0.048998617 -0.026098959 1.1887211 5016281
-0.041705482 -0.026799418 1.1885718 5147611
-0.010567697 -0.026817136 1.1879067 5411294
0.060078345 -0.020247869 1.1863354 5148123
0.068799734 -0.020000964 1.1863469 5213915
0.078868888 -0.019929007 1.1876706 5213917
0.089628942 -0.019549981 1.1880139 5213659
0.097637057 -0.021071464 1.1858741 5212887
0.090160862 -0.01256682 1.1856205 5279708
0.094702698 -0.01243677 1.1855223 5411037
-0.011813279 -0.17814425 1.1983576 3106213
-0.00609315 -0.17798045 1.1982338 3105959
0.0052025188 -0.17831141 1.1979957 3105706
0.015643336 -0.17735806 1.1977636 3105960
-0.022879405 -0.17158997 1.1985325 3105700
-0.015402609 -0.17262024 1.1991326 3105957
-0.0062456485 -0.17235805 1.1989346 3106216
0.0040800283 -0.17217593 1.1995624 3106217
0.014696521 -0.1713579 1.1991564 3171752
0.02256795 -0.17064112 1.1986437 3303337
0.033683896 -0.16768 1.1972872 3369130
0.040548049 -0.16748346 1.1971387 3369132
-0.035789765 -0.16073954 1.1990398 3171753
-0.026000602 -0.16285491 1.2012378 3171752
-0.015661756 -0.16282409 1.2030972 3172010
-0.0064251497 -0.16383186 1.2038596 3172012
0.0036116047 -0.1631223 1.2044342 3237802
0.014241148 -0.16212007 1.203652 3303338
0.023444502 -0.161883 1.2036532 3369133
0.033709545 -0.16136882 1.2017086 3369388
0.043813974 -0.16074911 1.2007961 3303853
0.053016417 -0.15932627 1.1985461 3369643
0.06306231 -0.1582451 1.1968062 3303851
-0.053855702 -0.14957321 1.1989875 3303598
-0.045633398 -0.15215315 1.2005508 3303341
-0.03695076 -0.15362038 1.2038085 3303340
-0.027509091 -0.15476982 1.2064755 3369132
-0.019288586 -0.15642086 1.2063154 3303600
0.014108961 -0.15546457 1.2055929 3303598
0.026776999 -0.15510185 1.2053187 3435186
0.034262653 -0.15488751 1.2051568 3369391
0.044051588 -0.15460722 1.204945 3369392
0.053761303 -0.15141718 1.204092 3369390
0.06321653 -0.15010303 1.2002921 3435184
0.072469085 -0.14824648 1.1962758 3369392
-0.054992169 -0.14259228 1.1997464 3369646
-0.047695711 -0.1446701 1.2044113 3303853
-0.04028371 -0.14779955 1.206683 3173034
0.055479594 -0.14321303 1.2045938 3566773
0.063608356 -0.14167517 1.2037388 3566516
0.073296696 -0.13953558 1.2005775 3500977
0.083168276 -0.13992596 1.1976538 3500975
-0.065515637 -0.13092968 1.1990614 3632562
-0.056489892 -0.13372557 1.2018957 3501236
-0.048877813 -0.13365266 1.2062892 3501494
0.075337291 -0.13036703 1.2040488 3698612
0.082858473 -0.13050793 1.2015251 3567283
0.091586851 -0.12783457 1.1986097 3567283
0.098850057 -0.12458736 1.1954899 3501747
-0.072984628 -0.12149124 1.1991323 3895478
-0.067279182 -0.12384924 1.2015333 3698613
-0.058279186 -0.12451783 1.205515 3633080
0.076585934 -0.12370263 1.2039595 3699128
0.083049484 -0.12032516 1.2037896 3830713
0.092487589 -0.11967595 1.2023816 3699126
0.099122986 -0.11816649 1.1954237 3633333
-0.074522957 -0.11351898 1.1990902 3961271
-0.067659959 -0.11374273 1.2039471 3896247
-0.060791194 -0.1161081 1.2068233 3764921
0.082742944 -0.11338161 1.2037309 3962300
0.093516938 -0.1105636 1.2030035 3896506
0.10088123 -0.10849943 1.1972959 3764920
-0.076121151 -0.10423001 1.2005376 3830712
-0.069168396 -0.10356572 1.2055509 4093627
0.096177503 -0.099624351 1.2033147 4028352
0.10143631 -0.098910101 1.1978607 3962812
-0.076807499 -0.093924977 1.2009555 3962556
-0.070223615 -0.094827414 1.2063804 4028606
0.095351286 -0.089239791 1.2032347 4357317
0.10167914 -0.089280538 1.1990988 4225985
0.10688091 -0.085421048 1.1949502 4225985
-0.076575674 -0.084906287 1.2008659 4028606
-0.071679547 -0.084909759 1.2067629 4094655
0.095646299 -0.081194617 1.2031528 4554695
0.10131783 -0.078911051 1.1984088 4554182
0.10740173 -0.077008091 1.1948601 4619462
-0.077597342 -0.074291475 1.1992581 4159424
-0.069521435 -0.073021501 1.205374 4160448
-0.063237652 -0.071218602 1.2064539 4554440
0.095721819 -0.067819871 1.2030255 4620747
0.10127139 -0.06869778 1.2006646 4686026
0.10756323 -0.069368884 1.1947849 4619977
-0.077266112 -0.064618751 1.1986893 4291265
-0.069095165 -0.064350232 1.2037637 4357573
-0.063436851 -0.064307451 1.2063932 4751563
0.010574507 -0.059498373 1.2047666 4818903
0.018229969 -0.058510631 1.2045938 4819160
0.093633518 -0.059348881 1.2029905 4752590
0.10100389 -0.059500113 1.2005838 4817869
0.10618831 -0.061391953 1.1947392 4752076
-0.075555965 -0.05498042 1.1985623 4291778
-0.069510445 -0.054074902 1.2020046 4554440
-0.063669257 -0.056244444 1.2063224 4883149
-0.045379989 -0.048678976 1.2018595 5674209
-0.039640822 -0.048514646 1.2017353 5082331
-0.028162519 -0.051010009 1.2033807 4950745
-0.018851699 -0.052501585 1.2007284 4884953
-0.0096743368 -0.052231412 1.2003297 4753366
0.00064219441 -0.050828319 1.2012964 4884692
0.011251442 -0.052155286 1.2002375 4884692
0.019999232 -0.05117644 1.2006966 4884692
0.03020848 -0.049671646 1.2029212 4950484
0.041130103 -0.050325159 1.2009156 4950488
0.049918078 -0.049804766 1.2017167 4950489
0.060499243 -0.048044536 1.2025254 5411037
0.069491945 -0.047532156 1.2033954 5542623
0.083541423 -0.045112457 1.2030724 5213404
0.091397986 -0.047769528 1.2029295 5081558
0.099714741 -0.049793862 1.2003702 5015248
-0.070627674 -0.044369023 1.1983572 4685772
-0.048404835 -0.04325904 1.1989633 5542365
-0.039433941 -0.043182164 1.1988229 4951002
-0.030669359 -0.043968514 1.1974998 4884951
-0.021359181 -0.04557588 1.1973159 4753366
-0.0076638535 -0.044038549 1.1970088 4950484
0.0012105862 -0.044070739 1.1968195 5015763
0.031265993 -0.044069044 1.1961774 5015764
0.038130142 -0.043872502 1.1960288 4885461
0.050032429 -0.042550113 1.195762 4884950
0.060823813 -0.041160893 1.1973652 5082072
0.070224553 -0.039726447 1.2001054 5542624
0.079883337 -0.040587075 1.2023078 5279197
0.089933008 -0.039074689 1.1992781 5213144
0.097216137 -0.041417211 1.1947433 5212627
0.064178891 -0.033965141 1.1953791 5016538
0.069849543 -0.032084994 1.1952404 5213917
0.079311617 -0.029332824 1.1950123 5345245
0.089736238 -0.031339169 1.1954752 5213917
0.18109879 -0.030790977 1.2008533 13158081
-0.0064878259 -0.15885074 1.2100658 3303598
0.0062220888 -0.15848681 1.2097909 3303850
-0.035218269 -0.14903247 1.2105875 3303853
-0.025400357 -0.15034495 1.2107474 3304111
-0.015737476 -0.15217263 1.2123066 3303857
-0.0066419877 -0.15223141 1.2127577 3303856
0.0037861168 -0.15196206 1.2127825 3369903
0.014077045 -0.15016556 1.2095449 3435441
0.023164479 -0.15081848 1.2093568 3435187
0.033617526 -0.14988142 1.2091247 3500978
0.044118665 -0.14930536 1.208895 3369649
0.050773613 -0.14749554 1.2087357 3435441
-0.043598838 -0.14179298 1.2106986 3370159
-0.037029095 -0.14237595 1.2105637 3370416
-0.026624406 -0.14232121 1.2125914 3436469
-0.016188277 -0.14232121 1.2151192 3502005
-0.0069066267 -0.14205545 1.2149184 3501749
0.003635563 -0.14523774 1.214723 3501493
0.013935343 -0.1413196 1.2132158 3567542
0.023246799 -0.1411573 1.213953 3567541
0.033623409 -0.14072949 1.2125396 3633333
0.043905631 -0.14015746 1.2097512 3567541
0.052455656 -0.13919091 1.2086217 3633079
0.062423505 -0.13671935 1.2083856 3632566
-0.044228256 -0.13332911 1.2106324 3501750
-0.037314676 -0.13338014 1.2129859 3567798
-0.028853403 -0.13366081 1.2153084 3633848
-0.015195308 -0.13648587 1.2150432 3633591
-0.0082340706 -0.13628654 1.2148925 3699128
0.01377639 -0.13449493 1.2144054 3830714
0.024218239 -0.13419595 1.2141795 3764921
0.033683468 -0.1329747 1.2139658 3830712
0.04419896 -0.13176179 1.2133725 3830713
0.052888721 -0.13121542 1.212872 3830458
0.063161485 -0.13067225 1.210682 3764409
0.071197912 -0.12892187 1.2086805 3764407
-0.053553849 -0.12272391 1.2107321 3698874
-0.046874918 -0.12319755 1.2128444 3764923
-0.038243003 -0.12361909 1.2154146 3765435
-0.031705759 -0.12766755 1.2153131 3699641
0.061884165 -0.12498775 1.2132882 3896252
0.071821928 -0.12025589 1.2104117 3831226
0.079104759 -0.1193881 1.2078663 3830458
-0.056447968 -0.11335125 1.2114955 3896508
-0.047223255 -0.11301388 1.2155069 4028352
-0.039313786 -0.11348423 1.2153424 4094143
0.072786391 -0.11032674 1.2093451 4159936
0.082038008 -0.10881743 1.2077043 4028352
0.090028942 -0.10721995 1.2075185 3962559
-0.06473691 -0.10384423 1.2107936 4093628
-0.057820633 -0.10370392 1.2113948 4028352
-0.047484562 -0.10370743 1.2151124 4094401
-0.040808462 -0.1019132 1.2152655 4225986
0.07403414 -0.10109349 1.2114401 4357317
0.082253724 -0.099846497 1.2104286 4225732
0.09101066 -0.099153332 1.2074218 4159938
-0.066008046 -0.094131976 1.2107295 4028609
-0.057801828 -0.093957618 1.2119166 3963330
-0.048394278 -0.09371379 1.2153506 4160708
-0.04189048 -0.096601814 1.2152388 4292035
0.076283254 -0.087411188 1.2126274 4620236
0.081780843 -0.089998521 1.211145 4488649
0.090189695 -0.090422116 1.2073573 4357318
-0.067458533 -0.083929159 1.2106646 4160449
-0.058778226 -0.083825685 1.2141749 4160708
-0.049465053 -0.083578929 1.2152783 4489161
0.082628816 -0.080691442 1.211357 4555212
0.090784349 -0.079265952 1.2072397 4620489
-0.15970674 -0.077908993 1.2175804 14082013
-0.066295549 -0.076515518 1.2105701 4226242
-0.058209524 -0.073971659 1.2128742 4620234
-0.051123351 -0.071702868 1.2152021 5079759
-0.017101796 -0.070341587 1.2144624 6791922
-0.0090138074 -0.068948627 1.2142764 5608162
0.0014280435 -0.068649635 1.2140505 5016279
0.011572531 -0.070404798 1.2124863 5608413
0.020008057 -0.068698324 1.213654 4950485
0.026952568 -0.067918785 1.2134984 5016277
0.085063197 -0.069739044 1.2122738 4752847
0.090894245 -0.069611527 1.2089118 4620747
-0.059171565 -0.065100253 1.2113109 4948687
-0.048527695 -0.067757264 1.2151096 5408980
-0.027107416 -0.064026624 1.2126932 6134248
-0.018479275 -0.063308448 1.211925 5344990
-0.0095369108 -0.063233897 1.2120905 4884696
0.0016275682 -0.062956922 1.2119334 4818902
0.012054292 -0.063939631 1.2087779 4818646
0.021161407 -0.062588498 1.2092851 4818646
0.031273887 -0.061849952 1.210098 4884696
0.041340724 -0.061067052 1.2099113 5344733
0.050577484 -0.060786664 1.2093542 5936870
0.060339995 -0.059960522 1.2118766 5608416
