# .PCD v0.7 - Point Cloud Data file format
VERSION 0.7
FIELDS x y z rgba
SIZE 4 4 4 4
TYPE F F F U
COUNT 1 1 1 1
WIDTH 1128
HEIGHT 1
VIEWPOINT 0 0 0 1 0 0 0
POINTS 1128
DATA ascii
0.14157549 -0.032653179 1.1219485 4619197
0.1473687 -0.035561133 1.1162938 4946612
-0.12793931 -0.040174719 1.1210452 7180220
-0.12030873 -0.036751594 1.1280068 4815032
0.14118287 -0.026190378 1.1212105 5209534
0.14563246 -0.024321735 1.1137348 8425655
0.011668496 0.092362948 1.115748 9474444
-0.052994911 -0.22002056 1.1363674 8300241
-0.07164824 -0.21269011 1.1331222 7642055
-0.064080104 -0.21298671 1.1350665 4815810
-0.057136301 -0.21611367 1.136426 5210825
-0.081318408 -0.2012001 1.1328652 932767
-0.074159727 -0.20430927 1.1344031 2382238
-0.065356418 -0.20693338 1.1365241 2251168
0.11777686 -0.19552368 1.1316203 6518691
0.12352361 -0.19425702 1.1300259 11319227
-0.083297282 -0.19451907 1.1346999 2447513
-0.077699199 -0.19771969 1.1367289 2513045
0.12500691 -0.18595655 1.1302589 4617903
0.13196605 -0.1856966 1.1271261 10929103
-0.093246534 -0.18392953 1.1344129 2971544
-0.087159306 -0.18742096 1.1348443 2774929
0.12664579 -0.17661414 1.1294844 2909086
0.13144237 -0.17547771 1.1270112 3105187
-0.1013999 -0.1711057 1.1330082 2709911
-0.096496716 -0.17592487 1.1352954 2644371
0.13253535 -0.16559732 1.127474 3368356
-0.10397691 -0.1645785 1.134812 2775444
-0.098807007 -0.16846602 1.1355754 2709910
0.13653307 -0.15553257 1.1282284 3368613
0.14055991 -0.15240347 1.1264837 3499683
-0.10757837 -0.15616439 1.1344814 2841497
0.13805827 -0.14797357 1.1304946 3237027
0.14259082 -0.14509016 1.1276727 3302821
-0.11404482 -0.14486143 1.1335782 2645144
-0.11042096 -0.14639893 1.1360441 2775964
0.14528359 -0.13501707 1.1283247 3237542
0.14918415 -0.13127007 1.1273273 3106215
-0.11622635 -0.13654169 1.1344137 2907291
0.14624003 -0.12540771 1.1286639 3499683
0.14920962 -0.12331036 1.1270359 3303338
-0.11763051 -0.12665834 1.1352715 3039134
0.15044895 -0.11475288 1.127165 3499947
-0.12347421 -0.11263371 1.132846 3236770
-0.12103899 -0.11678131 1.1361696 3236770
0.1517182 -0.10417446 1.1274054 3500458
-0.12376443 -0.10616063 1.132772 3237027
-0.12192085 -0.10639507 1.1367286 3302821
0.15362148 -0.09352573 1.1276896 3632048
-0.12419976 -0.096451022 1.1326611 3302824
-0.12233345 -0.097192526 1.1366235 3302569
0.15149517 -0.084724315 1.1275301 3632047
-0.12503751 -0.087407932 1.1325691 3434408
-0.12226626 -0.084869161 1.1364666 3434665
0.14760263 -0.073844656 1.1271306 4026292
-0.12507042 -0.077031791 1.1324393 3631531
-0.12328 -0.076080836 1.1363823 3631531
0.14731638 -0.065887392 1.1256635 4157366
-0.12536064 -0.070558727 1.1323653 4025255
-0.12238441 -0.065272599 1.134508 3632304
0.14624082 -0.054139815 1.1250991 4289211
-0.11934598 -0.056143384 1.1337425 3568048
0.14262392 -0.043515038 1.1257262 4094399
0.14518334 -0.047777195 1.1270472 4224702
-0.11835417 -0.050068043 1.1319252 3764911
-0.11504658 -0.045573425 1.1342837 3895729
0.13971391 -0.035206474 1.1264855 4487616
-0.12029979 -0.031997927 1.1347495 6458567
-0.11521719 -0.035554703 1.1340619 3895996
0.13912195 -0.024197236 1.1253073 5735616
0.14581989 -0.020647563 1.1246884 9477559
-0.11995548 -0.029285826 1.1357069 6852289
-0.11670843 -0.029141225 1.1356207 5933254
0.045136929 0.079725854 1.1260418 9474701
-0.015500009 -0.22867456 1.147507 7248329
0.017354434 -0.22881374 1.1458544 5801654
0.025302343 -0.22733545 1.1450956 5210039
0.038143732 -0.22738197 1.1460963 6328255
0.045800112 -0.22704101 1.145893 7379645
0.057340007 -0.22640532 1.1455851 8430007
0.065097503 -0.22433037 1.1413555 8625323
-0.053927612 -0.22234398 1.1404227 9678537
-0.042946804 -0.22178224 1.1466593 4422071
-0.033552628 -0.22202393 1.1478925 2778029
-0.02372117 -0.22340277 1.1476543 2513574
-0.015995402 -0.22577327 1.1474832 2315684
0.013933652 -0.2251713 1.1466978 2120102
0.025965111 -0.22463551 1.1463783 2185635
0.039041288 -0.22295696 1.1460173 2186146
0.044559184 -0.22380748 1.1458845 2316696
0.059773847 -0.22093746 1.145453 4486314
0.067254685 -0.22023186 1.1432488 5997746
0.078279018 -0.2167688 1.1437762 6063288
0.086902246 -0.21490589 1.1446719 6589614
0.095005929 -0.21476427 1.1444595 8757678
-0.059894238 -0.2106348 1.1404303 1855898
-0.052985046 -0.2128012 1.1435175 2249885
-0.045103412 -0.21471637 1.1473731 2381985
-0.036870252 -0.2164712 1.1479088 3039902
0.080636337 -0.20959404 1.1447679 2841504
0.086627543 -0.20877913 1.1446019 3302564
0.096045703 -0.2061173 1.1429896 4420011
0.10568482 -0.20490417 1.1383411 6984117
0.11492884 -0.20176098 1.1357746 6254993
-0.071476698 -0.20061171 1.1414056 2710418
-0.063521311 -0.20348358 1.1448174 2775447
-0.056633499 -0.205376 1.1474824 2906776
0.098161355 -0.1981121 1.1437676 3171492
0.10652693 -0.19639656 1.1407274 3237285
0.11468878 -0.194866 1.1362656 3629215
-0.074567735 -0.19374827 1.1454012 2775191
-0.066219568 -0.1968426 1.1477575 2906012
0.10810956 -0.18709469 1.1421032 3040421
0.11488114 -0.18514727 1.1385152 3105703
0.12071513 -0.18517393 1.1354153 2777257
-0.090633199 -0.18043351 1.1408492 2710677
-0.08360973 -0.18396881 1.144242 2709909
-0.077174351 -0.18726587 1.1465878 2709910
0.1157492 -0.17668061 1.1419666 3368100
0.12312567 -0.17456558 1.1373534 3302561
-0.092072174 -0.17391163 1.1439168 2710421
-0.087059304 -0.17649648 1.1479098 2644886
0.11749521 -0.16881645 1.1432965 3040936
0.12533477 -0.16538934 1.1409618 3237031
0.13152577 -0.16224319 1.1378469 3368615
-0.1023716 -0.16136098 1.1409142 2776209
-0.096622616 -0.16553625 1.1455693 2841240
0.12703902 -0.15679553 1.1428971 3237287
0.13325387 -0.15434895 1.1375598 3302822
-0.10355106 -0.1547031 1.1453962 2710683
-0.098641261 -0.15774795 1.1481081 2841499
0.13520314 -0.14580786 1.1399572 3237541
0.13994825 -0.1429226 1.1359842 3237798
-0.10604444 -0.14624353 1.1459644 2907293
0.13656051 -0.13694349 1.1423997 3237797
0.14104436 -0.13425526 1.1372472 3303334
-0.11297211 -0.13488948 1.1419998 2907805
-0.11054541 -0.13634996 1.1480148 2907805
0.14252961 -0.12478802 1.1396461 3434407
-0.11384779 -0.12559512 1.14343 3039392
-0.11104095 -0.12659271 1.1487052 3039391
0.14403875 -0.11514065 1.1393583 3500202
0.14791267 -0.11211345 1.1337887 3631274
-0.11735547 -0.11655384 1.1452748 3170979
0.14558366 -0.10477059 1.1413156 3631791
0.14879608 -0.10412413 1.1354437 3566510
-0.11819194 -0.10621797 1.1463479 3105957
0.14423287 -0.093720235 1.1399888 3632305
0.14935815 -0.094658397 1.1338649 3501227
-0.11908136 -0.096248567 1.1439588 3237546
0.14334685 -0.084690072 1.139019 3698099
0.14784384 -0.084927559 1.1338484 3698094
-0.11888944 -0.086479969 1.1440691 3434923
0.14418043 -0.07536415 1.1394256 3895479
0.1463539 -0.077346832 1.1333916 3895477
-0.11896321 -0.076009087 1.1445585 3566256
0.14396742 -0.064045243 1.1406225 4027579
0.14634565 -0.063401014 1.1372179 4157882
-0.11838843 -0.067073911 1.1436745 3567024
0.14148992 -0.054614678 1.1400582 4159422
0.14570534 -0.054624416 1.1355233 4289724
-0.11657441 -0.057172056 1.1413057 3567791
-0.11342311 -0.055035021 1.1465324 3764403
0.13929415 -0.044682581 1.1384994 4356797
-0.11224252 -0.046108227 1.1402916 3830196
0.13618155 -0.035240125 1.1375277 4619718
-0.11119898 -0.035123367 1.1424648 3896507
0.13157614 -0.023535751 1.1379892 4817095
0.1360399 -0.023951583 1.1346549 4948420
-0.11917974 -0.026284069 1.1436523 6916535
-0.11168474 -0.026484594 1.1431522 5210049
0.13049932 -0.017162345 1.140049 5013440
0.13487495 -0.016576618 1.1375935 5998788
0.026883138 0.052320622 1.137723 5859448
0.035018247 0.052739136 1.1356483 6122362
0.040642969 0.053152584 1.1384981 6319482
0.051787645 0.054962419 1.1421874 5330522
0.027225537 0.056769826 1.1361336 5792108
0.034989104 0.057955422 1.1353832 5527648
0.040447444 0.057513632 1.1384482 5067354
-0.0096867792 -0.22835392 1.150353 4354997
-0.0022390764 -0.22902781 1.1521688 4684224
0.0075940676 -0.22831208 1.1504368 4289976
0.018441821 -0.2255311 1.1495862 2054307
0.028884321 -0.22561565 1.1493158 2777510
0.034416616 -0.22646838 1.1491828 4026798
0.050865944 -0.22573587 1.148746 5604271
0.05463035 -0.22391957 1.1486254 4881326
-0.029106382 -0.21885562 1.1507381 3039902
-0.021113187 -0.21941267 1.1510376 2710943
-0.012497175 -0.22090778 1.153638 2645152
-0.0024166796 -0.22328126 1.1567696 2514339
0.0074930098 -0.22274235 1.1559716 2514851
0.017245932 -0.21981758 1.1541474 2842787
0.027042363 -0.21898237 1.1516813 2908579
0.036696117 -0.21815157 1.151909 3039651
0.046937369 -0.21838653 1.1527574 2908578
0.05622974 -0.21710289 1.1522496 2778020
0.066113859 -0.2150262 1.1496441 2646433
0.075760387 -0.21729988 1.1479927 5012145
0.087332293 -0.21806684 1.1477016 8955830
-0.042490259 -0.21102127 1.1512733 2841242
-0.032514133 -0.21262833 1.1530826 2775960
-0.023409955 -0.21347728 1.1547909 2841500
-0.013820224 -0.21518177 1.1582979 2907551
0.017801385 -0.21303576 1.157449 3105184
0.026986804 -0.21225783 1.1572005 3170722
0.036924884 -0.21181525 1.1569365 3302053
0.047022242 -0.21081224 1.1566614 3170723
0.057471167 -0.20942464 1.1563724 3105188
0.066710949 -0.20823851 1.1544023 3170467
0.076194867 -0.20765075 1.150261 3236258
0.08612214 -0.20378557 1.147998 3171236
-0.059600439 -0.20042956 1.1512988 2906776
-0.052948464 -0.20235869 1.1522936 2907033
-0.04436956 -0.2029205 1.1557696 2841497
-0.034861732 -0.20652705 1.1587359 2775704
0.067496702 -0.20270666 1.1560272 3105443
0.076330543 -0.20231327 1.1557926 3105443
0.086911872 -0.1981352 1.1542014 3105956
0.095047012 -0.19493973 1.1504114 3105956
-0.071058467 -0.18994868 1.1514647 2644884
-0.063760668 -0.19316113 1.1543167 2775705
-0.055202525 -0.19562477 1.156793 2841497
0.090190336 -0.19062871 1.1552854 3172006
0.097705483 -0.18792103 1.1540555 3040421
0.10339074 -0.18534434 1.1513742 2974628
-0.080224887 -0.18156399 1.1515974 2645144
-0.073432118 -0.18299648 1.1544989 2710425
-0.067974657 -0.18546019 1.1559014 2776216
0.10647337 -0.17655632 1.1514336 3171493
0.11126417 -0.17414626 1.1481274 3237026
-0.083551541 -0.17365757 1.1541736 2710424
-0.076988682 -0.17553157 1.1579856 2710937
0.1091751 -0.169862 1.1545304 3302823
0.11523312 -0.16553921 1.1511593 3172005
0.12085889 -0.16215467 1.150128 3172006
-0.092791051 -0.16270593 1.1516867 2841498
-0.088161081 -0.1649664 1.1565199 2907290
0.11751373 -0.15842329 1.1541697 3303592
0.1235677 -0.15478356 1.1526326 3237544
0.12934296 -0.15024932 1.145756 3303337
-0.094888151 -0.15431432 1.1533505 2973342
-0.090000048 -0.15715022 1.1595474 3038879
0.12686427 -0.14685814 1.1531141 3237544
0.13096599 -0.14369509 1.1484325 3303336
-0.10343944 -0.14313939 1.1527175 2973342
-0.097123325 -0.14597428 1.1570909 2973600
0.13399334 -0.13441247 1.1494374 3368872
-0.1053327 -0.13533793 1.154022 3039392
-0.099727795 -0.13584393 1.1595321 3236259
0.13491525 -0.12490244 1.1510445 3500460
0.13907966 -0.12233793 1.1451515 3434923
-0.10684936 -0.12574741 1.1544769 3170978
0.13557962 -0.11592495 1.1518313 3500719
0.14006948 -0.11326031 1.1483463 3500718
-0.1139795 -0.11492221 1.1516359 3237029
-0.10995457 -0.11604617 1.157548 3237286
0.14008223 -0.10436285 1.1510071 3697329
-0.11437295 -0.10614683 1.1515356 3237543
-0.11164197 -0.10550389 1.1589596 3172263
0.14087769 -0.095213301 1.1503657 3697843
-0.11502907 -0.096495718 1.1544324 3303340
-0.11287476 -0.09526927 1.159363 3303852
0.14019479 -0.084783666 1.1506523 3764149
-0.11560737 -0.086784169 1.1513239 3500716
-0.11274676 -0.085197531 1.159233 3501229
0.14262776 -0.07424517 1.1490272 3764661
-0.11560246 -0.078723788 1.1512223 3566512
-0.11247538 -0.07510943 1.155461 3632306
0.13919024 -0.064181402 1.1488891 3896764
-0.11230533 -0.065472171 1.1553353 3698357
0.1328207 -0.054390136 1.1511283 4291265
0.13655822 -0.055456702 1.1455184 4225217
-0.1111093 -0.056406874 1.1548263 3764408
0.13315476 -0.044770822 1.1503316 4554434
0.13558784 -0.044456489 1.1442618 4488640
-0.1086165 -0.045564469 1.1554253 3895997
-0.10456106 -0.042144541 1.1584783 4027323
0.13225405 -0.034014501 1.1492192 4817354
-0.10759249 -0.036015663 1.1518104 3962044
-0.10352293 -0.034561038 1.1575555 4093118
0.12246485 -0.022074029 1.1523246 5014224
0.12786995 -0.024613798 1.1482143 4751563
-0.10699692 -0.0255832 1.1503297 4290235
-0.10200965 -0.025181003 1.1547302 4158908
-0.095849425 -0.022573143 1.1580054 4028609
0.12044175 -0.015139483 1.1505114 4817874
0.1269685 -0.014623329 1.1451107 5145287
-0.099981904 -0.018460922 1.1524588 4487616
-0.094617099 -0.015507631 1.1565505 4356800
0.11103317 -0.0030345172 1.1503812 5276623
0.11740465 -0.005807966 1.1465347 5604813
0.12681437 -0.0066233724 1.1449029 6720449
-0.092795938 -0.0084184781 1.1577479 5671109
0.1089642 0.0024602711 1.1517949 5802961
0.11525126 0.001923807 1.1475414 6787017
0.032294054 0.01485981 1.1542034 12972031
-0.02338111 0.022280142 1.1535563 5869264
0.0091926567 0.020102583 1.1547378 7515376
0.016693398 0.020067669 1.1545433 8764660
0.02630775 0.020053148 1.1542937 10146554
0.032979354 0.019317277 1.1541295 10870005
-0.081560105 0.027940527 1.1489947 8028800
-0.076458916 0.028534062 1.1488546 7305855
-0.018995792 0.023643158 1.155426 5671370
-0.0156831 0.02379068 1.155338 5869265
0.0075057531 0.02482333 1.1547222 6988787
0.011922678 0.025020011 1.154605 7185904
0.097656533 0.037691809 1.152217 6314850
-0.075464502 0.033585407 1.1487652 8028802
0.094406217 0.041088633 1.1522588 6117979
0.06979993 0.050434805 1.1447773 5593178
0.071993172 0.050532483 1.1447191 5658970
-0.0081155766 -0.21785048 1.162185 2973083
-0.0025257058 -0.21871211 1.1620505 2973595
0.0068887435 -0.21785454 1.162462 2973598
-0.02855714 -0.20765528 1.1625879 2842012
-0.022123817 -0.20875698 1.1624346 2776219
-0.012644341 -0.21080023 1.1637384 2907806
-0.0029578749 -0.21173078 1.165133 2907807
0.0076151444 -0.21179901 1.1650345 2973599
0.016309811 -0.20910078 1.1621069 3039136
0.027012184 -0.20762551 1.162477 3170723
0.036954861 -0.20707089 1.1615447 3236770
0.046702906 -0.20618322 1.1606132 3170979
0.055728104 -0.20556775 1.1603708 3170980
0.062301777 -0.20360917 1.1601753 3171236
-0.040035035 -0.19928199 1.1627809 2842012
-0.0331956 -0.20122853 1.1640828 2842011
-0.023466818 -0.2030448 1.1648601 2842012
-0.015084893 -0.20410481 1.1661947 2907805
0.03139675 -0.20342785 1.164978 3302309
0.037319429 -0.20201936 1.163663 3302308
0.045920841 -0.20153059 1.1620755 3171236
0.056662213 -0.20163921 1.1602972 3171236
0.067255929 -0.19977364 1.1616657 3105443
0.076962061 -0.19742443 1.1607169 3171492
0.083392516 -0.19526628 1.1595222 3040420
-0.061584633 -0.18913613 1.1632133 2841497
-0.052683119 -0.1914854 1.163545 2907291
-0.044102121 -0.19374108 1.1646999 2907549
-0.037327971 -0.19460171 1.1666532 2907551
0.079819068 -0.19012785 1.1635519 3040420
0.086694807 -0.18800011 1.161451 3106213
0.094334349 -0.1850802 1.1591095 3106214
-0.063324749 -0.18269795 1.1651783 2907290
-0.056578513 -0.18526247 1.1665359 2973340
0.090538561 -0.18073559 1.1631551 3302823
0.096407011 -0.17811453 1.1605686 3237030
0.10239092 -0.17443606 1.1605446 3237031
-0.081315711 -0.17002487 1.1634855 2841497
-0.072759941 -0.17312074 1.1638356 2842012
-0.06648384 -0.17505133 1.1661645 2907547
0.10720305 -0.16653985 1.1594651 3368361
0.11211105 -0.16307706 1.1583704 3237285
-0.083058119 -0.16417953 1.1634573 2973085
-0.076205119 -0.1640681 1.1660156 3039135
0.10916702 -0.15932123 1.1583997 3368615
0.11555268 -0.15569508 1.1589156 3237799
0.11994922 -0.15217778 1.1580294 3303337
-0.091024771 -0.15157788 1.1635057 2973857
-0.085404441 -0.15484312 1.1649569 3039137
-0.079376131 -0.15542845 1.167253 3104930
0.11723632 -0.14809853 1.1600494 3172264
0.12328687 -0.14495108 1.1585187 3238059
-0.09255597 -0.14342466 1.1644433 3039650
-0.088341206 -0.14680134 1.1673775 3105700
0.12612362 -0.13505504 1.1598082 3369132
0.13028419 -0.13505927 1.1575453 3434410
-0.095673576 -0.1349842 1.1651326 3171236
0.12767625 -0.12684411 1.1607111 3500719
0.13090968 -0.12440757 1.1593958 3435183
-0.10339713 -0.1232545 1.1634707 3302823
-0.098594129 -0.1249916 1.1660355 3171495
0.13121368 -0.1142892 1.1590786 3566514
-0.10549058 -0.1146877 1.1648724 3368873
-0.10171807 -0.1156774 1.166533 3368875
0.13348757 -0.10499784 1.157884 3697588
-0.10676804 -0.10565601 1.1660045 3303850
0.13469149 -0.095305502 1.1603603 3763892
0.13779281 -0.094522953 1.1568398 3698099
-0.10859475 -0.095534347 1.1648575 3435181
-0.10266271 -0.095732607 1.1671069 3435438
0.13527103 -0.085136987 1.1607889 3829942
0.1380152 -0.084498085 1.1578512 3764149
-0.10798289 -0.085820109 1.1651195 3501229
0.13467266 -0.071791261 1.1606364 3896505
0.1391352 -0.074502736 1.1583719 3830455
-0.10783908 -0.075948678 1.1645298 3632563
-0.10370985 -0.072377592 1.1668401 3567542
0.13192908 -0.064777553 1.158047 4027837
0.13727497 -0.068114899 1.156521 3896505
-0.10753691 -0.065869533 1.1641898 3829940
-0.10400902 -0.065704733 1.1667638 3699127
0.13003108 -0.055225287 1.1592147 4291009
-0.10758692 -0.055727217 1.1635299 3895737
-0.10386518 -0.054713883 1.1666217 4027576
0.12985992 -0.045192186 1.1584259 4422849
-0.10672653 -0.048995845 1.1626225 4158911
-0.10235846 -0.045075815 1.1644604 4093372
0.12935437 -0.035466868 1.1578164 4817355
-0.099047914 -0.035525739 1.1637924 4093630
-0.094386518 -0.031845301 1.1660874 4094397
0.12144887 -0.025052749 1.1586133 5080014
0.12604289 -0.028079972 1.1563089 4883149
-0.09731245 -0.027846336 1.1621115 4028348
-0.092888191 -0.025072344 1.1634623 4028864
0.11651914 -0.015624627 1.1581781 4949202
-0.089751512 -0.015327245 1.1635764 4029123
-0.085581616 -0.012880482 1.1656199 3963586
0.11002329 -0.0060296133 1.1591154 5146069
0.11358859 -0.010310493 1.1564089 5080276
-0.089342624 -0.0075014904 1.1616483 5342665
-0.082221985 -0.0049874634 1.1654332 4882633
-0.019015864 0.0015989169 1.1637074 6070261
-0.012344822 0.0018959865 1.1635302 6528744
-0.0056737848 0.0021930635 1.1633531 8827627
0.0098919738 0.0028862357 1.1629398 10340848
0.018656353 0.0026397482 1.1627151 8895736
0.026184674 0.0022745505 1.162524 6266608
0.10041648 0.0063488483 1.1595428 5475287
0.10500678 0.0030130148 1.1577982 5475028
-0.079073578 0.0011265054 1.1632736 5999306
-0.072471246 0.002531074 1.1630843 5540557
-0.064080864 0.0062351078 1.1621526 5803727
-0.051388886 0.0085769221 1.164461 4950220
-0.042387657 0.0078521743 1.1642361 5016280
-0.032657836 0.0076692104 1.1635853 5411294
-0.022670243 0.0080793798 1.1614798 5806569
-0.012652541 0.008557044 1.1628541 7120874
-0.0030942429 0.0097370297 1.1631911 12379901
0.0074444432 0.0096527115 1.1603909 13891069
0.017240508 0.009842366 1.1594598 12969723
0.027194995 0.010533027 1.160077 9946095
0.037274599 0.010754704 1.1602151 10013177
0.046907965 0.013063274 1.1596948 7449069
0.053529572 0.015230231 1.1616501 5411552
0.097296283 0.010085404 1.1580763 6526426
-0.049633902 0.013607807 1.1643521 6264275
-0.042150032 0.014716841 1.1616426 5803990
-0.032652371 0.015753299 1.1598819 5345755
-0.022714838 0.017458811 1.1596023 5412839
-0.013150493 0.018484093 1.1598409 5676266
-0.0040220823 0.017995343 1.1619679 7253489
0.005757533 0.018227957 1.1598529 8436213
0.015798105 0.016430154 1.1586142 12051453
0.030003794 0.021504976 1.158181 10082302
0.037867043 0.021114774 1.1579815 10607102
0.046378735 0.020647682 1.1577661 7515119
0.05347034 0.020364441 1.1589192 6068200
-0.01119229 0.024112627 1.1592189 6001365
-0.0067601483 0.02431 1.1591012 6396124
0.10533625 0.03507673 1.1560521 6447199
0.00047813728 -0.20770457 1.1698372 3039391
0.0080249384 -0.20677871 1.1711299 3039135
0.019444093 -0.20685999 1.1693336 3104930
-0.029028956 -0.19783682 1.17048 2776478
-0.022568516 -0.19842282 1.1723202 2842271
-0.012548331 -0.19959268 1.1742573 2907807
-0.0032365154 -0.20103325 1.1745474 2908063
0.0068360167 -0.20142265 1.1753953 2973600
0.017087568 -0.19998807 1.1746439 3105187
0.026963463 -0.19920728 1.1734574 3236773
0.036578417 -0.19744623 1.1725045 3237029
0.047517397 -0.19704404 1.1722819 3171237
0.057139423 -0.19759247 1.1697377 3171236
0.066562876 -0.19561833 1.1688908 3105444
0.075308815 -0.19374956 1.1677165 3171493
-0.041521408 -0.18947788 1.1739007 2841758
-0.033307936 -0.19141257 1.1745119 2907551
-0.024286151 -0.19208622 1.1771107 2842271
-0.013530171 -0.19278364 1.1780168 2908064
-0.0067402776 -0.19360709 1.1778507 2973857
0.014601534 -0.1926567 1.177284 3105444
0.027411766 -0.19108552 1.1769313 3237030
0.037446894 -0.19106396 1.1758698 3302823
0.047057964 -0.18985522 1.1754817 3171495
0.056332625 -0.18803683 1.1747493 3105703
0.066036262 -0.18786597 1.1742861 3105703
0.075759016 -0.18695599 1.1721212 3105702
0.083897829 -0.18411861 1.1690869 3105958
-0.053171244 -0.18230902 1.1725597 2973598
-0.044995982 -0.1836178 1.1767185 2907551
-0.034981582 -0.18501395 1.1784766 2908065
0.077251434 -0.17843555 1.1754766 3237288
0.085964978 -0.17736106 1.172791 3302823
0.094448805 -0.17497258 1.1695551 3237287
-0.063036978 -0.17145541 1.1738901 3105183
-0.055347677 -0.1744532 1.1769899 2974112
-0.046910513 -0.17625728 1.1786765 2842786
0.08721599 -0.17050955 1.1751177 3171750
0.09563835 -0.16653618 1.173515 3172008
0.10350314 -0.16447827 1.1689495 3303081
-0.071642146 -0.16217178 1.1718055 3104930
-0.065163657 -0.16413817 1.1776644 3170978
0.097784743 -0.15807322 1.1746866 3303337
0.10542631 -0.15623736 1.1722138 3368873
0.11221741 -0.15466376 1.1688116 3237543
-0.081984028 -0.14980938 1.1739196 3040164
-0.075072229 -0.15324923 1.1749065 3105701
-0.068393454 -0.15732478 1.1789966 3302822
0.10665172 -0.14712797 1.1743183 3303597
0.11382335 -0.14442867 1.1697323 3238059
0.12070821 -0.14107959 1.1678742 3303852
-0.084677398 -0.14357595 1.1750227 3106213
-0.076720938 -0.14521796 1.1790606 3172007
0.11442426 -0.13527615 1.173767 3369387
0.122243 -0.13473174 1.1697552 3435181
-0.092343584 -0.1336979 1.1726521 3237030
-0.085636169 -0.13402413 1.1768171 3237800
-0.079051852 -0.13715968 1.1790197 3303594
0.11597514 -0.12915026 1.1738496 3500972
0.12409757 -0.12454317 1.1703291 3500976
0.12852174 -0.12149381 1.1654238 3500977
-0.093849972 -0.12447853 1.1743537 3237545
-0.089014009 -0.12588441 1.1782475 3303852
0.12554139 -0.1149144 1.1734217 3566772
0.12877034 -0.1151474 1.1693391 3566515
-0.096790269 -0.11488904 1.1744484 3369389
0.1259702 -0.10535278 1.1732903 3763639
0.12916052 -0.10432997 1.1683035 3763639
-0.10423566 -0.10139202 1.1725545 3435181
-0.098620981 -0.10479602 1.1756909 3435438
0.1261155 -0.094249107 1.1731467 3895737
0.13095382 -0.093972623 1.1678388 3764149
-0.10399838 -0.094886571 1.1735336 3435438
-0.098500073 -0.095227376 1.1774582 3501231
0.12586363 -0.088631302 1.1730825 3961530
0.13092278 -0.084480852 1.1677201 3961528
0.13787699 -0.080822825 1.1646686 3895735
-0.1041161 -0.08562468 1.1740203 3501489
-0.099788859 -0.085176736 1.1767857 3501490
0.12505764 -0.07065434 1.1728772 4159679
0.13084784 -0.07513129 1.1680537 3962041
0.13777691 -0.078590937 1.164643 3895735
-0.10493931 -0.078324541 1.1729494 3501747
-0.10021062 -0.074890383 1.175451 3567541
0.12402333 -0.064320847 1.1728243 4225473
0.12763059 -0.064708605 1.1687337 4159424
-0.098921254 -0.06468381 1.1742219 3764919
0.12337632 -0.055468325 1.1727297 4422597
0.12717874 -0.054630816 1.1686186 4357059
-0.098871425 -0.054901905 1.173926 3896505
-0.094012126 -0.054516438 1.1783682 3962298
0.12277576 -0.044862483 1.1726118 4685767
0.12672691 -0.044553027 1.1685034 4422851
-0.097868383 -0.045743622 1.1719552 4027836
-0.092802033 -0.043691274 1.1771091 4028094
0.12037377 -0.034390055 1.1704239 4948684
0.12622298 -0.036083281 1.1654087 4751818
-0.096578673 -0.037591059 1.1702185 4093632
-0.091017053 -0.033823572 1.1758751 4094399
0.11322381 -0.024272859 1.1726009 5080784
0.11745398 -0.025207475 1.1677006 5211343
-0.088189512 -0.025264129 1.1742107 4094402
-0.081738517 -0.021880023 1.1766379 4226244
-0.075304821 -0.01990927 1.1774462 4620744
-0.021439038 -0.016384728 1.1760018 5412064
0.0010260232 -0.015384316 1.1754053 6463211
0.0092588859 -0.018858679 1.175235 6397929
0.018904772 -0.017787792 1.1749709 6397929
0.028041674 -0.01546789 1.1747042 6003432
0.10974321 -0.015168741 1.1700757 5081042
0.11494346 -0.018108003 1.1644752 5081041
-0.080863625 -0.01408045 1.1713815 4160963
-0.072702423 -0.012719609 1.1764306 4752075
-0.057786148 -0.0089969039 1.1768535 4949201
-0.051021438 -0.0092585683 1.176681 5016022
-0.041420031 -0.0099593326 1.1757734 5213659
-0.031576648 -0.010432415 1.1749591 5411552
-0.021697517 -0.010770254 1.1751375 5740773
-0.011581641 -0.010316744 1.1756692 6003172
-0.0014840271 -0.0098686069 1.1750009 6331366
0.0085320156 -0.009426713 1.1721339 6989552
0.018631142 -0.008976616 1.1722659 6792432
0.028686859 -0.008528702 1.1713486 5937640
0.037181061 -0.0072089881 1.1733621 5806054
0.047850035 -0.0054185465 1.1740627 5674725
0.054539181 -0.0039948523 1.1738709 5674983
0.10042509 -0.0044845268 1.1726844 5146841
0.10637911 -0.0063486546 1.1668365 5080789
-0.077898026 -0.0054502115 1.1693283 4554184
-0.074414805 -0.0044336244 1.1722262 4751049
-0.059116226 -0.0034499615 1.1748174 4818129
-0.051704247 -0.0031267479 1.1738204 5015507
-0.042265419 -0.0027315393 1.1701686 5147609
-0.032204948 -0.0022939146 1.1686012 5346018
-0.022492073 -0.0022141859 1.1709598 5937898
-0.012017572 -0.002492331 1.1709133 6462952
-0.0016316734 -0.0012915581 1.169739 8303605
0.007708123 -0.00099036098 1.1684762 8501495
0.017575147 -0.0015391633 1.1674131 7252467
0.028866615 -0.00048349053 1.1679459 6069484
0.037976515 0.001020655 1.1685517 6135528
0.048172947 0.0011260137 1.1713827 5741031
0.057582527 0.0017592236 1.172719 5543655
0.067016989 0.0034888312 1.1734524 5477092
0.077009261 0.005261682 1.1731703 5739747
0.088377774 0.0055177435 1.1728717 5280481
0.097607613 0.0032588765 1.1689663 5015513
0.10311767 0.0015039816 1.1665366 4949463
-0.071504354 0.0015435815 1.1690741 4818122
-0.062127825 0.0029550493 1.1688126 5147606
-0.053483944 0.004085429 1.1685737 4818639
-0.044728901 0.0027359426 1.1683631 5344472
-0.00012813136 0.0052811727 1.1671718 12971007
0.0043594632 0.004921928 1.1670597 12905215
0.028903635 0.0060149282 1.1664079 5807584
0.042291373 0.0066111088 1.1660525 6004710
0.048304837 0.0078373328 1.1658807 5807083
0.057029605 0.010728501 1.1677518 5477863
0.065607645 0.010703623 1.1700635 5542628
0.077623755 0.00829117 1.1731163 5673698
0.088051915 0.010699041 1.1713142 5804766
0.093611017 0.0088964626 1.1646898 5147865
0.059641343 0.018565498 1.165451 5412324
0.00021111965 -0.1961745 1.1817039 3039650
0.0066803321 -0.19653192 1.1815404 3039650
-0.020429734 -0.18918639 1.1821525 2842271
-0.013667392 -0.18888526 1.181973 2973857
-0.003274221 -0.18950047 1.1829742 2973857
0.0065761982 -0.19080186 1.1839982 3039395
0.017115774 -0.18840468 1.1829453 3171237
0.02632777 -0.18658303 1.1819714 3237030
0.036647305 -0.18556711 1.1821624 3302569
0.044976257 -0.18533987 1.1817379 3237546
-0.040542096 -0.17959273 1.1825545 2908065
-0.03293138 -0.18022206 1.1823646 2973857
-0.024155922 -0.18158534 1.1831541 2973857
-0.014308289 -0.18303695 1.1840345 2973858
-0.0059406571 -0.18347269 1.1857055 3105444
0.02572348 -0.18206264 1.1848648 3237030
0.037341431 -0.18003404 1.1845373 3302825
0.046232842 -0.17918603 1.1839877 3171754
0.056056302 -0.17928672 1.1820406 3171752
0.06635192 -0.17841108 1.1811736 3171753
0.074628107 -0.17492658 1.1805027 3237546
0.082703561 -0.1721679 1.1792575 3303592
-0.052128952 -0.17064145 1.182743 2908579
-0.043796979 -0.17241958 1.1845496 2908579
-0.033885948 -0.17343917 1.1852143 3105444
-0.025138985 -0.17480683 1.1860955 3105443
0.069421366 -0.17104927 1.1835903 3303339
0.077307619 -0.16843772 1.1820186 3303082
0.085544333 -0.16598436 1.1796776 3237545
0.091315657 -0.16274744 1.1789151 3303850
-0.061650876 -0.15976931 1.1828536 3302822
-0.054795925 -0.16374791 1.1849765 3040165
-0.047463145 -0.1671869 1.1865798 3040167
0.080324247 -0.1614963 1.1831867 3303598
0.086175472 -0.1572476 1.1820395 3238061
0.094585776 -0.15483093 1.179842 3303596
0.10213132 -0.15209925 1.1784999 3369131
-0.071890458 -0.14968222 1.1829928 3171751
-0.065274015 -0.15300797 1.184275 3368615
-0.058148067 -0.15632842 1.1867208 3171751
0.10368812 -0.14543146 1.1798762 3369134
-0.074178711 -0.14272401 1.1829647 3369130
-0.067902222 -0.14437212 1.1858236 3434922
0.10441986 -0.13570671 1.181283 3435183
-0.076252192 -0.13419452 1.1842451 3434923
0.10685462 -0.12849493 1.1812813 3501232
0.11344996 -0.12507284 1.1804549 3435694
0.12002766 -0.12306188 1.1776693 3501232
-0.084971622 -0.12343247 1.1840028 3369646
-0.079049274 -0.12690729 1.1855599 3435182
0.11679563 -0.11566842 1.1816618 3567282
0.12081496 -0.11497924 1.179366 3567027
-0.093946591 -0.11112784 1.1830808 3501231
-0.089120239 -0.11481585 1.1857529 3435439
0.11644062 -0.10775022 1.1815714 3829686
0.12136616 -0.10473578 1.1796268 3829431
-0.09409824 -0.10774574 1.1830422 3501231
-0.089819267 -0.10429283 1.1845548 3567024
0.123262 -0.095257387 1.1799029 3830201
-0.094730049 -0.093653679 1.1828811 3632818
-0.091420621 -0.094204597 1.1848029 3698612
0.12488428 -0.084572144 1.1790593 3896507
-0.095159695 -0.084071077 1.1827717 3633333
-0.091238379 -0.084060445 1.1854707 3764919
0.12424982 -0.074388087 1.1784474 4093886
-0.096004769 -0.075297698 1.1826832 3633334
-0.091930941 -0.074145332 1.1857641 3830201
0.12083778 -0.064897999 1.1791391 4291523
-0.09200938 -0.063854612 1.1841027 3896506
0.11986302 -0.054454155 1.1784105 4619975
-0.0891601 -0.054167256 1.1839542 4028348
0.1135498 -0.043273486 1.1808348 5146320
0.11804593 -0.0453077 1.1797432 4883148
-0.08790338 -0.044703659 1.1823733 3962814
-0.082923427 -0.043092202 1.1847961 3963072
0.11212467 -0.034518536 1.1792611 5146577
0.11590365 -0.035996992 1.1771806 5080527
-0.086943999 -0.035583552 1.1819477 4028607
-0.080796286 -0.033536997 1.1838964 4291526
-0.030982565 -0.029308051 1.1844158 5147865
-0.023529019 -0.028749444 1.1842151 5344731
-0.0072851814 -0.027119331 1.1837723 5345501
-0.00050001033 -0.026817173 1.1835921 5739743
0.0097316466 -0.02861058 1.1820148 5936862
0.018783769 -0.028211929 1.182108 5871068
0.028953116 -0.026639 1.1828243 5739228
0.046996195 -0.02470208 1.182331 5213656
0.10985035 -0.025730781 1.1791095 4949970
-0.07941018 -0.026041687 1.1816318 4422856
-0.071155056 -0.020886391 1.1831713 4686797
-0.060844649 -0.019295909 1.1830652 4884690
-0.050358769 -0.02025149 1.1843052 4950486
-0.039904892 -0.020555243 1.1832037 5213659
-0.031342696 -0.021367922 1.1811239 5279707
-0.021134041 -0.022047125 1.1812673 5345244
-0.011057822 -0.019965619 1.1808902 5411808
-0.0011669043 -0.020642303 1.1804396 5806052
0.0082733026 -0.023360737 1.1793189 6068964
0.020312099 -0.02320116 1.179004 6068963
0.03025306 -0.020364977 1.1796334 6003173
0.038644366 -0.018261194 1.180266 5608417
0.048847184 -0.017809294 1.1805954 5411038
0.055738792 -0.01751218 1.1820132 5279709
0.10026848 -0.013781339 1.1798853 5212630
0.10602254 -0.017139092 1.1780337 5015248
-0.067761868 -0.015074022 1.181191 4949712
-0.060999524 -0.014772885 1.1810114 4949713
-0.050855998 -0.014321171 1.180742 5016279
-0.041447002 -0.01427871 1.1804969 5213659
-0.03277253 -0.014645487 1.1802762 5345501
0.039897412 -0.010844566 1.1783394 5871590
0.048325073 -0.0099044591 1.1781085 5871847
0.058520555 -0.0071928576 1.1798102 5543139
0.065753222 -0.0057373494 1.1798897 5280225
0.090288356 -0.0046393424 1.1809531 5411294
0.096139386 -0.0058226734 1.1782694 5279196
0.067669488 -0.00057090074 1.1774882 5411556
0.077173665 0.0015467778 1.1772145 5412066
0.088444233 0.0020486712 1.1769152 5477344
0.095307663 9.5076859e-005 1.1767614 5213404
0.0075059161 -0.18610711 1.189391 3105189
-0.013190962 -0.17854388 1.1908342 3039906
-0.0033961833 -0.1802393 1.1910297 3039908
0.0062271478 -0.18095113 1.1926939 3105447
0.016720321 -0.17973587 1.1898216 3105702
0.025716517 -0.17809361 1.1888168 3171750
0.034672193 -0.17728126 1.1885737 3237289
0.046038739 -0.17491415 1.1882485 3237548
0.056250732 -0.1744594 1.1879773 3171752
0.065328062 -0.17405516 1.1877363 3171752
-0.041344866 -0.16834287 1.1904371 3039909
-0.033449899 -0.16871308 1.1911258 3105701
-0.025142647 -0.17097649 1.1925956 3105443
-0.01527676 -0.17591929 1.1938565 3040163
0.015421104 -0.17363942 1.1930299 3105960
0.02675589 -0.17201895 1.1927149 3105958
0.035753112 -0.17011459 1.1916567 3237545
0.046061538 -0.16860607 1.1902746 3237547
0.05606411 -0.16785321 1.1894997 3237544
0.066106908 -0.16717756 1.1893144 3237545
0.074632451 -0.16481948 1.1880451 3303339
-0.053000432 -0.15942279 1.1906278 3172009
-0.044384893 -0.16217893 1.1928395 3105961
-0.034920547 -0.16395719 1.1942165 3171752
0.049105499 -0.16164167 1.1920034 3303337
0.055936325 -0.16133749 1.1918219 3303593
0.065976158 -0.15991235 1.1915431 3303594
0.075021848 -0.15690662 1.1900196 3303596
0.081695974 -0.15513039 1.1870726 3238062
-0.06075741 -0.15123892 1.1907264 3434409
-0.054871168 -0.15270914 1.1934166 3237547
-0.046406355 -0.1546919 1.1943984 3237805
0.07568793 -0.14955449 1.1911602 3238318
0.084812149 -0.1462253 1.1897607 3238572
0.094869688 -0.14558193 1.1878105 3434926
0.1013035 -0.1447044 1.1864318 3369134
-0.063467771 -0.14230503 1.1919156 3435179
-0.057381589 -0.14401977 1.1941048 3369388
0.089171425 -0.13931847 1.1906809 3500977
0.094601288 -0.13554576 1.1894919 3435186
0.099975094 -0.13536234 1.1863487 3500720
-0.072459191 -0.13195552 1.1917882 3566511
-0.066592067 -0.13455695 1.1933358 3566767
-0.059238244 -0.13679896 1.1945068 3500977
0.095734492 -0.12784943 1.1898657 3501234
0.1034323 -0.125094 1.1868799 3501490
-0.082657114 -0.11923412 1.1908927 3566770
-0.07563287 -0.12347928 1.1933646 3632306
-0.068754479 -0.12809429 1.1946445 3632563
0.10489139 -0.11633573 1.1885706 3699127
0.11221263 -0.11474554 1.1862419 3633076
-0.0840884 -0.11369269 1.1918606 3566770
-0.077973068 -0.11428551 1.1947103 3763892
0.10541363 -0.10721614 1.1898546 3633335
0.11192021 -0.10475786 1.1872091 3764407
-0.084624723 -0.10360628 1.1935482 3698868
-0.080227792 -0.10400914 1.1946396 3699126
0.10544677 -0.095233582 1.1897029 3962811
0.11195149 -0.095045745 1.1883643 3830969
0.11960274 -0.094955586 1.1853298 3830714
-0.086291447 -0.093736641 1.1915897 3699126
-0.080928952 -0.094024442 1.194532 3830712
0.1122191 -0.08507774 1.1887988 4028606
0.1202867 -0.084852405 1.1851848 3962300
-0.08611919 -0.084226839 1.1921426 3830970
-0.08117649 -0.083657295 1.1944079 3962813
0.11210033 -0.076009199 1.1892879 4291522
0.11985876 -0.07529217 1.1854395 4094399
-0.086868301 -0.074180499 1.19215 3962044
-0.081924811 -0.074236155 1.1943089 4093630
0.11319408 -0.065208942 1.1888568 4554438
0.11797003 -0.065784916 1.1850051 4357059
-0.086705044 -0.064124525 1.191638 4093886
-0.082095519 -0.063159212 1.1941738 4291009
0.1108755 -0.054764878 1.188163 4686026
0.11682005 -0.054626167 1.1848944 4685769
-0.085455894 -0.056810424 1.1901796 4159935
-0.080497026 -0.054086085 1.1928748 4225985
0.10320024 -0.045127191 1.1891305 5015248
0.10926728 -0.046163052 1.1863182 5014991
-0.077943876 -0.044153437 1.1919435 4292037
-0.072430611 -0.046102021 1.1937079 4619977
-0.049967539 -0.038255367 1.1930252 5279449
-0.041998241 -0.037900481 1.1928136 5016538
-0.029424008 -0.038481578 1.1924942 4950743
-0.019839328 -0.039732788 1.1922607 4950488
-0.010760909 -0.039171889 1.1920177 5147351
-0.00036747381 -0.037758172 1.1917298 5278422
0.010267967 -0.039611407 1.1905874 5212886
0.019555276 -0.038544405 1.1894711 5278423
0.029490478 -0.037258107 1.1896969 5147094
0.040428221 -0.037164021 1.1906619 4885460
0.049816433 -0.035248801 1.1896662 4950741
0.058911119 -0.03431965 1.1901456 5016279
0.10123466 -0.035368077 1.1876582 5212370
0.10860509 -0.036227494 1.1848764 5212369
-0.076179832 -0.037102379 1.1916913 4423370
-0.074262768 -0.033823576 1.1912 4554187
-0.049733382 -0.033220731 1.1926891 5147610
-0.03996573 -0.032075591 1.1906867 5081818
-0.03076987 -0.033942945 1.1904712 5016538
-0.019694664 -0.032010257 1.1902924 5278938
-0.010627752 -0.030999459 1.1900439 5344730
-0.00015994348 -0.031424768 1.1887101 5673948
0.010125675 -0.03322088 1.1873983 5805277
0.019203007 -0.032816652 1.1871573 5541848
0.029364118 -0.031226903 1.1868731 5475544
0.039474338 -0.028502204 1.186576 5213397
0.050161257 -0.028641842 1.1870061 5082070
0.059848402 -0.027408682 1.1884336 5016536
0.06871929 -0.02481962 1.1897712 5213915
0.079409689 -0.02336552 1.1894749 5279453
0.09035942 -0.023334317 1.1891899 5213659
0.099873304 -0.025851443 1.1873736 5212628
0.10641967 -0.025521018 1.1847984 5146833
-0.074246734 -0.027880199 1.1895241 4554443
-0.049138565 -0.024942502 1.1888344 5016281
-0.041835986 -0.02552709 1.188652 5147611
-0.010705415 -0.025050588 1.1878369 5411294
0.059818577 -0.017361075 1.185907 5148123
0.068534866 -0.016975202 1.1858757 5213915
0.078607805 -0.016739056 1.1871506 5213917
0.089361966 -0.01618766 1.187441 5213659
0.097383022 -0.017587461 1.1852669 5212887
0.089771017 -0.0092037693 1.1850257 5279708
0.094309688 -0.0090016499 1.1849052 5411037
-0.0094878078 -0.17634791 1.1987135 3106213
-0.0037716739 -0.17609335 1.1985618 3105959
0.0075265663 -0.17624499 1.19827 3105706
0.017949626 -0.17512608 1.1979849 3105960
-0.020656087 -0.16997033 1.1989236 3105700
-0.013161032 -0.1708796 1.1994905 3105957
-0.004010465 -0.17047212 1.1992475 3106216
0.0063138753 -0.17012373 1.1998252 3106217
0.016913913 -0.16913779 1.1993657 3171752
0.024770375 -0.16829717 1.1988131 3303337
0.035831083 -0.16516319 1.1973947 3369130
0.042690441 -0.16485773 1.1972127 3369132
-0.033735257 -0.15932557 1.199463 3171753
-0.023903221 -0.16127843 1.2016196 3171752
-0.013557421 -0.16107759 1.2034291 3172010
-0.0043023862 -0.16193587 1.2041497 3172012
0.0057244059 -0.16106486 1.204674 3237802
0.01633276 -0.15989563 1.2038379 3303338
0.025531063 -0.15951194 1.203794 3369133
0.035777196 -0.15883984 1.2017984 3369388
0.04586599 -0.1580618 1.2008356 3303853
0.055033725 -0.15649895 1.1985373 3369643
0.065052673 -0.15526281 1.196746 3303851
-0.051976997 -0.14844868 1.1994667 3303598
-0.043707229 -0.15089281 1.2009976 3303341
-0.034986839 -0.15221223 1.2042176 3303340
-0.025515418 -0.15320349 1.2068422 3369132
-0.017270491 -0.15472379 1.2066469 3303600
0.016103728 -0.15323758 1.2057607 3303598
0.028762914 -0.15267384 1.2054247 3435186
0.036243342 -0.15234073 1.2052259 3369391
0.04602544 -0.1519051 1.2049663 3369392
0.055678863 -0.14856321 1.2040577 3369390
0.065093681 -0.14710942 1.2002085 3435184
0.074296169 -0.14511713 1.1961427 3369392
-0.053220998 -0.14148462 1.2002118 3369646
-0.045870159 -0.14343259 1.2048472 3303853
-0.038398422 -0.14643706 1.2070918 3173034
0.057268485 -0.14033133 1.2045283 3566773
0.06536752 -0.1386666 1.2036299 3566516
0.0750053 -0.13638194 1.2004161 3500977
0.084867775 -0.13662331 1.1974459 3500975
-0.063932255 -0.12999316 1.1995451 3632562
-0.054849643 -0.1326368 1.2023436 3501236
-0.047218803 -0.13243008 1.2067001 3501494
0.076915979 -0.12717217 1.2038519 3698612
0.084426314 -0.12720042 1.2012925 3567283
0.093096927 -0.12439666 1.1983277 3567283
0.10029247 -0.12104304 1.1951638 3501747
-0.071550384 -0.12067476 1.1996258 3895478
-0.065796673 -0.1229347 1.2020059 3698613
-0.056768242 -0.12344845 1.205946 3633080
0.078057751 -0.12048901 1.2037382 3699128
0.084465742 -0.11700949 1.2035278 3830713
0.093885466 -0.11621399 1.2020725 3699126
0.10046265 -0.11461885 1.1950786 3633333
-0.073215827 -0.11272816 1.1995691 3961271
-0.066327021 -0.11282869 1.2043934 3896247
-0.059407759 -0.11507612 1.2072431 3764921
0.084048241 -0.1100719 1.2034513 3962300
0.094772324 -0.10708467 1.2026641 3896506
0.10207543 -0.10491971 1.1969154 3764920
-0.074955016 -0.10346176 1.2009983 3830712
-0.067989886 -0.10267248 1.2059761 4093627
0.097259566 -0.096103579 1.2029321 4028352
0.1024802 -0.095321178 1.197451 3962812
-0.075803608 -0.093167819 1.201391 3962556
-0.06918034 -0.093949765 1.2067865 4028606
0.096267492 -0.085733771 1.2028273 4357317
0.10257538 -0.085685484 1.1986611 4225985
0.10769507 -0.081755444 1.1944768 4225985
-0.075716048 -0.084146872 1.2012751 4028606
-0.070792392 -0.084055513 1.2071486 4094655
0.096433774 -0.077685185 1.2027217 4554695
0.10204546 -0.075325087 1.1979442 4554182
0.10808122 -0.073335551 1.1943609 4619462
-0.076914519 -0.073554307 1.1996429 4159424
-0.068830773 -0.072138399 1.2057163 4160448
-0.062571451 -0.07023254 1.2067609 4554440
0.096295401 -0.064311355 1.202557 4620747
0.10184693 -0.065107457 1.2001717 4686026
0.10812053 -0.065694995 1.1942636 4619977
-0.076740295 -0.063879207 1.1990458 4291265
-0.068550527 -0.063466057 1.20408 4357573
-0.062881127 -0.063325629 1.206682 4751563
0.011035509 -0.057342615 1.2046853 4818903
0.018673336 -0.056233522 1.2044728 4819160
0.094072148 -0.055874839 1.2025084 4752590
0.10143241 -0.055915482 1.2000668 4817869
0.10661839 -0.057741139 1.1942025 4752076
-0.075184688 -0.054215249 1.1988837 4291778
-0.069138005 -0.053203713 1.2022942 4554440
-0.063242406 -0.055267587 1.2065899 4883149
-0.045097638 -0.047424439 1.2020179 5674209
-0.039362479 -0.047169045 1.2018657 5082331
-0.027838118 -0.049476504 1.2034625 4950745
-0.018517472 -0.050827101 1.2007695 4884953
-0.0093475953 -0.050411884 1.2003258 4753366
0.00094975159 -0.048841838 1.201239 4884692
0.011573631 -0.05000262 1.2001326 4884692
0.02030679 -0.048883215 1.2005469 4884692
0.03050125 -0.047209617 1.2027179 4950484
0.041422203 -0.047694746 1.2006617 4950488
0.050204489 -0.047032118 1.2014189 4950489
0.06075998 -0.045101229 1.2021717 5411037
0.069747403 -0.044443153 1.2029969 5542623
0.083754823 -0.041800849 1.2025995 5213404
0.091651991 -0.044332795 1.2024261 5081558
0.099987641 -0.046231654 1.1998323 5015248
-0.070427269 -0.043527305 1.1986254 4685772
-0.048222322 -0.042061664 1.1991212 5542365
-0.039254569 -0.041842267 1.1989374 4951002
-0.030484978 -0.042492643 1.1975743 4884951
-0.021151341 -0.043951981 1.19735 4753366
-0.0074838921 -0.042197529 1.1969727 4950484
0.001388927 -0.042088855 1.1967407 5015763
0.031437073 -0.041610125 1.1959536 5015764
0.038296431 -0.041304667 1.1957715 4885461
0.050174702 -0.039793573 1.1954437 4884950
0.060950097 -0.038228031 1.1969908 5082072
0.070339747 -0.036636177 1.1996819 5542624
0.080021426 -0.037336521 1.20184 5279197
0.090031117 -0.035672851 1.1987578 5213144
0.097328946 -0.037911955 1.1941944 5212627
0.064180478 -0.030985422 1.1949688 5016538
0.069819696 -0.029015571 1.1947974 5213917
0.079235479 -0.026113652 1.1945162 5345245
0.089692876 -0.027952328 1.1949345 5213917
0.18105969 -0.025933214 1.1998706 13158081
-0.0044148471 -0.1569387 1.2103424 3303598
0.0082861893 -0.15637311 1.2100052 3303850
-0.033295382 -0.147578 1.2109753 3303853
-0.02345714 -0.14873341 1.2110914 3304111
-0.013759008 -0.15040246 1.2126092 3303857
-0.0046616904 -0.15031503 1.2130166 3303856
0.0057607936 -0.14987949 1.2129903 3369903
0.016006188 -0.14792848 1.2096982 3435441
0.025101876 -0.14843707 1.2094681 3435187
0.035537425 -0.14733425 1.2091831 3500978
0.046026818 -0.1465916 1.208901 3369649
0.05265123 -0.14467645 1.2087047 3435441
-0.041789699 -0.14047265 1.2111067 3370159
-0.035212222 -0.14095126 1.2109417 3370416
-0.024800163 -0.14072499 1.2129191 3436469
-0.014353408 -0.14055149 1.2153965 3502005
-0.0050782431 -0.14013845 1.2151502 3501749
0.0055122981 -0.14315292 1.2149129 3501493
0.015740974 -0.13907549 1.2133452 3567542
0.025052071 -0.13876274 1.2140372 3567541
0.035413671 -0.13817368 1.2125725 3633333
0.045672029 -0.13744585 1.209733 3567541
0.054200064 -0.13634643 1.2085596 3633079
0.064125992 -0.13371706 1.2082685 3632566
-0.042554315 -0.13202012 1.2110201 3501750
-0.035629641 -0.13195427 1.2133403 3567798
-0.027153976 -0.13209347 1.2156228 3633848
-0.013453996 -0.13470131 1.2152995 3633591
-0.0064976197 -0.13439153 1.2151148 3699128
0.015478894 -0.13225085 1.2145166 3830714
0.025913451 -0.13178618 1.2142396 3764921
0.035356872 -0.13041489 1.2139769 3830712
0.045848731 -0.12903628 1.2133294 3830713
0.054526184 -0.12835297 1.2127857 3830458
0.06477841 -0.12765244 1.2105447 3764409
0.072776243 -0.12577994 1.2084996 3764407
-0.052047256 -0.1215646 1.2111351 3698874
-0.045351606 -0.12192574 1.2132167 3764923
-0.036701895 -0.12220237 1.2157464 3765435
-0.030101486 -0.12614644 1.2156246 3699641
0.06342306 -0.12198161 1.2131412 3896252
0.073270261 -0.11710022 1.2102036 3831226
0.080526084 -0.11612378 1.2076207 3830458
-0.055086788 -0.1122371 1.2118866 3896508
-0.045849573 -0.11174136 1.2158525 4028352
-0.03793449 -0.11208611 1.2156512 4094143
0.074071154 -0.10716006 1.2091049 4159936
0.083289593 -0.10550822 1.2074153 4028352
0.091253057 -0.10378416 1.2071866 3962559
-0.063529521 -0.1028654 1.2111982 4093628
-0.056613583 -0.1026132 1.2117656 4028352
-0.046261128 -0.10244143 1.2154335 4094401
-0.039613843 -0.10054062 1.2155495 4225986
0.075181499 -0.097902156 1.2111682 4357317
0.08337523 -0.096527256 1.2101138 4225732
0.092105553 -0.095703237 1.2070627 4159938
-0.064955682 -0.093174852 1.2111133 4028609
-0.056747701 -0.092866383 1.2122604 3963330
-0.047328945 -0.092462905 1.2156483 4160708
-0.040780533 -0.095247254 1.2155131 4292035
0.077217788 -0.084182434 1.2123067 4620236
0.082748801 -0.08668606 1.2108051 4488649
0.091145158 -0.08698643 1.206978 4357318
-0.066568971 -0.082996666 1.2110271 4160449
-0.05787475 -0.082744896 1.2144952 4160708
-0.04856154 -0.082346648 1.215553 4489161
0.083449259 -0.077366084 1.2109871 4555212
0.091561258 -0.075822584 1.2068267 4620489
-0.15886737 -0.078427352 1.2183708 14082013
-0.065524817 -0.07556574 1.2109065 4226242
-0.057469476 -0.072886817 1.2131644 4620234
-0.050409343 -0.070498779 1.2154518 5079759
-0.016417749 -0.068597734 1.2145444 6791922
-0.0083539821 -0.067076609 1.2143157 5608162
0.0020805746 -0.066611938 1.2140386 5016279
0.012244176 -0.0682097 1.2124304 5608413
0.020656895 -0.066365719 1.2135526 4950485
0.027587269 -0.065476082 1.2133613 5016277
0.085713014 -0.066373721 1.2118617 4752847
0.091525182 -0.066162907 1.2084714 4620747
-0.058580313 -0.064036347 1.2115812 4948687
-0.047877405 -0.0665126 1.2153358 5408980
-0.02653113 -0.062448055 1.212806 6134248
-0.017919302 -0.061594695 1.2119943 5344990
-0.0089785792 -0.061377198 1.2121164 4884696
0.0021791849 -0.060922828 1.2119048 4818902
0.012605065 -0.061748277 1.2087017 4818646
0.021691795 -0.060250767 1.2091613 4818646
0.031794976 -0.059348889 1.2099235 4884696
0.041847043 -0.058406234 1.209686 5344733
0.051075391 -0.057980299 1.2090836 5936870
0.060835417 -0.056991532 1.2115566 5608416
0.069899447 -0.055690058 1.2121383 5082072
0.08263883 -0.055932216 1.208809 5016278
0.088990435 -0.057189438 1.2066588 4884178
-0.027445946 -0.05612535 1.209672 5082331
0.0014200434 -0.054839898 1.2089055 4687574
0.024512839 -0.053811532 1.2082922 4687574
0.032400779 -0.052798975 1.2080746 4819159
0.039523154 -0.053143095 1.2078937 4950233
0.052224185 -0.052577496 1.2075565 5542369
0.060890596 -0.050905723 1.2073102 5805540
0.073622122 -0.048152827 1.2069446 5213659
0.080934837 -0.047827184 1.2067504 5147866
0.089873374 -0.049357899 1.2065374 5081557
0.0054290574 -0.138928 1.2188635 3633335
-0.022538994 -0.12957492 1.2194728 3699641
-0.015004762 -0.12968829 1.2192783 3765177
-0.0052500851 -0.12941003 1.220669 3830714
0.0051003983 -0.12989232 1.2216395 3962299
0.015401076 -0.12688781 1.2191197 4028092
0.024233645 -0.12729163 1.2185141 3962300
0.033730097 -0.1265012 1.2186991 3962299
0.043257385 -0.12475637 1.219925 3962299
0.055539422 -0.12317275 1.2173626 3896509
0.06528943 -0.12227222 1.2170979 3830714
-0.032732327 -0.11964227 1.2196126 3962813
-0.026058201 -0.1210563 1.2212355 3962813
-0.015007049 -0.12175576 1.2231803 4028350
-0.0056819543 -0.12346712 1.2229594 4093886
0.0013200697 -0.12315531 1.2227736 4093886
0.015167107 -0.11902973 1.2223617 4291263
0.02450314 -0.11861398 1.2221137 4291265
0.033839166 -0.11819823 1.2218659 4291265
0.044342205 -0.11773051 1.2215869 4225471
0.054663472 -0.11704826 1.218809 4159424
0.063865393 -0.11650643 1.2170624 4028351
-0.034312855 -0.11038593 1.2195373 4159681
-0.028630394 -0.11185313 1.2223183 4159937
0.014800747 -0.11085848 1.2222683 4685507
0.024328312 -0.10949847 1.2220036 4685766
0.033197541 -0.10910351 1.221768 4685768
0.045210879 -0.1086536 1.2214501 4685254
0.054408044 -0.10790406 1.2209516 4553924
0.063466981 -0.10721701 1.2172059 4357059
0.069159746 -0.10461227 1.2167751 4291524
