# .PCD v0.7 - Point Cloud Data file format
VERSION 0.7
FIELDS x y z rgba
SIZE 4 4 4 4
TYPE F F F U
COUNT 1 1 1 1
WIDTH 174
HEIGHT 1
VIEWPOINT 0 0 0 1 0 0 0
POINTS 174
DATA ascii
-0.40160328 -0.12450205 0.86969137 5134174
-0.39503556 -0.12624955 0.86832982 5134176
-0.40208232 -0.11983661 0.86932194 4871515
-0.40796289 -0.14115959 0.88013184 4936281
-0.39779419 -0.14392355 0.87802976 5199967
-0.39304197 -0.14403471 0.87692541 5397348
-0.41603899 -0.13431582 0.88101149 4673880
-0.40894455 -0.13520652 0.87745821 4870232
-0.39947215 -0.1352773 0.87598205 5068382
-0.38979262 -0.13507378 0.87425143 5068384
-0.38194841 -0.13361906 0.87324476 4476504
-0.41674438 -0.12503535 0.87880754 4607822
-0.4101578 -0.12530988 0.87591285 4673623
-0.39945269 -0.12630594 0.87350219 5134174
-0.38929203 -0.12565342 0.87104911 4739419
-0.38140923 -0.12594187 0.8705554 4081746
-0.4165504 -0.11653143 0.87960422 4410445
-0.40909833 -0.11595311 0.87469757 4213839
-0.39905274 -0.11567841 0.87231052 4345429
-0.38923812 -0.11631886 0.87007225 4016211
-0.38104379 -0.11673339 0.86938226 3621193
-0.40850288 -0.11055369 0.87400007 3884109
-0.39935729 -0.10979091 0.8717739 3752784
-0.38920218 -0.1100958 0.86942101 3621192
-0.3820996 -0.11134639 0.86788249 3686459
-0.41376531 -0.15204185 0.89338458 4673626
-0.40649712 -0.15341872 0.88888788 4870741
-0.39753261 -0.15477 0.88711309 5265754
-0.38766071 -0.15426365 0.88501883 5397604
-0.37866971 -0.15143886 0.88567185 4608350
-0.41562599 -0.14344333 0.88887745 4673629
-0.40796509 -0.14538306 0.88504219 4870744
-0.3998099 -0.14716914 0.88296777 5134174
-0.38763803 -0.14539894 0.88060027 5397606
-0.37861753 -0.14439002 0.88267899 4476760
-0.37202182 -0.14029178 0.88295949 4015442
-0.42136523 -0.13460787 0.89395809 3883351
-0.41915599 -0.13519439 0.8881315 4475995
-0.38688323 -0.13899656 0.8790884 5068641
-0.37748674 -0.13582909 0.87867403 4082513
-0.37066871 -0.13438267 0.8815152 3752531
-0.42060274 -0.12534447 0.88621491 4079443
-0.37567231 -0.12686935 0.87675202 3621705
-0.3705633 -0.12902069 0.87897503 3751503
-0.37757066 -0.11944038 0.87488174 3490378
-0.39992914 -0.16933826 0.9038685 5002588
-0.39681301 -0.16943181 0.90314651 5528419
-0.41026092 -0.15947871 0.90527594 4739163
-0.40388387 -0.16284284 0.90108633 5002333
-0.3946484 -0.16343036 0.89892125 5397092
-0.38535717 -0.16154599 0.89794606 5332066
-0.37910008 -0.16041425 0.89805603 4740695
-0.41282135 -0.15600397 0.9000982 4082256
-0.40645501 -0.1575294 0.89695436 5068120
-0.38368425 -0.1574714 0.89366657 5200736
-0.37517959 -0.15415382 0.89353251 4345175
-0.3677367 -0.15221122 0.8939507 4278096
-0.37325642 -0.14512467 0.88876295 4147028
-0.36763868 -0.1453245 0.89168078 3819087
-0.36863217 -0.13820793 0.88731664 3687502
-0.39049578 -0.18030901 0.91414297 5528423
-0.38629711 -0.17989933 0.91311479 5397348
-0.40170825 -0.17271666 0.91048533 4804702
-0.39260489 -0.1732558 0.90780514 5462626
-0.38285428 -0.1726355 0.90811485 5003105
-0.37474206 -0.16924533 0.90682352 4804440
-0.41027293 -0.16230358 0.91279721 3817824
-0.40539271 -0.16660076 0.90796572 4673622
-0.38977054 -0.16706978 0.90434611 5660265
-0.38256595 -0.16573861 0.90251696 5069150
-0.37329555 -0.16300416 0.90212262 4475986
-0.36796993 -0.15889716 0.90044796 4014924
-0.37096253 -0.15699562 0.89888942 4606547
-0.36524954 -0.15469345 0.89782637 3620428
-0.39531982 -0.18620807 0.92311156 4079956
-0.38941443 -0.18761006 0.91951013 5266270
-0.38318595 -0.18711142 0.92035586 5002845
-0.39854139 -0.18018767 0.92118138 4079963
-0.39159721 -0.18319327 0.91779661 5330781
-0.38095915 -0.18112633 0.91678572 5002331
-0.37808856 -0.17543413 0.91382337 5001816
-0.37373316 -0.17260025 0.91374683 4540755
-0.36961931 -0.16601968 0.91086233 4213074
-0.38679245 -0.1957805 0.93448675 5265766
-0.38867727 -0.19157536 0.93154526 5068639
-0.38029796 -0.19023016 0.92894721 4214103
-0.39777413 -0.18560833 0.92775548 1580089
-0.37697846 -0.1843406 0.92342997 4145996
-0.37443027 -0.178736 0.92156446 4212054
-0.39237246 -0.19633916 0.93895167 3618132
-0.38703227 -0.1975918 0.93782717 5199718
-0.38061014 -0.1966923 0.93622637 4214875
-0.37882596 -0.25461119 0.95830822 528927
-0.37384278 -0.2554253 0.95722228 1517876
-0.3720296 -0.26404545 0.97007555 4419983
-0.38717434 -0.25701576 0.97084057 1651559
-0.38257995 -0.25672525 0.96648723 1782104
-0.37128326 -0.25978887 0.96197587 4154236
-0.36537251 -0.25616947 0.96415931 3028033
-0.37851721 -0.2493059 0.97007632 2369321
-0.3717218 -0.24999569 0.96483546 2040105
-0.37923232 -0.23062368 0.96418488 4146252
-0.38463613 -0.26092288 0.98097193 5077683
-0.37831616 -0.26382279 0.97841108 4617364
-0.36913916 -0.26447377 0.97632354 4549258
-0.36455584 -0.25953373 0.97198415 6582660
-0.38648352 -0.24989446 0.97613704 7695014
-0.37881541 -0.24633409 0.97465706 2040625
-0.37106931 -0.24541771 0.97205538 2172202
-0.36450398 -0.25055435 0.97104442 2760198
-0.37750241 -0.27197045 0.98869711 4683677
-0.37195188 -0.27213711 0.98741108 3831442
-0.38515115 -0.26500818 0.988594 3299734
-0.37861839 -0.26755044 0.98587471 4683420
-0.37005857 -0.26820531 0.98490858 3960460
-0.38167948 -0.34290373 1.0104258 3829135
-0.37376034 -0.34266216 1.0085415 4223637
-0.36770037 -0.34329069 1.0071836 3960467
-0.38241974 -0.33355239 1.0096337 3498881
-0.37430304 -0.33338347 1.0072975 3895695
-0.36655796 -0.33224902 1.0057747 3631246
-0.38292807 -0.32272965 1.005538 3499128
-0.37587604 -0.32373923 1.0039865 4025235
-0.36687538 -0.32286125 1.0036998 3499655
-0.38273737 -0.31361863 1.0024874 3826560
-0.37606159 -0.31381065 1.0014559 4156303
-0.36773828 -0.31434014 1.0021373 3630985
-0.38176578 -0.30386212 1.0043485 3893387
-0.3756932 -0.30389807 1.0013206 4157333
-0.36806366 -0.30340582 1.0016004 3762828
-0.37960866 -0.29527974 1.0050203 3762325
-0.37487882 -0.29325956 0.99991572 4420507
-0.36829564 -0.29337457 1.0007907 3828877
-0.38065138 -0.28149283 1.0038409 4222878
-0.37451974 -0.28390384 0.99879616 4552347
-0.36782512 -0.28420523 1.0002837 3631755
-0.3835834 -0.27413157 0.99798775 3627913
-0.37564439 -0.27629593 0.99421364 4683676
-0.36799484 -0.27493066 0.99531114 3892613
-0.36776847 -0.26743865 0.99110538 3563127
-0.38206735 -0.35210103 1.0170714 3033484
-0.37341553 -0.3530913 1.0176147 2897991
-0.363713 -0.3526364 1.0147835 3891064
-0.35597974 -0.35194033 1.0146165 2638186
-0.38626269 -0.34308374 1.0156502 666715
-0.37566024 -0.34563655 1.0134244 4813457
-0.36241433 -0.3431015 1.0100524 3499654
-0.35459009 -0.34282678 1.0119904 3561592
-0.38684058 -0.3317298 1.014613 6722
-0.36248747 -0.33361104 1.0090892 3694979
-0.35563421 -0.33335239 1.0095181 3233144
-0.36089244 -0.32330811 1.0076505 3104639
-0.35560906 -0.32311615 1.009675 2640231
-0.36151215 -0.31362873 1.0067962 2907007
-0.35623488 -0.31342566 1.0102288 3099492
-0.38328367 -0.30078411 1.0105813 4089741
-0.3617641 -0.30404854 1.0062344 3496061
-0.35650241 -0.30259699 1.0096422 4278874
-0.38098541 -0.29280245 1.0092173 2972810
-0.36211944 -0.29363501 1.0062813 3757171
-0.35758623 -0.29448065 1.0090584 3748927
-0.37982634 -0.28708681 1.0083547 3630740
-0.36180577 -0.28647774 1.0040606 3953004
-0.37289572 -0.35876405 1.0234226 984897
-0.36266544 -0.35520917 1.0206534 4350584
-0.35234728 -0.33156985 1.0164771 4674411
-0.35182813 -0.32286176 1.0178646 6974583
-0.35347128 -0.31177905 1.0171057 3815753
-0.38503757 -0.30046865 1.0202519 5799072
-0.35328621 -0.30258054 1.0130148 5064001
-0.34946686 -0.33628497 1.0290204 7039097
-0.34947327 -0.33042365 1.0294489 7565430
-0.35017443 -0.32181537 1.0283803 8223350
-0.35146284 -0.31405243 1.0230632 9076613
