# .PCD v0.7 - Point Cloud Data file format
VERSION 0.7
FIELDS x y z rgba
SIZE 4 4 4 4
TYPE F F F U
COUNT 1 1 1 1
WIDTH 1133
HEIGHT 1
VIEWPOINT 0 0 0 1 0 0 0
POINTS 1133
DATA ascii
-0.058905751 0.020741425 1.0053802 5467271
-0.053466797 0.024121597 1.0048463 5466762
0.070007615 0.022320941 1.0028425 5268360
0.078470014 0.020557977 1.0062282 5663111
0.086758733 0.018154368 1.0077662 6517124
-0.051628686 0.027003594 1.0061529 5532297
-0.037826955 0.029631734 1.0041435 5204613
-0.031605013 0.032078102 1.0054626 5138821
-0.021953611 0.031600088 1.0029273 4876167
-0.014227899 0.034849077 1.0021442 5138310
-0.0027653519 0.034912214 1.0020888 5138050
0.039900802 0.035147265 1.0018824 5006203
0.049557343 0.034248367 1.0021893 5202812
0.057616442 0.03295283 1.0017447 5203582
0.067473993 0.028810441 1.0054029 5597049
-0.028749062 0.036756471 1.0102617 5269636
-0.020245219 0.037548676 1.0077368 5204101
-0.010681007 0.038016528 1.0060744 5072257
-0.00085701048 0.037826017 1.0055463 5006718
0.0087106153 0.037864804 1.0041994 4875393
0.018358409 0.037949994 1.0071542 4875390
0.028834991 0.037922457 1.0072744 4874877
0.039010227 0.037948877 1.0061737 5006460
0.046225533 0.037145302 1.0073979 5202811
-0.10013999 -0.0099906251 1.0137568 6980776
-0.093994074 -0.0096756071 1.0125331 6129600
-0.099096507 -0.0035025999 1.0168996 7570324
-0.091826245 -0.0002649948 1.0133359 6651024
-0.085626379 0.0055767968 1.0128375 6781327
0.09787526 0.0027257577 1.0118625 6854356
0.10945937 0.0028539672 1.0136417 7111067
-0.081397228 0.011376001 1.0140734 6583439
0.10073294 0.013931289 1.0129026 6845830
0.10900754 0.011321008 1.015003 7436672
-0.06911394 0.022343464 1.0167798 6321290
-0.062937222 0.023311481 1.0157529 5795463
0.079750985 0.023850888 1.0164326 5860223
0.089459769 0.019269928 1.0140799 6649473
0.096944302 0.01859767 1.0182288 6977411
-0.069561921 0.026906416 1.0169926 7372164
-0.060125679 0.02728194 1.0157039 6123396
-0.050779067 0.031646684 1.0179238 5729669
-0.042242348 0.032271847 1.0179166 5336195
-0.035566956 0.034816951 1.0132524 5270149
0.069716536 0.031052291 1.0126446 5532277
0.077272266 0.028103933 1.0173416 5860472
-0.051296823 0.036719322 1.0193752 6714755
-0.042230405 0.036769256 1.0193313 5794947
-0.031435125 0.038555399 1.0172178 5466498
-0.020996714 0.041213721 1.0160758 5466240
-0.010512426 0.041771635 1.0171869 5334655
-5.4032542e-005 0.042001545 1.0156398 5138044
0.0089949332 0.042697787 1.0162108 5072252
0.018674977 0.042580694 1.0154676 5072247
0.028332643 0.042096555 1.0150295 5137530
0.03858728 0.041370943 1.0186061 5137788
0.047618069 0.038206398 1.0159173 5268347
0.11637299 -0.0051861927 1.0205936 7374502
-0.099768065 -0.00036111474 1.0259194 9214113
-0.090974137 0.0036395565 1.0241089 6978442
0.11246543 -0.0032596216 1.0206567 7112109
0.11692847 0.00095260143 1.0213618 8686741
-0.089131996 0.0094101503 1.024845 7636109
-0.083805203 0.013559118 1.0240124 7437970
0.11694537 0.0091030225 1.0209149 9277068
0.082520641 0.025145791 1.0224497 5992060
0.089108542 0.023060434 1.0249538 6451580
0.095997624 0.021966413 1.0236446 6516347
-0.059236959 0.029565528 1.0232533 6254982
-0.055652007 0.033849895 1.0293344 6648965
-0.039718874 0.032915905 1.0222322 5270660
0.063745067 0.035457268 1.0247774 5662844
0.069621339 0.034123123 1.0248179 5794679
0.078234501 0.031409696 1.0236135 5926261
0.086442031 0.027767345 1.0264909 6253428
-0.04956466 0.038722858 1.0241632 7043204
-0.040472336 0.039435253 1.024551 6188928
-0.030103186 0.042564169 1.0255042 5991293
-0.020346375 0.044766545 1.0256058 5794427
-0.010563385 0.0448066 1.0247579 5597052
-0.0023660529 0.044441387 1.0235085 5399930
0.0069824727 0.044861749 1.0222714 5203324
0.017699327 0.044920787 1.0222197 5269365
0.030401824 0.045008078 1.0231588 5334394
0.039594688 0.044010997 1.0250912 5466234
0.046161149 0.042213455 1.0258514 5597049
0.063729241 0.038387895 1.0248439 5991033
0.068362303 0.03829813 1.0271052 6055795
-0.018396018 0.046727628 1.0254405 6056827
-0.0093730818 0.047825232 1.0289216 5859449
-0.0010036603 0.048044831 1.0277848 5728377
0.0081764571 0.04751122 1.0293276 5532027
0.018829538 0.047009468 1.0292634 5532021
-0.096941262 0.0011850372 1.0317991 7306630
-0.094979011 0.002179414 1.031812 7438985
-0.077535585 0.019940682 1.0381299 7044228
-0.073628172 0.019981764 1.0351106 6255491
0.091328405 0.025336094 1.0314128 6187632
0.096736565 0.025857672 1.0313978 6119529
-0.05933179 0.032473058 1.0323222 6780808
0.0592997 0.035487145 1.0318019 5465215
0.0830369 0.030386284 1.0365698 6056820
0.089141525 0.029760316 1.034825 5988198
-0.046980724 0.04080309 1.0324498 7108737
-0.040613249 0.043648079 1.0357836 7108222
-0.032245226 0.04481855 1.0324677 6582396
0.050692245 0.042527065 1.0342549 5859705
0.056051143 0.040731296 1.0329373 5728122
-0.027725844 0.048174769 1.0350221 6713719
-0.021307325 0.049095511 1.0364115 6450807
-0.013103306 0.049400389 1.0347273 6122104
-0.0012746565 0.050450549 1.0346924 6122617
0.011053034 0.051023006 1.0350611 6057083
0.017387033 0.050881207 1.03596 6057334
-0.082520805 0.01861807 1.0411254 7832202
0.082700573 0.033701673 1.0406479 5792617
0.085677631 0.033718079 1.0406334 5724767
-0.039433993 0.046918824 1.0415535 7764863
-0.019608336 0.050996616 1.0415477 6384242
-0.010677151 0.05104582 1.0415045 6121843
0.16372137 -0.075855784 1.0567663 13950701
0.16675271 -0.075839087 1.0567516 13160147
0.1657259 -0.072814055 1.0568253 13423577
0.16488831 -0.085686877 1.0635394 12898285
0.16888051 -0.086631387 1.0629979 12832198
0.16339934 -0.079695448 1.0618249 10136266
0.17016847 -0.080138907 1.0618885 13159885
0.16372263 -0.07344301 1.0633227 12175571
0.16904339 -0.07227049 1.0598218 13093836
-0.13998291 -0.10795273 1.0763501 1720740
-0.14079227 -0.10105807 1.0762986 3628972
-0.1418512 -0.094936669 1.0778549 4745397
0.16427974 -0.087676957 1.0724996 6256041
0.16884138 -0.090338394 1.0726167 12767188
0.16249019 -0.078650616 1.0747138 7312841
-0.13771963 -0.13239379 1.0869875 2903988
-0.13460256 -0.13237663 1.0869725 1324707
-0.13924967 -0.12035621 1.0865179 2904505
-0.13798988 -0.11156065 1.0853608 2644141
0.16451176 -0.10787535 1.0860442 5801403
0.16894679 -0.10819718 1.0860149 11779799
-0.13774745 -0.10042357 1.0837116 3039906
0.16361454 -0.098762341 1.085255 3630254
0.16983712 -0.099534713 1.0846182 11516624
0.17693512 -0.099496551 1.0861726 13685195
-0.14028455 -0.091526568 1.0862904 2708908
0.16334622 -0.090277277 1.0845735 3762605
0.16811574 -0.09401454 1.0833398 10465738
0.16344756 -0.083372816 1.0806035 6721740
-0.13803369 -0.074222967 1.0883085 1588628
-0.13491662 -0.074205793 1.0882933 3826867
-0.13105282 -0.1478543 1.0926054 3694011
-0.1360731 -0.14130767 1.0907782 7178192
-0.13083041 -0.14105339 1.0919122 2114980
-0.13634358 -0.12984051 1.0910397 1063065
-0.13184343 -0.13265547 1.0918537 2447769
-0.1359151 -0.12227926 1.0912089 2578847
-0.13340056 -0.12188864 1.0942062 2907546
0.16438031 -0.1190016 1.0912939 6851775
0.16995759 -0.11847183 1.0897778 13029078
-0.13527659 -0.11220308 1.0921845 3104917
-0.13346829 -0.10934348 1.0944911 3170462
0.16292973 -0.10822029 1.0915456 3040417
0.17266092 -0.11145659 1.0899235 13422807
0.17556396 -0.10831279 1.0899805 13619661
-0.13743126 -0.099695131 1.092479 3104162
0.16164483 -0.10000157 1.0910953 2973607
-0.13680927 -0.091374166 1.0929146 3169952
0.16201641 -0.089942873 1.0934651 2843043
-0.13866414 -0.081689917 1.0923011 3301299
-0.12581435 -0.15995529 1.1023077 4750553
-0.12214839 -0.16220585 1.104239 1196192
-0.12788449 -0.15263058 1.0992831 3036848
-0.12394759 -0.15500021 1.1044114 1789334
0.16015761 -0.14934029 1.1006294 12898004
-0.126886 -0.14176577 1.1009473 2776475
0.16060124 -0.1402159 1.0997339 9087435
0.16636916 -0.13546723 1.0964121 13488846
-0.12919244 -0.13103774 1.1009797 3038106
0.16039227 -0.12954658 1.0989766 4354994
0.1682152 -0.12748262 1.096584 13752800
-0.13111168 -0.12137414 1.1026533 2973083
0.16031621 -0.11979811 1.100106 2121388
-0.13604417 -0.10775364 1.0985409 3301280
-0.13261753 -0.11276798 1.1020476 3039132
0.16099051 -0.11168613 1.0981451 2646946
0.17720197 -0.1063932 1.1000185 13817039
-0.13607816 -0.10145821 1.0986838 3366820
-0.13350521 -0.10202411 1.1036597 3105183
0.15931366 -0.099530324 1.1019634 3631271
0.17824297 -0.10428321 1.1000612 13817037
-0.13613859 -0.090266347 1.098938 3499424
-0.13342233 -0.091356702 1.1027009 3302563
0.15892006 -0.089266025 1.1014391 3369127
-0.13343854 -0.081850283 1.1026165 3434147
0.1607884 -0.079695381 1.1026151 2908578
0.1665194 -0.076992534 1.1007383 8233160
-0.1381456 -0.07066524 1.1002499 3365295
-0.13280323 -0.071915038 1.1031849 3499689
0.16152726 -0.070109531 1.1025667 4024485
0.16647395 -0.068575777 1.1009295 11192030
-0.13664904 -0.061828617 1.1025864 2181536
-0.13141632 -0.06168516 1.1037641 3433908
0.16073731 -0.064733446 1.1050463 2708114
-0.1350565 -0.053691696 1.1067642 8233201
-0.13123213 -0.054750349 1.1050065 3564980
0.010309529 0.11904474 1.1059595 9935247
0.016017433 0.11997798 1.1059524 9934992
-0.11643799 -0.17128265 1.1126994 929696
-0.11224055 -0.17166522 1.1149782 1984411
0.15012935 -0.16595425 1.113806 13424882
-0.11751346 -0.16167581 1.1106297 2512540
-0.11286439 -0.16362256 1.11383 2906513
0.15140903 -0.15996999 1.1114902 8955594
0.15703923 -0.15851508 1.1079389 14080986
-0.12474009 -0.14764909 1.1115838 2381461
-0.12158892 -0.15285589 1.1133881 2776212
0.15157063 -0.15034218 1.110472 3697834
-0.12521489 -0.1417508 1.1125535 2841752
-0.12304512 -0.14613095 1.1156108 2906774
0.15337364 -0.14042863 1.111168 2646183
-0.12715584 -0.13122559 1.1138259 2907034
-0.12310269 -0.13546719 1.1158531 2775704
0.15390903 -0.13171804 1.1124632 3696546
0.15593626 -0.12715873 1.1119897 3761571
-0.12823269 -0.12174991 1.1126331 2973083
0.15757871 -0.12103571 1.1114537 3368880
-0.12938468 -0.11153795 1.1123259 3039134
0.15781045 -0.10941988 1.1113219 3500454
-0.12961973 -0.10108506 1.112264 3171232
0.15669842 -0.10101231 1.1125313 3631529
-0.13022785 -0.092305504 1.111766 3302564
0.15511499 -0.090532795 1.10849 3697839
0.15554835 -0.090849876 1.1114814 3763633
-0.13037379 -0.081772171 1.1128058 3368355
0.15605217 -0.079587832 1.1114486 3436468
0.17034763 -0.075891964 1.1117473 10992842
-0.12809087 -0.071344599 1.113031 3697068
0.15386046 -0.066757753 1.1160374 3765679
0.15705104 -0.069130108 1.1111482 3830452
0.16997042 -0.071643643 1.1118455 11387079
-0.12704547 -0.06351497 1.1110028 3631022
-0.12488917 -0.060282998 1.1105653 3500456
0.15317266 -0.05978103 1.1133093 3830449
0.15987949 -0.060181025 1.1107868 5207985
0.16642624 -0.061247513 1.1147662 10334913
-0.12733777 -0.051542707 1.1133478 3434161
0.15226306 -0.050851159 1.1132623 3893939
0.15935624 -0.051277637 1.1124157 8428221
-0.12763 -0.041597769 1.1171471 6194370
-0.12308754 -0.039490398 1.1180297 4421311
0.15006943 -0.039086815 1.1155925 5734064
0.15639752 -0.042749599 1.1165693 10203587
-0.12179022 -0.032818198 1.1181747 6852289
0.1485419 -0.033127129 1.1136256 8955077
0.017516574 0.095651567 1.1203972 9737616
-0.085620672 -0.20809004 1.1223556 7635861
-0.0822201 -0.20862442 1.1249939 8100012
-0.095919743 -0.19829005 1.1252964 10535920
-0.08888948 -0.20087396 1.1228492 5996227
-0.082239479 -0.20503494 1.1250755 6394567
-0.10602824 -0.18713155 1.1175973 8431615
-0.099001952 -0.1895991 1.1202766 1526185
-0.092785627 -0.19205011 1.1242791 1262491
0.13094382 -0.18806629 1.1244026 11717846
-0.11463039 -0.17862482 1.117833 7571711
-0.10762649 -0.18089008 1.1193029 1917611
-0.10061608 -0.1834577 1.1229887 2379673
-0.093829468 -0.18643284 1.1255549 2644619
0.13249673 -0.1811862 1.1245511 5010097
0.13976972 -0.17811063 1.121441 10599906
0.146862 -0.17684191 1.1205772 14081762
-0.10772632 -0.17212237 1.1221579 2709143
0.13348243 -0.17058289 1.1247866 2909858
0.14011148 -0.1699847 1.1209481 4026283
0.14769197 -0.17005163 1.1172261 12307424
-0.11474007 -0.15830941 1.1182944 2775446
-0.11031999 -0.16256385 1.1210858 2775442
0.14131829 -0.16105108 1.1219631 3105445
0.14623402 -0.16007954 1.1169595 2578854
-0.11680087 -0.15117192 1.1206208 2775449
-0.11254881 -0.1536562 1.1250575 2906778
0.14360258 -0.15127198 1.123574 3564451
0.1469309 -0.15018518 1.119581 3433893
-0.12069519 -0.14254314 1.1219765 2840984
0.14506307 -0.14311844 1.125352 3565217
0.14880718 -0.14086041 1.12005 3499430
-0.12558512 -0.13056827 1.1189773 2841497
-0.12256242 -0.13246551 1.124921 2907290
0.15103771 -0.13028099 1.1226128 3237547
-0.12580805 -0.12115156 1.1207924 2973083
-0.12305054 -0.12171842 1.1251671 3038877
0.15408395 -0.1206072 1.1239992 3827369
0.15670963 -0.11938979 1.1178303 3564710
-0.12691359 -0.11121946 1.1222807 3039391
-0.12424406 -0.11320506 1.1260329 3170977
0.15429741 -0.11051577 1.1240451 3565735
0.15666345 -0.11083593 1.1180245 3500198
-0.12707341 -0.10307883 1.1246095 3170977
0.15451303 -0.10148291 1.1235821 3631790
0.15561911 -0.10321566 1.1262047 3434923
-0.12729034 -0.092506312 1.1238501 3302823
0.15411587 -0.090038955 1.1240103 3566513
-0.12731993 -0.082476825 1.122744 3368614
0.15316114 -0.080790773 1.1242633 3632560
-0.12685116 -0.074800089 1.1242495 3565995
0.15190151 -0.070602715 1.1232285 3895728
-0.12398899 -0.059775252 1.1261766 3697842
0.1495019 -0.060627345 1.1219996 4158132
-0.1223779 -0.051436082 1.125121 3502262
0.14831926 -0.049995113 1.1234469 4027837
-0.1197865 -0.041896109 1.1247385 3698611
0.14342202 -0.038669966 1.1277292 4619197
0.1492172 -0.04161134 1.1220937 4946612
-0.1260989 -0.035406578 1.1211381 7180220
-0.11849158 -0.032530576 1.1283675 4815032
0.14329866 -0.032175183 1.1272103 5209534
0.14797762 -0.030230686 1.1198958 8425655
0.018671254 0.091564149 1.1232996 9474444
-0.058598071 -0.21851586 1.1316543 8300241
-0.076876111 -0.21034092 1.128293 7642055
-0.069368936 -0.2110053 1.1303777 4815810
-0.06258367 -0.21445128 1.1317662 5210825
-0.086081371 -0.1984725 1.1282442 932767
-0.07908459 -0.20191535 1.1298161 2382238
-0.07043837 -0.20495936 1.1320205 2251168
0.11306423 -0.20069784 1.1312068 6518691
0.1188891 -0.19960743 1.1297736 11319227
-0.087836206 -0.19178458 1.1302718 2447513
-0.082412593 -0.19527338 1.1322995 2513045
0.12069081 -0.19138554 1.1303272 4617903
0.12772052 -0.19129616 1.1273463 10929103
-0.097354881 -0.18080327 1.1301558 2971544
-0.09141966 -0.18454728 1.130587 2774929
0.12271036 -0.18209484 1.1299137 2909086
0.12759984 -0.18106657 1.1275789 3105187
-0.10496797 -0.16762404 1.1290376 2709911
-0.10030747 -0.17271027 1.1312526 2644371
0.12906849 -0.17125919 1.1284095 3368356
-0.10732569 -0.16106483 1.1310167 2775444
-0.10232953 -0.16517921 1.1317472 2709910
0.13343996 -0.16139355 1.1295965 3368613
0.13762276 -0.15836957 1.1280439 3499683
-0.11058709 -0.15250748 1.1309087 2841497
0.13521081 -0.15398332 1.1321564 3237027
0.13991235 -0.15118803 1.1295291 3302821
-0.11658527 -0.14093144 1.1302722 2645144
-0.11307824 -0.14269567 1.132755 2775964
0.14298269 -0.14125849 1.1305878 3237542
0.14704747 -0.13763802 1.129801 3106215
-0.11845693 -0.13256483 1.1313546 2907291
0.144307 -0.13171214 1.1312827 3499683
0.14739072 -0.12968035 1.1297892 3303338
-0.11949131 -0.12266851 1.1325299 3039134
0.14896098 -0.12118851 1.1302431 3499947
-0.12472807 -0.1083473 1.1304801 3236770
-0.12252907 -0.11269997 1.1337045 3236770
0.15063788 -0.11068352 1.1308795 3500458
-0.12476304 -0.10186907 1.1306272 3237027
-0.12301555 -0.10231205 1.1346095 3302821
0.15294994 -0.10013509 1.131575 3632048
-0.12481551 -0.092151716 1.1308478 3302824
-0.12306528 -0.093102179 1.1348186 3302569
0.15117371 -0.09125562 1.1316812 3632047
-0.12529647 -0.083084561 1.1310558 3434408
-0.12251243 -0.080793142 1.135095 3434665
0.14771949 -0.080222145 1.1315849 4026292
-0.12492044 -0.072717004 1.1312891 3631531
-0.12317935 -0.071973652 1.1352984 3631531
0.14777651 -0.072214246 1.1303921 4157366
-0.12495542 -0.066238776 1.1314362 4025255
-0.12182133 -0.061151914 1.1338223 3632304
0.14717397 -0.060420707 1.130218 4289211
-0.11841211 -0.052130226 1.1334385 3568048
0.14396305 -0.049687881 1.1311443 4094399
0.14632469 -0.054091383 1.1323663 4224702
-0.11714442 -0.046040628 1.1318555 3764911
-0.11371493 -0.041764773 1.1344361 3895729
0.14136484 -0.041300766 1.1321354 4487616
-0.11844152 -0.028014556 1.1352715 6458567
-0.11348845 -0.031745493 1.1345623 3895996
0.14122972 -0.030242823 1.131332 5735616
0.14807323 -0.026943877 1.1309729 9477559
-0.118012 -0.025352687 1.1363301 6852289
-0.11476067 -0.025334775 1.1363144 5933254
0.051390372 0.07725811 1.1338159 9474701
-0.02171878 -0.22903375 1.143236 7248329
0.011132963 -0.23042585 1.1422414 5801654
0.019147119 -0.22924048 1.1416949 5210039
0.031952363 -0.22983305 1.1429517 6328255
0.03961882 -0.22979082 1.1429147 7379645
0.051178701 -0.2296055 1.1428615 8430007
0.059100606 -0.22769791 1.1388643 8625323
-0.059707977 -0.22093767 1.1356061 9678537
-0.048850209 -0.22102782 1.1420782 4422071
-0.039501362 -0.22168587 1.143491 2778029
-0.02972856 -0.22344656 1.1434026 2513574
-0.022099612 -0.22611591 1.1433041 2315684
0.0078400346 -0.22668095 1.1431428 2120102
0.01988733 -0.22661458 1.1430845 2185635
0.033023924 -0.22544725 1.1430459 2186146
0.038505875 -0.22651201 1.1429945 2316696
0.05382698 -0.22423767 1.1429701 4486314
0.061375357 -0.22375585 1.1409429 5997746
0.07251291 -0.22075506 1.1418132 6063288
0.081181191 -0.2192691 1.1429471 6589614
0.089286909 -0.21944344 1.1429029 8757678
-0.065210499 -0.20900705 1.135904 1855898
-0.058459349 -0.21155153 1.1390517 2249885
-0.050743431 -0.21391019 1.1429956 2381985
-0.042598687 -0.21600908 1.143635 3039902
0.075127393 -0.21371812 1.143103 2841504
0.081148081 -0.21313745 1.1430863 3302564
0.090695694 -0.2107996 1.1417582 4420011
0.10047261 -0.20981333 1.13735 6984117
0.1098856 -0.20695513 1.1350818 6254993
-0.076410048 -0.19856948 1.1369964 2710418
-0.068648346 -0.20187125 1.1404649 2775447
-0.06189876 -0.20412683 1.1432002 2906776
0.093105845 -0.20291638 1.1428586 3171492
0.10159557 -0.20143266 1.1400493 3237285
0.10990512 -0.20007689 1.1358092 3629215
-0.079315253 -0.19172902 1.141167 2775191
-0.071147189 -0.19523248 1.143581 2906012
0.10351115 -0.19225383 1.1417818 3040421
0.11042932 -0.19045624 1.1384014 3105703
0.11632308 -0.19060934 1.1354206 2777257
-0.094745673 -0.17763647 1.1367619 2710677
-0.087940522 -0.18156296 1.1401695 2709909
-0.081691042 -0.18519229 1.1425275 2709910
0.11155371 -0.18215397 1.142164 3368100
0.1191048 -0.18017808 1.1377772 3302561
-0.095993891 -0.17117122 1.1400267 2710421
-0.091173016 -0.17408894 1.1440266 2644886
0.11357721 -0.17441577 1.1438036 3040936
0.1215933 -0.17122602 1.1417487 3237031
0.12796822 -0.16822444 1.1388712 3368615
-0.10572723 -0.15812457 1.137259 2776209
-0.10024749 -0.16268256 1.1418797 2841240
0.1235906 -0.16277824 1.1440179 3237287
0.13000976 -0.16040015 1.1388956 3302822
-0.10674126 -0.15158224 1.1419469 2710683
-0.10201385 -0.1549114 1.1446487 2841499
0.13223986 -0.15203059 1.1416298 3237541
0.13717858 -0.14920251 1.1378566 3237798
-0.10891326 -0.1430544 1.1427608 2907293
0.13389033 -0.14331615 1.1444082 3237797
0.1385857 -0.14063406 1.1394444 3303334
-0.11530437 -0.1313042 1.1390579 2907805
-0.11306655 -0.13306524 1.1450657 2907805
0.14038847 -0.13132119 1.1422029 3434407
-0.11584613 -0.12203672 1.140795 3039392
-0.11319453 -0.12332533 1.1460874 3039391
0.14227989 -0.12173745 1.1422838 3500202
0.14638816 -0.11867827 1.1369028 3631274
-0.11903608 -0.11293123 1.1428845 3170979
0.14418709 -0.11151027 1.1446339 3631791
0.14754784 -0.11079183 1.1388541 3566510
-0.11949024 -0.10261301 1.1443021 3105957
0.14329869 -0.10037593 1.1436683 3632305
0.14851379 -0.10130755 1.1376196 3501227
-0.11993717 -0.092540167 1.1422464 3237546
0.14278786 -0.091289736 1.1429979 3698099
0.1473822 -0.091529228 1.1379137 3698094
-0.11936544 -0.082796484 1.1427027 3434923
0.1439769 -0.082023837 1.1437477 3895479
0.14620031 -0.083883941 1.1376929 3895477
-0.11903982 -0.072353862 1.1435572 3566256
0.14418139 -0.070753023 1.145336 4027579
0.14665566 -0.070087984 1.1420045 4157882
-0.11809687 -0.063423693 1.1429986 3567024
0.14208762 -0.061217412 1.1450528 4159422
0.14639595 -0.061239999 1.140606 4289724
-0.11584617 -0.053526767 1.1410152 3567791
-0.11272673 -0.051697154 1.1463759 3764403
0.14031632 -0.051158164 1.1437991 4356797
-0.11106375 -0.042616189 1.1404768 3830196
0.13759731 -0.04157142 1.1430964 4619718
-0.10963799 -0.031762473 1.1430541 3896507
0.1334447 -0.029715419 1.1438749 4817095
0.13795942 -0.030194506 1.1406186 4948420
-0.11729033 -0.022657871 1.1443897 6916535
-0.10979992 -0.02313979 1.1440339 5210049
0.13257413 -0.023378372 1.1461346 5013440
0.13702112 -0.022883855 1.1437899 5998788
0.031831 0.050218672 1.1441597 5859448
0.040018968 0.050383314 1.1422652 6122362
0.045593005 0.050474465 1.1452403 6319482
0.056718089 0.051711291 1.1492144 5330522
0.032381371 0.054702476 1.1427344 5792108
0.040199727 0.05560264 1.1421826 5527648
0.045569442 0.054838985 1.1453395 5067354
-0.015959984 -0.22904263 1.146208 4354997
-0.0085851233 -0.23007466 1.1481487 4684224
0.0013034604 -0.22969259 1.1466411 4289976
0.012267526 -0.22731881 1.1461071 2054307
0.022702113 -0.22781023 1.1460441 2777510
0.028198371 -0.22887778 1.1459926 4026798
0.044669352 -0.22878705 1.145913 5604271
0.048503689 -0.22711919 1.1459318 4881326
-0.034996718 -0.21879655 1.1465349 3039902
-0.027039735 -0.2196817 1.1469754 2710943
-0.018546743 -0.22160718 1.1496948 2645152
-0.0086365268 -0.2244864 1.1529435 2514339
0.0013015252 -0.22431594 1.1523646 2514851
0.011198414 -0.22172156 1.1508406 2842787
0.021070778 -0.22119364 1.148603 2908579
0.030742528 -0.22075659 1.1490539 3039651
0.040946126 -0.22142851 1.1500995 2908578
0.050290391 -0.22049966 1.1498241 2778020
0.060301945 -0.21873072 1.1474925 2646433
0.069885351 -0.2213293 1.1459571 5012145
0.081421942 -0.22254652 1.1458722 8955830
-0.048072107 -0.2104578 1.1470747 2841242
-0.038207725 -0.21252224 1.1490271 2775960
-0.029182578 -0.21379137 1.1508874 2841500
-0.019744521 -0.21599579 1.1545249 2907551
0.01194779 -0.21508424 1.1543883 3105184
0.021159839 -0.21466503 1.1543522 3170722
0.031111 -0.21461019 1.154304 3302053
0.041243456 -0.21400167 1.1542675 3170723
0.051742487 -0.2130226 1.1542376 3105188
0.061061829 -0.21213904 1.1524967 3170467
0.070648313 -0.21178843 1.1485703 3236258
0.080765635 -0.20824689 1.1466444 3171236
-0.064751185 -0.19919953 1.1471269 2906776
-0.058202744 -0.20142519 1.1481872 2907033
-0.049729109 -0.20244715 1.1518134 2841497
-0.040435694 -0.20652923 1.1548423 2775704
0.062028386 -0.20670174 1.15433 3105443
0.070873871 -0.20665301 1.1542872 3105443
0.081642374 -0.20284806 1.1530566 3105956
0.089975946 -0.1998516 1.1495454 3105956
-0.075791106 -0.18828204 1.1474293 2644884
-0.068687648 -0.19187857 1.1503134 2775705
-0.060287699 -0.19476469 1.1528736 2841497
0.085188083 -0.19551972 1.1544687 3172006
0.092828155 -0.19307327 1.153486 3040421
0.098666251 -0.19063503 1.1510117 2974628
-0.084623046 -0.17954808 1.1476712 2645144
-0.077955499 -0.18134867 1.1506569 2710425
-0.07263007 -0.18407451 1.1520817 2776216
0.10208849 -0.18198404 1.151441 3171493
0.10703991 -0.17965516 1.1483184 3237026
-0.087692291 -0.17160812 1.1504555 2710424
-0.081291281 -0.17387158 1.1543307 2710937
0.10498298 -0.17551264 1.1548243 3302823
0.11127663 -0.17132194 1.1517293 3172005
0.11705143 -0.16813105 1.1509308 3172006
-0.096440457 -0.16021821 1.1481683 2841498
-0.092007488 -0.1628255 1.1530116 2907290
0.11376878 -0.16440977 1.1550325 3303592
0.1199922 -0.16096382 1.1537461 3237544
0.12608702 -0.15643075 1.1471502 3303337
-0.098242782 -0.15181151 1.1500827 2973342
-0.093603775 -0.15505041 1.1562736 3038879
0.12358535 -0.15319723 1.1545713 3237544
0.12790743 -0.15004183 1.1500868 3303336
-0.10633453 -0.14028949 1.1496696 2973342
-0.1002297 -0.14352188 1.1540673 2973600
0.13127351 -0.14092712 1.1514772 3368872
-0.10794859 -0.13246797 1.1512084 3039392
-0.10248752 -0.13338524 1.1568091 3236259
0.13253216 -0.13152197 1.1534348 3500460
0.1369195 -0.12892535 1.1477202 3434923
-0.10909812 -0.1228458 1.1519684 3170978
0.13353036 -0.12261028 1.1545488 3500719
0.13819496 -0.12000903 1.1512504 3500718
-0.11573635 -0.1116541 1.1493654 3237029
-0.11188652 -0.11313924 1.1553143 3237286
0.13849875 -0.11121542 1.1542211 3697329
-0.11578377 -0.10287172 1.1495649 3237543
-0.11318995 -0.10259257 1.1570604 3172263
0.13966534 -0.10208827 1.1539168 3697843
-0.11612377 -0.093306899 1.1527843 3303340
-0.11402957 -0.092336752 1.1577973 3303852
0.13938519 -0.091655627 1.154555 3764149
-0.11625452 -0.083479337 1.150007 3500716
-0.11350469 -0.082279563 1.1580228 3501229
0.14226316 -0.081173062 1.1533495 3764661
-0.11593194 -0.075426817 1.1501881 3566512
-0.11275762 -0.072087139 1.1546129 3632306
0.13922596 -0.070981435 1.1534948 3896764
-0.11220782 -0.062465671 1.1548284 3698357
0.13319787 -0.061026409 1.1559472 4291265
0.13701051 -0.062048525 1.1503798 4225217
-0.11064722 -0.053443149 1.1546615 3764408
0.13392524 -0.051406432 1.1554949 4554434
0.13649869 -0.050981823 1.1494901 4488640
-0.10774539 -0.042735592 1.1556902 3895997
-0.10362576 -0.039586507 1.1589421 4027323
0.13347036 -0.040590994 1.1547422 4817354
-0.10627095 -0.033117093 1.1524335 3962044
-0.102272 -0.032023288 1.1583067 4093118
0.12409154 -0.028383039 1.1580664 5014224
0.1294802 -0.030994132 1.1539794 4751563
-0.1052358 -0.022672117 1.1513315 4290235
-0.10033236 -0.022619858 1.155843 4158908
-0.094146617 -0.020373218 1.1593308 4028609
0.12238087 -0.021315388 1.1564569 4817874
0.12903741 -0.020875312 1.1512103 5145287
-0.09799476 -0.01591216 1.1538496 4487616
-0.092607692 -0.013316825 1.1581496 4356800
0.11345827 -0.0088476315 1.1565617 5276623
0.11979754 -0.011739612 1.1527494 5604813
0.12920104 -0.01287315 1.1512798 6720449
-0.090536594 -0.0063510165 1.1596309 5671109
0.11157604 -0.0033263341 1.1581252 5802961
0.11792728 -0.0039671287 1.1539829 6787017
0.035415955 0.012029968 1.1594229 12972031
-0.019899314 0.02168157 1.1579157 5869264
0.012531324 0.018168099 1.1596757 7515376
0.020027397 0.0178409 1.159631 8764660
0.029636959 0.017451674 1.1595746 10146554
0.036276631 0.016456485 1.1595191 10870005
-0.077700645 0.029809415 1.1523852 8028800
-0.072578318 0.030203566 1.1523688 7305855
-0.015505213 0.02280391 1.15992 5671370
-0.012188161 0.022822186 1.1599039 5869265
0.011031216 0.022950105 1.1597916 6988787
0.015453954 0.022974461 1.1597703 7185904
0.10164961 0.032292858 1.1595539 6314850
-0.071385242 0.035211354 1.1524764 8028802
0.098534599 0.035813138 1.1596493 6117979
0.074479505 0.046383291 1.1520061 5593178
0.076675646 0.046395391 1.1519954 5658970
-0.014233584 -0.21902123 1.1584301 2973083
-0.0086801238 -0.2200999 1.158378 2973595
0.00074965321 -0.21963288 1.1590087 2973598
-0.034264363 -0.20803905 1.1587785 2842012
-0.027877292 -0.20939045 1.1587162 2776219
-0.018515268 -0.21185336 1.1601381 2907806
-0.0089048706 -0.21321647 1.161694 2907807
0.0016570482 -0.21370271 1.1618061 2973599
0.01051159 -0.21125463 1.1591502 3039136
0.021253074 -0.21022066 1.1597873 3170723
0.031227585 -0.21003124 1.1590753 3236770
0.041020676 -0.20950153 1.1583718 3170979
0.050066166 -0.20923838 1.1583329 3170980
0.056714147 -0.20753786 1.1583385 3171236
-0.045407213 -0.19922638 1.1590337 2842012
-0.038678773 -0.20148741 1.160404 2842011
-0.029047502 -0.20371559 1.1613128 2842012
-0.020744121 -0.20515394 1.1627779 2907805
0.025743805 -0.20628917 1.1625215 3302309
0.031743977 -0.20507371 1.1613762 3302308
0.040390067 -0.20487419 1.1599803 3171236
0.051154695 -0.20534998 1.1584157 3171236
0.061781451 -0.20395613 1.1600617 3105443
0.071590245 -0.20196459 1.1593914 3171492
0.078124441 -0.20002489 1.1584027 3040420
-0.066547483 -0.1882503 1.1593875 2841497
-0.057753935 -0.19096252 1.1598158 2907291
-0.049294613 -0.19359666 1.1610636 2907549
-0.042602904 -0.19479299 1.1631213 2907551
0.074669056 -0.19488899 1.1625373 3040420
0.08166638 -0.1929664 1.160651 3106213
0.089462936 -0.19027494 1.1585675 3106214
-0.068076119 -0.1818189 1.1615415 2907290
-0.061466157 -0.18469524 1.1629438 2973340
0.085754022 -0.18592343 1.1626858 3302823
0.091774806 -0.18345141 1.1603113 3237030
0.097897232 -0.18001574 1.1605366 3237031
-0.085516684 -0.16838822 1.1599321 2841497
-0.077098154 -0.17183286 1.1603457 2842012
-0.070953958 -0.17409064 1.1627313 2907547
0.10303686 -0.17228532 1.1598315 3368361
0.10809901 -0.1689855 1.158958 3237285
-0.087027945 -0.16248053 1.1600736 2973085
-0.080232427 -0.16272998 1.1627718 3039135
0.10530432 -0.16511852 1.1590595 3368615
0.11181445 -0.16176957 1.1598307 3237799
0.11636332 -0.15840206 1.159157 3303337
-0.094494447 -0.14958034 1.1604033 2973857
-0.089038737 -0.1531148 1.1618519 3039137
-0.083088711 -0.15401819 1.164247 3104930
0.11376936 -0.15428942 1.1612637 3172264
0.11996999 -0.15133512 1.1599662 3238059
-0.095725156 -0.14140943 1.1615949 3039650
-0.09170983 -0.14504987 1.1644932 3105700
0.12316354 -0.14160995 1.1616585 3369132
0.12736844 -0.14170261 1.1594812 3434410
-0.098524086 -0.13287994 1.1625167 3171236
0.1250166 -0.13350317 1.1628796 3500719
0.12837045 -0.13115387 1.161716 3435183
-0.10574509 -0.12080169 1.1611117 3302823
-0.10107001 -0.12281561 1.1637102 3171495
0.129077 -0.12105075 1.1617597 3566514
-0.10753128 -0.11221124 1.1627704 3368873
-0.10383696 -0.11340678 1.1644708 3368875
0.13173799 -0.11182198 1.1609374 3697588
-0.10847827 -0.10317983 1.1641923 3303850
0.13326685 -0.10227575 1.1637756 3763892
0.13647139 -0.10149744 1.1603478 3698099
-0.10988234 -0.092960082 1.1633642 3435181
-0.10401233 -0.093471505 1.165724 3435438
0.13423461 -0.092159048 1.1645718 3829942
0.13706419 -0.091529891 1.1617142 3764149
-0.10889649 -0.083292618 1.1639786 3501229
0.13416249 -0.07880269 1.164875 3896505
0.13856313 -0.081610814 1.1626072 3830455
-0.10835376 -0.073420376 1.1637381 3632563
-0.10413853 -0.070097879 1.1662548 3567542
0.13175184 -0.07160069 1.1624783 4027837
0.13699456 -0.075094305 1.1609441 3896505
-0.10765007 -0.063355558 1.1637578 3829940
-0.10417458 -0.063419685 1.1664064 3699127
0.13020451 -0.062025908 1.1639415 4291009
-0.10728887 -0.053202674 1.1634527 3895737
-0.10359763 -0.052444894 1.1666524 4027576
0.13044319 -0.051972844 1.1635015 4422849
-0.10614634 -0.046483841 1.1627992 4158911
-0.1016687 -0.042806238 1.164861 4093372
0.13033192 -0.042219952 1.1632231 4817355
-0.097973287 -0.03337846 1.1645949 4093630
-0.093221821 -0.029967465 1.1671108 4094397
0.12282479 -0.031532347 1.1642252 5080014
0.12734528 -0.034659661 1.1619091 4883149
-0.095902845 -0.025721326 1.1632193 4028348
-0.091403455 -0.023173749 1.1647552 4028864
0.11827836 -0.021905832 1.1640215 4949202
-0.08789093 -0.013571061 1.1652738 4029123
-0.083673351 -0.011363812 1.1674854 3963586
0.11214441 -0.01209721 1.1651635 5146069
0.11559677 -0.016421683 1.1623809 5080276
-0.087134682 -0.0057064295 1.1636298 5342665
-0.080004096 -0.0036092326 1.1676431 4882633
-0.016566137 0.0005075261 1.1674217 6070261
-0.0098863188 0.00054432452 1.1673894 6528744
-0.0032064971 0.00058112293 1.1673571 8827627
0.01237975 0.00066698343 1.1672816 10340848
0.021130567 7.9162419e-005 1.1672249 8895736
0.02864119 -0.00057910383 1.1671728 6266608
0.1030225 0.00063249469 1.165831 5475287
0.10751516 -0.0028220117 1.1640632 5475028
-0.076573119 0.0024446845 1.1657628 5999306
-0.069918327 0.0035905987 1.1657557 5540557
-0.061371297 0.0069869384 1.1651236 5803727
-0.048649929 0.0087405965 1.1677675 4950220
-0.039681226 0.0076657236 1.1676987 5016280
-0.029954279 0.0071174204 1.1672379 5411294
-0.019915329 0.0072009489 1.1653495 5806569
-0.0099184718 0.0072315782 1.166941 7120874
-0.0003307648 0.008017391 1.1675115 12379901
0.010254305 0.007608898 1.1649227 13891069
0.020068035 0.007439658 1.1641964 12969723
0.030026358 0.0077114329 1.1650375 9946095
0.040101618 0.007526271 1.1653862 10013177
0.049826913 0.0094654486 1.165141 7449069
0.056484699 0.011298537 1.167304 5411552
0.1000832 0.0045384467 1.1644337 6526426
-0.046697445 0.013698302 1.1678703 6264275
-0.039119385 0.01460018 1.1653526 5803990
-0.029552786 0.015316859 1.163821 5345755
-0.019552397 0.016633444 1.1638012 5412839
-0.0099625885 0.01726789 1.1642681 5676266
-0.00090814009 0.016343132 1.1665599 7253489
0.0089162914 0.016257957 1.1646518 8436213
0.018903108 0.014104784 1.163553 12051453
0.033302575 0.018621132 1.163584 10082302
0.041146994 0.017924845 1.1635294 10607102
0.049636543 0.017126463 1.1634691 7515119
0.056685194 0.016521476 1.1647542 6068200
-0.007772658 0.022831865 1.1638833 6001365
-0.0033346824 0.02285631 1.1638619 6396124
0.10913687 0.029244035 1.1634487 6447199
-0.0054158214 -0.20949376 1.1666046 3039391
0.0021318998 -0.20891425 1.1680807 3039135
0.013575098 -0.20938915 1.1665127 3104930
-0.034521058 -0.1984854 1.1669986 2776478
-0.028129561 -0.1993911 1.168947 2842271
-0.018206803 -0.20102505 1.171043 2907807
-0.0089669004 -0.20284475 1.1714699 2908063
0.0010621157 -0.20366415 1.1725062 2973600
0.011375744 -0.20261449 1.1720121 3105187
0.021297855 -0.20218787 1.1710527 3236773
0.030992633 -0.20077991 1.1703559 3237029
0.041941226 -0.20080672 1.1703676 3171237
0.051586881 -0.20165089 1.1680001 3171236
0.061096407 -0.20002615 1.1674126 3105444
0.069932014 -0.19846842 1.1664808 3171493
-0.046747401 -0.18975706 1.1704581 2841758
-0.038630985 -0.1920374 1.1711663 2907551
-0.029700438 -0.19315869 1.1739209 2842271
-0.01900197 -0.19431493 1.1750184 2908064
-0.01224751 -0.1954022 1.1749603 2973857
0.0091223968 -0.19528449 1.1748569 3105444
0.02198893 -0.19421405 1.1748173 3237030
0.032037705 -0.19455624 1.1739595 3302823
0.04169485 -0.193719 1.1738075 3171495
0.051047176 -0.19224778 1.173326 3105703
0.060757786 -0.19244814 1.1730646 3105703
0.07055299 -0.1918529 1.171129 3105702
0.078859963 -0.18924004 1.1683606 3105958
-0.058076195 -0.18208781 1.1691349 2973598
-0.050049715 -0.183863 1.173409 2907551
-0.040137745 -0.18571657 1.1753182 2908065
0.072305284 -0.18351853 1.1748103 3237288
0.081109934 -0.18270098 1.17234 3302823
0.089748345 -0.18054326 1.1693611 3237287
-0.067535862 -0.17090145 1.170646 3105183
-0.060038209 -0.17430767 1.173793 2974112
-0.051716328 -0.17650332 1.1755847 2842786
0.082577862 -0.17598841 1.1749301 3171750
0.091181792 -0.17230144 1.1736374 3172008
0.09921743 -0.17040366 1.169306 3303081
-0.075724244 -0.16121629 1.1687152 3104930
-0.069455139 -0.16363868 1.1746308 3170978
0.093632117 -0.16397581 1.1751478 3303337
0.10139107 -0.16236249 1.1728952 3368873
0.10831013 -0.16094536 1.1696875 3237543
-0.085617371 -0.14853103 1.1710525 3040164
-0.078868337 -0.15227544 1.1720573 3105701
-0.072443672 -0.15675153 1.1761355 3302822
0.10292657 -0.15338653 1.1753417 3303597
0.11029528 -0.15081993 1.1709986 3238059
0.11734433 -0.14768633 1.1693978 3303852
-0.088087797 -0.14223659 1.1723189 3106213
-0.08029034 -0.14433166 1.1764561 3172007
0.1111671 -0.14184205 1.1753627 3369387
0.11908559 -0.14147279 1.1715307 3435181
-0.095308729 -0.13198547 1.1701422 3237030
-0.088710301 -0.13272116 1.1744273 3237800
-0.082302637 -0.13619021 1.1766508 3303594
0.11295444 -0.13578928 1.1756911 3500972
0.12132478 -0.13139185 1.1724985 3500976
0.12596934 -0.12835521 1.167793 3500977
-0.096489318 -0.12277701 1.1721351 3237545
-0.091796927 -0.12450697 1.1760737 3303852
0.12307755 -0.12193976 1.1759551 3566772
0.12638193 -0.12216146 1.1719325 3566515
-0.099053375 -0.1130868 1.1725066 3369389
0.12388303 -0.11240394 1.1761672 3763639
0.12721741 -0.11133909 1.1712847 3763639
-0.10592236 -0.099246822 1.1709373 3435181
-0.10051392 -0.10297726 1.1740649 3435438
0.12446588 -0.10131648 1.1764159 3895737
0.1294243 -0.10105162 1.1712193 3764149
-0.10545171 -0.092793316 1.1721483 3435438
-0.1000566 -0.093487121 1.1761684 3501231
0.12443553 -0.095694199 1.1765436 3961530
0.12976737 -0.091567665 1.1714329 3961528
0.13692342 -0.088087484 1.1686519 3895735
-0.10521724 -0.083556168 1.1729568 3501489
-0.10093624 -0.083375975 1.1758229 3501490
0.1243384 -0.07770291 1.1769521 4159679
0.13005129 -0.082239442 1.1720923 3962041
0.13691136 -0.085853815 1.1687026 3895735
-0.10573088 -0.076196656 1.1721261 3501747
-0.10092627 -0.073041342 1.1748412 3567541
0.12355417 -0.071335122 1.1771004 4225473
0.12723058 -0.071726166 1.1730721 4159424
-0.099212267 -0.062858202 1.1739967 3764919
0.12325634 -0.062465798 1.1773031 4422597
0.12717614 -0.061640337 1.1733012 4357059
-0.098773234 -0.053081661 1.1740447 3896505
-0.0939992 -0.053042445 1.1785946 3962298
0.12307403 -0.051846627 1.1775448 4685767
0.12712169 -0.051554516 1.1735302 4422851
-0.097370356 -0.043908574 1.1724167 4027836
-0.092339531 -0.042237382 1.1777402 4028094
0.12113138 -0.041218042 1.1756772 4948684
0.12701631 -0.04297049 1.1707246 4751818
-0.095725507 -0.035759252 1.170993 4093632
-0.090143576 -0.032412238 1.1768889 4094399
0.11433776 -0.030904286 1.1780632 5080784
0.11863248 -0.031838574 1.1732193 5211343
-0.086948045 -0.02392038 1.1755828 4094402
-0.080423199 -0.020881146 1.1782564 4226244
-0.073936164 -0.019197248 1.1792628 4620744
-0.019955108 -0.017775387 1.1790271 5412064
0.0025395304 -0.017651454 1.1789184 6463211
0.010631847 -0.021443389 1.1787922 6397929
0.020315707 -0.02074945 1.1787599 6397929
0.029540032 -0.018787853 1.1787586 6003432
0.11127126 -0.021587588 1.1757889 5081042
0.11647167 -0.024538457 1.1701947 5081041
-0.079130895 -0.012947358 1.1732951 4160963
-0.071033105 -0.012086503 1.1785522 4752075
-0.055995092 -0.0089780092 1.1794055 4949201
-0.049243666 -0.0095030591 1.17936 5016022
-0.039659753 -0.010554537 1.1786218 5213659
-0.029827202 -0.011391506 1.1779897 5411552
-0.019974986 -0.012128793 1.1783551 5740773
-0.0098628793 -0.012097336 1.1791059 6003172
0.00025656912 -0.012029476 1.1786571 6331366
0.010341549 -0.011889361 1.1760094 6989552
0.02044538 -0.011846974 1.1763604 6792432
0.030528318 -0.011769153 1.1756619 5937640
0.039022416 -0.010858759 1.1778911 5806054
0.049735762 -0.0095200539 1.1788687 5674725
0.056478083 -0.0083584115 1.1788615 5674983
0.10232457 -0.01063595 1.1785824 5146841
0.10832539 -0.012534738 1.1727937 5080789
-0.075786307 -0.0043769926 1.1716058 4554184
-0.072329074 -0.00359983 1.174607 4751049
-0.057062954 -0.0033160448 1.1775386 4818129
-0.049624279 -0.0032546148 1.1767029 5015507
-0.040100902 -0.0031112581 1.1732579 5147609
-0.029999638 -0.0030216351 1.1719096 5346018
-0.020344039 -0.0034098998 1.1744646 5937898
-0.0098898783 -0.0041036233 1.1746193 6462952
0.00055790413 -0.0032783374 1.1736971 8303605
0.0099273212 -0.0033066496 1.1726338 8501495
0.019785875 -0.0042116493 1.171751 7252467
0.031095948 -0.0036257878 1.1725476 6069484
0.040242612 -0.0025075823 1.173389 6135528
0.050372131 -0.0029057041 1.1764265 5741031
0.059768386 -0.0026941746 1.1779734 5543655
0.069245361 -0.0013681427 1.1789567 5477092
0.079303116 1.3589859e-005 1.1789382 5739747
0.09067674 -0.00017365813 1.1788775 5280481
0.099892907 -0.0026637018 1.175082 5015513
0.10538103 -0.0045526847 1.1727035 4949463
-0.069119811 0.0023609698 1.1717256 4818122
-0.059691764 0.0034056604 1.1717025 5147606
-0.051007137 0.0041980818 1.1716774 4818639
-0.042309105 0.0025086626 1.1715959 5344472
0.0023724036 0.0033132359 1.1713924 12971007
0.0068438705 0.0027794316 1.1713582 12905215
0.03142035 0.0029148236 1.1712394 5807584
0.04482571 0.0029886663 1.1711745 6004710
0.050884865 0.00397937 1.1711669 5807083
0.059673868 0.0064547285 1.1733134 5477863
0.068192683 0.0060088187 1.175795 5542628
0.080036744 0.0030162558 1.1790026 5673698
0.090587497 0.0050667673 1.1774963 5804766
0.096212894 0.0032717511 1.170926 5147865
0.062639214 0.014255516 1.1713417 5412324
-0.0054863729 -0.19837505 1.1788603 3039650
0.00096591376 -0.19898424 1.1788145 3039650
-0.02584275 -0.19058912 1.1791379 2842271
-0.019071506 -0.19055182 1.1791052 2973857
-0.0087343119 -0.19161475 1.1802932 2973857
0.0010333303 -0.19334206 1.1814691 3039395
0.011678857 -0.19133228 1.1807131 3171237
0.0209739 -0.18984704 1.1799893 3237030
0.031318799 -0.18925044 1.1804235 3302569
0.039657462 -0.18934099 1.1801749 3237546
-0.045568183 -0.18022072 1.1794709 2908065
-0.037985608 -0.18114607 1.1794124 2973857
-0.02928924 -0.18288431 1.18033 2973857
-0.019527173 -0.18475658 1.181357 2973858
-0.011220869 -0.18558247 1.18318 3105444
0.020484947 -0.18540782 1.1830266 3237030
0.032177754 -0.18383393 1.1830043 3302825
0.0411053 -0.18332273 1.1826638 3171754
0.050956875 -0.18374825 1.1809125 3171752
0.061295144 -0.18325455 1.180284 3171753
0.069713883 -0.18008181 1.1799024 3237546
0.077916026 -0.17760625 1.1789175 3303592
-0.056797162 -0.17082638 1.1797397 2908579
-0.048581943 -0.172996 1.1816503 2908579
-0.038734995 -0.17443201 1.1824782 3105444
-0.03006923 -0.17617661 1.1834868 3105443
0.064597718 -0.17610796 1.1830187 3303339
0.072612114 -0.17376062 1.1816984 3303082
0.080986962 -0.17155887 1.1796111 3237545
0.086895622 -0.1685304 1.1790788 3303850
-0.065886416 -0.15959346 1.1800395 3302822
-0.059239678 -0.16391248 1.1821592 3040165
-0.052083269 -0.16769388 1.1837884 3040167
0.075872324 -0.166989 1.1831695 3303598
0.081908673 -0.16294017 1.18229 3238061
0.090452425 -0.1607869 1.1803483 3303596
0.098126203 -0.15831384 1.1792549 3369131
-0.075723946 -0.14911689 1.180326 3171751
-0.069271855 -0.15274566 1.1816238 3368615
-0.062335551 -0.15642929 1.1840947 3171751
0.099912859 -0.15176441 1.180895 3369134
-0.077736966 -0.1420761 1.1804956 3369130
-0.071592703 -0.14406997 1.1834207 3434922
0.10099426 -0.14213039 1.182656 3435183
-0.079502039 -0.13351956 1.1820321 3434923
0.10370892 -0.13502559 1.1829562 3501232
0.1104494 -0.13184284 1.1823829 3435694
0.11715912 -0.13000154 1.1798025 3501232
-0.087786317 -0.1224165 1.1819917 3369646
-0.082039364 -0.12617588 1.183545 3435182
0.11413387 -0.12262608 1.1839858 3567282
0.11822551 -0.12201951 1.1817969 3567027
-0.096250892 -0.10973954 1.1813209 3501231
-0.091631152 -0.11370628 1.1839588 3435439
0.1140911 -0.11470157 1.1841658 3829686
0.11917151 -0.1118211 1.1824278 3829431
-0.096269168 -0.10635474 1.1813978 3501231
-0.091891848 -0.10312893 1.1831163 3567024
0.12143052 -0.10244081 1.1830738 3830201
-0.096345313 -0.09225145 1.181718 3632818
-0.093102068 -0.092999279 1.1836854 3698612
0.12348755 -0.091806129 1.1826379 3896507
-0.096397087 -0.082661204 1.1819358 3633333
-0.092537306 -0.082899258 1.1847119 3764919
0.12326549 -0.081589907 1.1823707 4093886
-0.09689603 -0.073863223 1.1821378 3633334
-0.092847392 -0.07298027 1.1853385 3830201
0.12021344 -0.072000578 1.1833256 4291523
-0.092487246 -0.062643781 1.1840374 3896506
0.11966412 -0.061507367 1.1829441 4619975
-0.089258425 -0.053078309 1.184286 4028348
0.1137427 -0.050173435 1.185631 5146320
0.11817818 -0.05234671 1.1845596 4883148
-0.087598562 -0.043623779 1.1830633 3962814
-0.082612589 -0.04229597 1.1856408 3963072
0.1126955 -0.041319914 1.1843367 5146577
0.11645757 -0.042875778 1.1822822 5080527
-0.086274013 -0.034539945 1.182977 4028607
-0.080094226 -0.032807969 1.1851195 4291526
-0.030175829 -0.030588336 1.1867893 5147865
-0.022703538 -0.030320749 1.1867583 5344731
-0.0064025782 -0.029325269 1.1867 5345501
0.00039152429 -0.029287845 1.1866671 5739743
0.010576684 -0.031432673 1.1852343 5936862
0.019633375 -0.031398602 1.1855235 5871068
0.029838748 -0.030257717 1.186499 5739228
0.047950245 -0.029025853 1.1864371 5213656
0.11077069 -0.032448441 1.1844474 4949970
-0.078367434 -0.025300771 1.1831473 4422856
-0.069951862 -0.020534351 1.1850322 4686797
-0.059587196 -0.019353434 1.1851895 4884690
-0.049175844 -0.020768121 1.1866062 4950486
-0.038720593 -0.021450482 1.1857053 5213659
-0.030154044 -0.02253218 1.1837711 5279707
-0.019985238 -0.023622297 1.184096 5345244
-0.0098294932 -0.021932431 1.183995 5411808
3.4760684e-005 -0.022987038 1.1837201 5806052
0.0093832351 -0.026039682 1.1826952 6068964
0.021423038 -0.026349455 1.1826284 6068963
0.031451568 -0.023935013 1.1835567 6003173
0.039903246 -0.022190273 1.1844316 5608417
0.050106488 -0.022156976 1.1849818 5411038
0.056972377 -0.022183508 1.1865475 5279709
0.10164943 -0.020160086 1.1854485 5212630
0.10730612 -0.023679219 1.1835966 5015248
-0.066291973 -0.014797486 1.1833255 4949712
-0.059520729 -0.014760189 1.1832929 4949713
-0.049363852 -0.014704235 1.1832438 5016279
-0.039957307 -0.015028521 1.1831897 5213659
-0.031301096 -0.015733019 1.1831307 5345501
0.041486759 -0.014767908 1.1827916 5871590
0.049947776 -0.014157146 1.1827635 5871847
0.060202636 -0.011913948 1.1847639 5543139
0.067483351 -0.010751478 1.18504 5280225
0.092014126 -0.01066941 1.1866349 5411294
0.097870693 -0.011992522 1.1840297 5279196
0.069651552 -0.0055863783 1.18286 5411556
0.079235025 -0.0038411319 1.182852 5412066
0.090520434 -0.0037789643 1.1827976 5477344
0.097303852 -0.0059981868 1.1827135 5213404
0.0020299489 -0.18887538 1.1870407 3105189
-0.018381266 -0.18054694 1.188331 3039906
-0.0086668264 -0.18263716 1.1886642 3039908
0.00088326447 -0.18378857 1.1904958 3105447
0.011475286 -0.18289499 1.1878796 3105702
0.020548388 -0.18157923 1.1871142 3171750
0.029532153 -0.18111669 1.1870801 3237289
0.040987 -0.17919481 1.1870669 3237548
0.051212445 -0.17913848 1.1870174 3171752
0.060301721 -0.17908841 1.1869736 3171752
-0.046099268 -0.16922414 1.1877251 3039909
-0.038241476 -0.1699321 1.1885592 3105701
-0.030062696 -0.17257383 1.1901157 3105443
-0.020427229 -0.17794624 1.191401 3040163
0.010347019 -0.17686495 1.1912729 3105960
0.021740697 -0.17568776 1.1912429 3105958
0.03082623 -0.17410849 1.1904335 3237545
0.041213129 -0.17296568 1.1893129 3237547
0.051251851 -0.17258607 1.1887662 3237544
0.06131506 -0.17230536 1.188807 3237545
0.069951683 -0.17024696 1.187793 3303339
-0.057398155 -0.15985829 1.1879936 3172009
-0.048946656 -0.16302973 1.1902803 3105961
-0.039590947 -0.16522993 1.1917845 3171752
0.044489488 -0.1661914 1.1913455 3303337
0.051329307 -0.16615373 1.1913124 3303593
0.061420903 -0.16512123 1.1912857 3303594
0.07060796 -0.16242811 1.190051 3303596
0.077408314 -0.16081953 1.1873029 3238062
-0.064829193 -0.15137985 1.1882228 3434409
-0.059064202 -0.15317476 1.1909777 3237547
-0.05070655 -0.1555258 1.1920598 3237805
0.07153663 -0.15515171 1.1914617 3238318
0.080812149 -0.15214294 1.1903636 3238572
0.090926744 -0.15183465 1.18864 3434926
0.097418144 -0.15116762 1.1874226 3369134
-0.067212716 -0.14239097 1.1896696 3435179
-0.061246797 -0.14442086 1.1919193 3369388
0.085417628 -0.1454509 1.1916128 3500977
0.091015324 -0.14185917 1.1906663 3435186
0.09645851 -0.14178267 1.1876402 3500720
-0.075787343 -0.13169296 1.1897238 3566511
-0.07006117 -0.13457763 1.1912972 3566767
-0.062827609 -0.13714977 1.1925366 3500977
0.092440613 -0.13423143 1.1913323 3501234
0.10030276 -0.1316845 1.1886004 3501490
-0.085457914 -0.11855197 1.1890696 3566770
-0.078659981 -0.12315586 1.1915321 3632306
-0.071996599 -0.12808248 1.1927878 3632563
0.10206687 -0.12305434 1.190626 3699127
0.10949311 -0.1216785 1.1885023 3633076
-0.086691663 -0.11299425 1.1902021 3566770
-0.080666907 -0.11392755 1.1931518 3763892
0.10291793 -0.1140121 1.192239 3633335
0.10957111 -0.11172605 1.1898129 3764407
-0.086868942 -0.10295815 1.1922311 3698868
-0.082515635 -0.10357307 1.1933959 3699126
0.10342332 -0.10204222 1.192508 3962811
0.10995767 -0.10206813 1.191308 3830969
0.11767007 -0.10217927 1.1884332 3830714
-0.088105582 -0.092968673 1.1905863 3699126
-0.082822978 -0.093570523 1.1936243 3830712
0.11060583 -0.09213943 1.1920968 4028606
0.11875192 -0.09211234 1.1886562 3962300
-0.087573163 -0.083497792 1.1914756 3830970
-0.082661808 -0.083203584 1.1938585 3962813
0.11083163 -0.083095416 1.192901 4291522
0.11869313 -0.082556956 1.1892369 4094399
-0.087928452 -0.073435724 1.1918199 3962044
-0.083038487 -0.073762238 1.1940745 4093630
0.11235631 -0.072338916 1.1928706 4554438
0.11718775 -0.07297267 1.189098 4357059
-0.087360762 -0.063382618 1.191664 4093886
-0.082772568 -0.062689163 1.1943244 4291009
0.11046375 -0.061793115 1.1924969 4686026
0.11647807 -0.061779708 1.1893554 4685769
-0.085795209 -0.056078508 1.1904882 4159935
-0.080792591 -0.053647831 1.1933764 4225985
0.10315258 -0.051895879 1.1936467 5015248
0.10923348 -0.053075932 1.1909225 5014991
-0.077833198 -0.043798808 1.1928455 4292037
-0.072439633 -0.046024848 1.194651 4619977
-0.049677156 -0.039061114 1.1946961 5279449
-0.041697368 -0.039017156 1.1946574 5016538
