# .PCD v0.7 - Point Cloud Data file format
VERSION 0.7
FIELDS x y z rgba
SIZE 4 4 4 4
TYPE F F F U
COUNT 1 1 1 1
WIDTH 174
HEIGHT 1
VIEWPOINT 0 0 0 1 0 0 0
POINTS 174
DATA ascii
-0.44042677 -0.090818465 0.88233721 5134174
-0.43371394 -0.091868624 0.8809669 5134176
-0.44142506 -0.086249821 0.8818242 4871515
-0.44482446 -0.10772897 0.89336526 4936281
-0.43442455 -0.10941263 0.89125144 5199967
-0.42969662 -0.10903087 0.89010412 5397348
-0.4536072 -0.10180034 0.89410663 4673880
-0.44648024 -0.10201268 0.8905133 4870232
-0.43706849 -0.10107822 0.88894629 5068382
-0.42748305 -0.09985663 0.88711411 5068384
-0.41985631 -0.097572587 0.88598394 4476504
-0.45535627 -0.092732996 0.89161545 4607822
-0.44879854 -0.092368208 0.8886658 4673623
-0.43806452 -0.092246339 0.88618201 5134174
-0.42805558 -0.090548933 0.8836087 4739419
-0.42019302 -0.089975253 0.88304627 4081746
-0.45610613 -0.084238738 0.89213902 4410445
-0.44879603 -0.08299648 0.88714284 4213839
-0.4388589 -0.081684969 0.88464868 4345429
-0.42904839 -0.081303261 0.88233471 4016211
-0.42086339 -0.080826618 0.88157701 3621193
-0.4488104 -0.077590086 0.8862679 3884109
-0.43982103 -0.075888582 0.88392794 3752784
-0.42971027 -0.075139463 0.88148534 3621192
-0.42252243 -0.075642385 0.87991709 3686459
-0.44929427 -0.11874906 0.90701455 4673626
-0.44194645 -0.11945584 0.90249211 4870741
-0.43289858 -0.1198595 0.90067244 5265754
-0.42315802 -0.11832764 0.89846528 5397604
-0.41453385 -0.11450096 0.89893883 4608350
-0.45212996 -0.11056291 0.9022547 4673629
-0.44432503 -0.11176345 0.89840734 4870744
-0.43603483 -0.11269878 0.89630997 5134174
-0.42415124 -0.10966481 0.89376676 5397606
-0.41528639 -0.10759179 0.89572269 4476760
-0.40918681 -0.10277871 0.89580715 4015442
-0.45878589 -0.1022587 0.90710819 3883351
-0.45656186 -0.10278641 0.9012816 4475995
-0.42412415 -0.10327116 0.89204443 5068641
-0.41514197 -0.099093959 0.89143628 4082513
-0.40850979 -0.096806288 0.89416218 3752531
-0.45910931 -0.093226463 0.89906681 4079443
-0.41434947 -0.090055794 0.88921207 3621705
-0.40901858 -0.091551885 0.89145166 3751503
-0.4170756 -0.082949191 0.88712519 3490378
-0.43355092 -0.13404745 0.91790605 5002588
-0.43044841 -0.13381758 0.91715652 5528419
-0.44490796 -0.12535688 0.9191013 4739163
-0.43822235 -0.12812656 0.91495788 5002333
-0.42899278 -0.12775427 0.91272104 5397092
-0.41997576 -0.12488157 0.91159433 5332066
-0.41388318 -0.12305823 0.91160613 4740695
-0.44787231 -0.12235972 0.91384125 4082256
-0.44139561 -0.12327004 0.91068453 5068120
-0.41879433 -0.12078857 0.90717089 5200736
-0.4107134 -0.11655223 0.90684694 4345175
-0.40353081 -0.11378159 0.90712923 4278096
-0.40983853 -0.10752628 0.90177351 4147028
-0.40421519 -0.10700469 0.90464038 3819087
-0.40602309 -0.1001894 0.90006196 3687502
-0.42288911 -0.14355914 0.92843044 5528423
-0.41876879 -0.1427191 0.9273482 5397348
-0.43490067 -0.13738424 0.92464441 4804702
-0.42581105 -0.13699543 0.92189252 5462626
-0.41618854 -0.13528517 0.92208564 5003105
-0.40851292 -0.13105825 0.92060661 4804440
-0.44455761 -0.1279178 0.92670846 3817824
-0.43925956 -0.13180165 0.92196804 4673622
-0.42370558 -0.13064924 0.91821039 5660265
-0.41670591 -0.12858598 0.91626847 5069150
-0.40780061 -0.12485223 0.91569531 4475986
-0.40297651 -0.12023566 0.91383803 4014924
-0.40617216 -0.11873068 0.91224945 4606547
-0.40075812 -0.11584367 0.91105711 3620428
-0.42696899 -0.14966112 0.93762976 4079956
-0.42096701 -0.15051503 0.93401635 5266270
-0.4148277 -0.14929964 0.934784 5002845
-0.43085352 -0.14410263 0.93554091 4079963
-0.42363918 -0.1464268 0.93218488 5330781
-0.4133043 -0.14322419 0.93100315 5002331
-0.41110468 -0.13734822 0.92783278 5001816
-0.40709278 -0.13405173 0.92762291 4540755
-0.40375617 -0.12715259 0.92448968 4213074
-0.41735637 -0.1578486 0.94921875 5265766
-0.41971663 -0.15397765 0.94616371 5068639
-0.41155595 -0.151795 0.94344121 4214103
-0.42944551 -0.14918622 0.9422763 1580089
-0.40894833 -0.14575672 0.93770659 4145996
-0.4070524 -0.13996768 0.93563843 4212054
-0.42281109 -0.15887766 0.95375431 3618132
-0.41737178 -0.15956497 0.95261735 5199718
-0.41110012 -0.15800998 0.95092511 4214875
-0.40273342 -0.21461725 0.97482079 528927
-0.39769748 -0.21490742 0.97371191 1517876
-0.39485389 -0.2228471 0.9868145 4419983
-0.41068253 -0.21752343 0.98750556 1651559
-0.40617669 -0.21686663 0.98309976 1782104
-0.3946377 -0.21880141 0.97857642 4154236
-0.38915339 -0.21447779 0.9805848 3028033
-0.40294349 -0.20892809 0.98641038 2369321
-0.39614677 -0.20902936 0.98112696 2040105
-0.40577319 -0.19064416 0.97993457 4146252
-0.40766084 -0.22079033 0.99773043 5077683
-0.40107334 -0.22305192 0.99520063 4617364
-0.39189434 -0.22274661 0.99304396 4549258
-0.38791755 -0.21747239 0.98850429 6582660
-0.41075617 -0.21019989 0.99256551 7695014
-0.40354207 -0.20585948 0.99089694 2040625
-0.39596292 -0.2041733 0.98819071 2172202
-0.38887256 -0.20857853 0.9872787 2760198
-0.39929181 -0.23071745 1.0057323 4683677
-0.39376551 -0.230308 1.0043972 3831442
-0.40766925 -0.22465581 1.0054834 3299734
-0.40091118 -0.22654369 1.0027819 4683420
-0.39233795 -0.22627415 1.0017521 3960460
-0.395401 -0.3009257 1.0297484 3829135
-0.3875702 -0.29986703 1.0277789 4223637
-0.38148659 -0.29986209 1.0263816 3960467
-0.39718375 -0.2917456 1.0286664 3498881
-0.38915133 -0.29075193 1.0262456 3895695
-0.38159069 -0.28881395 1.0246108 3631246
-0.3989208 -0.2811864 1.0242335 3499128
-0.39181012 -0.28145599 1.022645 4025235
-0.38296536 -0.27959269 1.0222412 3499655
-0.39976585 -0.27221549 1.0208926 3826560
-0.39311689 -0.27169776 1.0198016 4156303
-0.38478231 -0.27127606 1.020417 3630985
-0.39987582 -0.26235574 1.0224326 3893387
-0.39385629 -0.26181546 1.0193472 4157333
-0.38632751 -0.26046914 1.0195354 3762828
-0.39868432 -0.25356939 1.0228093 3762325
-0.39424142 -0.25120413 1.0175964 4420507
-0.38768101 -0.25055781 1.0184093 3828877
-0.40126434 -0.2400299 1.0212021 4222878
-0.39493418 -0.24190816 1.016176 4552347
-0.38823843 -0.24141456 1.0176059 3631755
-0.40503529 -0.23323585 1.0151469 3627913
-0.39692855 -0.23462659 1.0113651 4683676
-0.38947201 -0.23238416 1.0123426 3892613
-0.3901085 -0.22505517 1.0078983 3563127
-0.3947196 -0.30988657 1.0366869 3033484
-0.38600805 -0.30989051 1.0371757 2897991
-0.37643474 -0.30845273 1.0342354 3891064
-0.36882842 -0.30690706 1.0339695 2638186
-0.39990255 -0.30144301 1.0350211 666715
-0.38909593 -0.30287275 1.0327727 4813457
-0.37623656 -0.29899257 1.0291904 3499654
-0.36847961 -0.29778641 1.031041 3561592
-0.40174863 -0.29026374 1.0336288 6722
-0.37737292 -0.28960574 1.0279264 3694979
-0.3705886 -0.28857285 1.0282789 3233144
-0.37694505 -0.27924201 1.0261447 3104639
-0.3717033 -0.27839768 1.0281096 2640231
-0.37864494 -0.26972473 1.0249889 2907007
-0.37340161 -0.26882395 1.0283607 3099492
-0.40168786 -0.25926316 1.0285789 4089741
-0.37996644 -0.26025552 1.024125 3496061
-0.37487787 -0.2581172 1.0274324 4278874
-0.40030205 -0.25112447 1.0269387 2972810
-0.38147971 -0.24995008 1.0238438 3757171
-0.37686309 -0.25019515 1.0266013 3748927
-0.39979258 -0.24534671 1.0258832 3630740
-0.38197961 -0.24287893 1.0213933 3953004
-0.38482267 -0.3152771 1.0431558 984897
-0.37506995 -0.31069949 1.0401734 4350584
-0.36747694 -0.28620911 1.0351446 4674411
-0.36792263 -0.27745655 1.036249 6974583
-0.37079534 -0.26665604 1.035154 3815753
-0.40340492 -0.25882819 1.0382514 5799072
-0.37166229 -0.25763288 1.0307708 5064001
-0.36400986 -0.29016155 1.0478026 7039097
-0.3646667 -0.2843264 1.0480442 7565430
-0.36632949 -0.2758891 1.0467091 8223350
-0.36850852 -0.26849577 1.0411606 9076613
