# .PCD v0.7 - Point Cloud Data file format
VERSION 0.7
FIELDS x y z rgba
SIZE 4 4 4 4
TYPE F F F U
COUNT 1 1 1 1
WIDTH 1127
HEIGHT 1
VIEWPOINT 0 0 0 1 0 0 0
POINTS 1127
DATA ascii
-0.12421709 -0.076932371 1.1378119 4025255
-0.12124404 -0.071731985 1.140159 3632304
0.14695968 -0.057115912 1.125154 4289211
-0.11831579 -0.062541828 1.1398022 3568048
0.14325267 -0.046579383 1.1264194 4094399
0.14588501 -0.050875604 1.1274562 4224702
-0.11742786 -0.056369375 1.1382829 3764911
-0.11411057 -0.05196688 1.1407964 3895729
0.14027861 -0.03835474 1.1276791 4487616
-0.11948655 -0.038493752 1.1420928 6458567
-0.11438637 -0.041952748 1.1411031 3895996
0.13954912 -0.027306408 1.1270925 5735616
0.14619482 -0.023654528 1.1265059 9477559
-0.11914685 -0.035831489 1.1431825 6852289
-0.11590432 -0.035646237 1.1430291 5933254
0.04457482 0.07537809 1.1354295 9474701
-0.012456527 -0.23438153 1.1421238 7248329
0.020349488 -0.23406643 1.1397091 5801654
0.028262112 -0.23246169 1.1388457 5210039
0.041123375 -0.23241641 1.1395463 6328255
0.048769034 -0.23197958 1.1391846 7379645
0.060291521 -0.23119949 1.1386443 8430007
0.0679259 -0.22882035 1.1343515 8625323
-0.051101968 -0.22812153 1.1362685 9678537
-0.039983131 -0.22776228 1.142271 4422071
-0.03056051 -0.22796266 1.1432729 2778029
-0.020724142 -0.22921698 1.1427363 2513574
-0.012981283 -0.23148867 1.1422634 2315684
0.016913382 -0.2305114 1.1408206 2120102
0.028927995 -0.22982496 1.1402522 2185635
0.041974597 -0.2279835 1.1396781 2186146
0.047496036 -0.2287641 1.1393739 2316696
0.062666856 -0.22570521 1.1387424 4486314
0.070086151 -0.22480208 1.1364062 5997746
0.081084743 -0.22124787 1.1368597 6063288
0.089707687 -0.21933764 1.1376526 6589614
0.097802281 -0.21909438 1.1372612 8757678
-0.057183348 -0.21649623 1.1370263 1855898
-0.05018191 -0.21874289 1.1398357 2249885
-0.042192712 -0.2207678 1.1434031 2381985
-0.03393209 -0.22245577 1.1436563 3039902
0.083393082 -0.21410853 1.1381708 2841504
0.089370258 -0.213219 1.1379097 3302564
0.098720677 -0.21037152 1.1362221 4420011
0.10823476 -0.20881011 1.1314223 6984117
0.11738378 -0.20543417 1.1288114 6254993
-0.068839043 -0.20666787 1.1387913 2710418
-0.060777046 -0.2096242 1.1418638 2775447
-0.053809673 -0.21157554 1.1442667 2906776
0.10077409 -0.20239447 1.1373688 3171492
0.10904799 -0.20042937 1.1342304 3237285
0.11708655 -0.19857723 1.1296679 3629215
-0.071903251 -0.20005685 1.1432106 2775191
-0.063471295 -0.20317596 1.1452088 2906012
0.11056974 -0.19119462 1.136054 3040421
0.11723494 -0.18898728 1.1324178 3105703
0.12299408 -0.18878713 1.129187 2777257
-0.088203833 -0.18670394 1.1397331 2710677
-0.081067272 -0.1903322 1.1427735 2709909
-0.074545696 -0.19367464 1.1447946 2709910
0.11809967 -0.18070263 1.1362864 3368100
0.12534368 -0.17826776 1.1316212 3302561
-0.089635015 -0.18036717 1.1431701 2710421
-0.08450371 -0.18310007 1.1469057 2644886
0.119798 -0.17289929 1.1379852 3040936
0.12754565 -0.16926767 1.1356528 3237031
0.13362965 -0.16589446 1.1325649 3368615
-0.10012725 -0.16779333 1.1410664 2776209
-0.094228566 -0.17214069 1.145363 2841240
0.12920924 -0.16076773 1.1379954 3237287
0.13527159 -0.1579771 1.1326513 3302822
-0.10126697 -0.1613915 1.1459167 2710683
-0.096264355 -0.16451824 1.1483517 2841499
0.13719156 -0.14955112 1.1354468 3237541
0.1418125 -0.14640994 1.1315218 3237798
-0.10383058 -0.15300144 1.1469839 2907293
0.13851766 -0.14081131 1.1383177 3237797
0.14285156 -0.13780838 1.1332109 3303334
-0.11096292 -0.1415347 1.1437795 2907805
-0.1083804 -0.14327911 1.1496524 2907805
0.14429845 -0.12846285 1.1360668 3434407
-0.11189734 -0.13233779 1.1457138 3039392
-0.10895688 -0.1335772 1.1508635 3039391
0.14570399 -0.11879728 1.1362495 3500202
0.1494149 -0.11544099 1.130758 3631274
-0.11545057 -0.12344471 1.1481094 3170979
0.14719106 -0.10852654 1.1387104 3631791
0.15025733 -0.10753928 1.1328079 3566510
-0.11636462 -0.11318875 1.1497408 3105957
0.1456991 -0.097437918 1.137995 3632305
0.15068746 -0.097998478 1.1317139 3501227
-0.11740965 -0.10311906 1.1478977 3237546
0.1447003 -0.088380001 1.1375196 3698099
0.14907607 -0.088297568 1.1322415 3698094
-0.11731272 -0.093367919 1.1485144 3434923
0.1454501 -0.079079151 1.1383942 3895479
0.14750019 -0.080720499 1.1322163 3895477
-0.11747945 -0.082938202 1.1495525 3566256
0.1451524 -0.067841008 1.1401863 4027579
0.14744303 -0.066993788 1.1367661 4157882
-0.11701495 -0.07396324 1.149124 3567024
0.14256826 -0.0584222 1.1401734 4159422
0.14667533 -0.058148589 1.1355482 4289724
-0.1153563 -0.063931778 1.1472353 3567791
-0.11210396 -0.062034618 1.1524926 3764403
0.14023724 -0.048447639 1.1391873 4356797
-0.11116024 -0.052782319 1.1467018 3830196
0.13700846 -0.039002854 1.138783 4619718
-0.11017536 -0.041914523 1.149422 3896507
0.13229862 -0.027390718 1.1399622 4817095
0.13668634 -0.027582332 1.1365086 4948420
-0.11821374 -0.033238992 1.1512541 6916535
-0.110731 -0.033329241 1.1505715 5210049
0.13120714 -0.021145657 1.1423769 5013440
0.13551754 -0.020383894 1.1398551 5998788
0.026876427 0.047199085 1.1460787 5859448
0.034955703 0.047816157 1.1438419 6122362
0.040641733 0.04814364 1.1465789 6319482
0.051851787 0.049883664 1.1500999 5330522
0.027136769 0.051728562 1.1447169 5792108
0.034868233 0.053038523 1.1438508 5527648
0.040401556 0.052498907 1.1467618 5067354
-0.0065812152 -0.23414437 1.144848 4354997
0.00091364048 -0.23482846 1.1464537 4684224
0.010695516 -0.23391339 1.1445354 4289976
0.021491859 -0.23097058 1.1435816 2054307
0.031925388 -0.23092394 1.1430665 2777510
0.037461236 -0.23170656 1.1427615 4026798
0.053887531 -0.23076808 1.1419845 5604271
0.057629719 -0.2289059 1.1418722 4881326
-0.026080167 -0.22489718 1.1461772 3039902
-0.018076966 -0.22537947 1.1462628 2710943
-0.0093874652 -0.22691132 1.148582 2645152
0.00078735687 -0.2293316 1.1513518 2514339
0.01066957 -0.2286409 1.150355 2514851
0.020347014 -0.22551604 1.1484618 2842787
0.030073661 -0.22444385 1.1458175 2908579
0.039721329 -0.22351795 1.1458658 3039651
0.049981594 -0.22368203 1.1464642 2908578
0.0592461 -0.22226965 1.1458102 2778020
0.069044732 -0.21994954 1.1430898 2646433
0.078671791 -0.22202596 1.1410998 5012145
0.09024068 -0.22264706 1.1405022 8955830
-0.039525233 -0.21725173 1.1474298 2841242
-0.029493609 -0.21883899 1.1489222 2775960
-0.020343622 -0.21967366 1.1503732 2841500
-0.010657214 -0.2214509 1.1535643 2907551
0.020912535 -0.21890953 1.1521 3105184
0.030081302 -0.21801686 1.1516807 3170722
0.040005468 -0.21744984 1.1512113 3302053
0.050082996 -0.21632081 1.1507562 3170723
0.060507812 -0.21480308 1.1502993 3105188
0.069686204 -0.21341257 1.1481814 3170467
0.079063356 -0.21250376 1.143859 3236258
0.088895343 -0.20841503 1.141573 3171236
-0.05673492 -0.20686805 1.148404 2906776
-0.050042391 -0.20877174 1.1491427 2907033
-0.041378617 -0.20941761 1.1523861 2841497
-0.031767868 -0.213067 1.1549395 2775704
0.070454836 -0.20796436 1.1500751 3105443
0.079276316 -0.20746036 1.1496577 3105443
0.089774869 -0.20308684 1.1480436 3105956
0.097785957 -0.19960743 1.1442394 3105956
-0.068289891 -0.19653904 1.1493821 2644884
-0.060895093 -0.19981368 1.1518931 2775705
-0.052256696 -0.20230688 1.1540393 2841497
0.093002915 -0.1956107 1.1494429 3172006
0.10045952 -0.19275865 1.1481835 3040421
0.10605389 -0.18998231 1.1455103 2974628
-0.077533886 -0.18827584 1.1501646 2645144
-0.070660524 -0.18978128 1.1528299 2710425
-0.065147161 -0.19225338 1.1539752 2776216
0.10904917 -0.18117532 1.1459583 3171493
0.11373626 -0.17854288 1.1426731 3237026
-0.080877542 -0.18055204 1.153227 2710424
-0.074208133 -0.18254834 1.1567832 2710937
0.1117563 -0.17462149 1.1493379 3302823
0.11768958 -0.17006144 1.1460588 3172005
0.12325536 -0.166565 1.1450766 3172006
-0.090282068 -0.16958997 1.1515299 2841498
-0.085516945 -0.17204702 1.1561303 2907290
0.11996948 -0.1630868 1.1493839 3303592
0.12594883 -0.15930441 1.1479002 3237544
0.13151458 -0.15435386 1.1411388 3303337
-0.092422985 -0.16132039 1.1536785 2973342
-0.087361857 -0.16442016 1.1596043 3038879
0.12917656 -0.15137838 1.1487195 3237544
0.13313481 -0.1479301 1.1441164 3303336
-0.10109796 -0.15022415 1.1538283 2973342
-0.09465237 -0.15321198 1.1579006 2973600
0.13609225 -0.13867907 1.1455356 3368872
-0.1030377 -0.1425229 1.1555824 3039392
-0.097299464 -0.14325228 1.1609279 3236259
0.13695684 -0.12925589 1.1476163 3500460
0.14095517 -0.12634154 1.1417711 3434923
-0.10463886 -0.13298666 1.1565733 3170978
0.13754994 -0.12032466 1.148856 3500719
0.14192945 -0.11743205 1.1454127 3500718
-0.11194182 -0.12210877 1.1544676 3237029
-0.10776738 -0.12349387 1.1602184 3237286
0.14191619 -0.10868561 1.1485342 3697329
-0.11242511 -0.11334504 1.1548357 3237543
-0.10952615 -0.11305895 1.1622182 3172263
0.1426049 -0.099506751 1.1483542 3697843
-0.11310896 -0.10386579 1.1582478 3303340
-0.11085118 -0.10287368 1.1631849 3303852
0.14182487 -0.089114487 1.1492018 3764149
-0.11385743 -0.094012648 1.1556658 3500716
-0.11082684 -0.092808023 1.1635789 3501229
0.14411345 -0.078479081 1.1480745 3764661
-0.11393539 -0.085958377 1.155986 3566512
-0.1107453 -0.082534805 1.1603346 3632306
0.14057335 -0.068460912 1.1485423 3896764
-0.11067451 -0.072902776 1.1607094 3698357
0.13416101 -0.058871485 1.151437 4291265
0.13777551 -0.05960257 1.1456944 4225217
-0.10958139 -0.063810438 1.1606479 3764408
0.13438013 -0.049220592 1.1511371 4554434
0.13666597 -0.048563421 1.1450377 4488640
-0.10718351 -0.052986693 1.1617557 3895997
-0.10309146 -0.049685135 1.164889 4027323
0.13334605 -0.038431708 1.1506101 4817354
-0.10634052 -0.043251745 1.1586226 3962044
-0.10215116 -0.042052727 1.1643405 4093118
0.12351418 -0.026779532 1.1545607 5014224
0.12884583 -0.029041149 1.1501998 4751563
-0.10588425 -0.032750331 1.1576763 4290235
-0.10079875 -0.032521948 1.1619757 4158908
-0.094589248 -0.030019306 1.1652399 4028609
0.12137971 -0.01978308 1.1531599 4817874
0.12777166 -0.018913358 1.1476446 5145287
-0.098892368 -0.025670417 1.1600127 4487616
-0.093462214 -0.022874266 1.1641287 4356800
0.1118503 -0.0077939183 1.1538801 5276623
0.11815657 -0.010291778 1.1497478 5604813
0.12753281 -0.010915652 1.1478592 6720449
-0.091684148 -0.015837118 1.1656529 5671109
0.10976054 -0.0024037063 1.1556268 5802961
0.11595046 -0.0026475117 1.1512071 6787017
0.033048663 0.0089939609 1.1604477 12972031
-0.02269757 0.015813775 1.1614736 5869264
0.0099151349 0.013942681 1.1617882 7515376
0.017409166 0.01400198 1.1614193 8764660
0.027014609 0.014108174 1.1609476 10146554
0.033687491 0.013456628 1.1605914 10870005
-0.081021652 0.021051906 1.1585571 8028800
-0.075931378 0.021709032 1.1583307 7305855
-0.018283153 0.017126635 1.1633104 5671370
-0.014975099 0.017315634 1.163154 5869265
0.0081812898 0.018638648 1.1620586 6988787
0.012592029 0.018890634 1.16185 7185904
0.098114826 0.032629177 1.158152 6314850
-0.074989825 0.026769012 1.1584828 8028802
0.094832651 0.035982594 1.1584463 6117979
0.069964498 0.045429409 1.1520334 5593178
0.072154671 0.045554549 1.1519297 5658970
-0.0048360266 -0.22425433 1.1571739 2973083
0.0007574372 -0.2250451 1.1568657 2973595
0.010169946 -0.22410472 1.1571043 2973598
-0.025363142 -0.21432357 1.1585809 2842012
-0.018924555 -0.21534365 1.1582218 2776219
-0.0093970075 -0.21734568 1.1591979 2907806
0.00032849051 -0.21823902 1.1603184 2907807
0.010896396 -0.21818361 1.1599727 2973599
0.019492142 -0.21523938 1.1569904 3039136
0.03018501 -0.21366556 1.1571904 3170723
0.040096872 -0.21295179 1.1560594 3236770
0.049810857 -0.2119077 1.1549511 3170979
0.058821224 -0.21117938 1.1545333 3170980
0.065368563 -0.20913976 1.1542889 3171236
-0.036916301 -0.20610079 1.1594762 2842012
-0.030028941 -0.20803572 1.1605164 2842011
-0.02026687 -0.2097809 1.1609732 2842012
-0.011845607 -0.210815 1.1620568 2907805
0.034585282 -0.20955494 1.1598058 3302309
0.040460903 -0.20801365 1.1584301 3302308
0.049017131 -0.20734659 1.1566725 3171236
0.059714064 -0.2072421 1.1546437 3171236
0.070317991 -0.20533177 1.1558632 3105443
0.079975076 -0.20282775 1.1548151 3171492
0.08635366 -0.20053844 1.153587 3040420
-0.058549903 -0.19623324 1.1609355 2841497
-0.049620025 -0.19849673 1.1609386 2907291
-0.040992051 -0.20071322 1.1617758 2907549
-0.034165427 -0.20159844 1.1635246 2907551
0.082825243 -0.19565716 1.1579614 3040420
0.089627869 -0.19334602 1.1558166 3106213
0.097180478 -0.19022277 1.1534556 3106214
-0.060307331 -0.189926 1.1632743 2907290
-0.053505652 -0.19248199 1.1643399 2973340
0.093438074 -0.18613747 1.1578094 3302823
0.099217348 -0.18331972 1.1552289 3237030
0.105162 -0.1795782 1.1552594 3237031
-0.078458846 -0.17738432 1.1626621 2841497
-0.069866724 -0.18039818 1.1626525 2842012
-0.063518435 -0.18237698 1.1647317 2907547
0.10986825 -0.17158306 1.1544838 3368361
0.11471421 -0.16801322 1.153459 3237285
-0.080259711 -0.17156531 1.1629798 2973085
-0.07334967 -0.17151049 1.1653819 3039135
0.11173435 -0.16429722 1.1537524 3368615
0.11809389 -0.16063155 1.15431 3237799
0.12243295 -0.15702385 1.1535079 3303337
-0.088348404 -0.15907329 1.1638712 2973857
-0.082663067 -0.16234651 1.1650196 3039137
-0.076576687 -0.16298304 1.1671423 3104930
0.1197279 -0.15308596 1.1558006 3172264
0.12570891 -0.14979549 1.1542975 3238059
-0.089938372 -0.15099761 1.165269 3039650
-0.085622005 -0.15447508 1.1679245 3105700
0.12847638 -0.13994884 1.1560372 3369132
0.1325822 -0.13978866 1.1536819 3434410
-0.093122929 -0.14263995 1.1664706 3171236
0.12996784 -0.13177921 1.1573323 3500719
0.13314484 -0.12924141 1.1560721 3435183
-0.10100029 -0.13092691 1.1656033 3302823
-0.096120968 -0.13274127 1.1679622 3171495
0.13334022 -0.1191175 1.1562779 3566514
-0.10314549 -0.1224687 1.1674991 3368873
-0.099325128 -0.12350119 1.1690181 3368875
0.1354924 -0.10975165 1.1555188 3697588
-0.10448596 -0.11352307 1.1691313 3303850
0.13665766 -0.10018851 1.1584704 3763892
0.13966702 -0.099189028 1.1549251 3698099
-0.10644021 -0.10337652 1.1685578 3435181
-0.10045503 -0.10362516 1.1706562 3435438
0.13714559 -0.09005025 1.1594168 3829942
0.13981311 -0.089228556 1.1564541 3764149
-0.10591934 -0.093682855 1.1693134 3501229
0.13641059 -0.076722227 1.1599766 3896505
0.14084525 -0.079261959 1.1574711 3830455
-0.10588804 -0.083793119 1.1692377 3632563
-0.10174128 -0.080301128 1.1716359 3567542
0.13353676 -0.069614381 1.1578215 4027837
0.13887817 -0.072807647 1.1560001 3896505
-0.10569462 -0.073707186 1.1694187 3829940
-0.10210877 -0.073637113 1.1719158 3699127
0.13157158 -0.060157731 1.1595309 4291009
-0.10586146 -0.063545465 1.1692916 3895737
-0.10207807 -0.062652856 1.1723455 4027576
0.13128169 -0.050099716 1.1592722 4422849
-0.10508996 -0.05676676 1.168718 4158911
-0.10071908 -0.052899055 1.1706572 4093372
0.13066483 -0.040362131 1.1591841 4817355
-0.097520724 -0.043290667 1.1704136 4093630
-0.092843421 -0.039682727 1.1727899 4094397
0.12267677 -0.030092835 1.1607068 5080014
0.1272451 -0.032944322 1.1581419 4883149
-0.095902197 -0.035515204 1.1690972 4028348
-0.091475181 -0.03276591 1.1704888 4028864
0.11764424 -0.020710662 1.1608793 4949202
-0.088434145 -0.023005456 1.1710402 4029123
-0.084241785 -0.020621836 1.1731122 3963586
0.11107688 -0.011250839 1.1624668 5146069
0.11461984 -0.015344784 1.1594584 5080276
-0.088149033 -0.015085839 1.1695153 5342665
-0.080966458 -0.012692668 1.1732613 4882633
-0.017887617 -0.0053177401 1.1704255 6070261
-0.011225915 -0.0049371347 1.1701103 6528744
-0.0045642145 -0.0045565292 1.1697953 8827627
0.010979751 -0.0036684498 1.16906 10340848
0.019738404 -0.0038046986 1.1686206 8895736
0.027263386 -0.00407511 1.1682372 6266608
0.10135973 0.00098019093 1.1637625 5475287
0.10594064 -0.0022086501 1.1617403 5475028
-0.077931128 -0.0064396635 1.1713525 5999306
-0.071349457 -0.0049532801 1.1710848 5540557
-0.063020796 -0.0011120066 1.1701549 5803727
-0.050301865 0.0012484863 1.1722894 4950220
-0.041301675 0.00063730776 1.1718194 5016280
-0.031588584 0.00059746951 1.1709359 5411294
-0.02165808 0.0012285784 1.1686249 5806569
-0.011615992 0.0017462224 1.169791 7120874
-0.0020646602 0.0030140653 1.1699687 12379901
0.0084052915 0.0031937137 1.1669257 13891069
0.018174261 0.0035413206 1.1657803 12969723
0.028133154 0.0043103695 1.166203 9946095
0.038210496 0.0046374574 1.1661201 10013177
0.047805361 0.0070777684 1.1654992 7449069
0.054449327 0.0092140064 1.167412 5411552
0.098168641 0.0047528446 1.1625657 6526426
-0.048600256 0.006297566 1.1724033 6264275
-0.041193895 0.0076299161 1.1695837 5803990
-0.031751268 0.0088629797 1.1676613 5345755
-0.021840634 0.010691956 1.1672421 5412839
-0.012284027 0.011810496 1.1673135 5676266
-0.0031035207 0.011313953 1.1692009 7253489
0.0066206241 0.011765905 1.1668761 8436213
0.016646598 0.010147631 1.1653137 12051453
0.03078673 0.01539693 1.1648192 10082302
0.038646579 0.015105762 1.1644185 10607102
0.047155052 0.014745899 1.1639827 7515119
0.05427438 0.014482453 1.1649556 6068200
-0.010397345 0.017485358 1.1669419 6001365
-0.0059714094 0.017738231 1.1667325 6396124
0.10590868 0.029904187 1.1616669 6447199
0.0038342504 -0.21442498 1.1651462 3039391
0.011399852 -0.21348318 1.1663114 3039135
0.022773653 -0.21334291 1.1642504 3104930
-0.025746481 -0.20493525 1.1669846 2776478
-0.019238869 -0.20554385 1.1686422 2842271
-0.0091645624 -0.20670067 1.1702838 2907807
0.00016542897 -0.20804998 1.1702834 2908063
0.010258556 -0.20837015 1.1708772 2973600
0.020474676 -0.20678362 1.1699657 3105187
0.030311521 -0.20583156 1.1685944 3236773
0.039883234 -0.20391566 1.1675135 3237029
0.050809346 -0.20337991 1.16706 3171237
0.060373619 -0.2036873 1.1642694 3171236
0.069754265 -0.20156631 1.1633099 3105444
0.078450948 -0.19954109 1.1620337 3171493
-0.038237512 -0.19690621 1.1711251 2841758
-0.029992992 -0.19877796 1.1714447 2907551
-0.020906089 -0.1994849 1.1737958 2842271
-0.010125287 -0.20010804 1.1744161 2908064
-0.0033333246 -0.2008456 1.1740506 2973857
0.017978605 -0.19962798 1.1730424 3105444
0.030760612 -0.19789717 1.1724771 3237030
0.040767163 -0.19770795 1.1711872 3302823
0.050353847 -0.19637305 1.1706412 3171495
0.059590012 -0.19441521 1.1697913 3105703
0.06927783 -0.19411179 1.1691141 3105703
0.07893718 -0.19298145 1.1667761 3105702
0.086973347 -0.18989894 1.1637077 3105958
-0.049986757 -0.1898082 1.1704298 2973598
-0.041702919 -0.1912401 1.1743249 2907551
-0.031636365 -0.1926136 1.1757761 2908065
0.080423266 -0.18463108 1.1705374 3237288
0.089059822 -0.18332069 1.1677116 3302823
0.097440615 -0.18067208 1.1644102 3237287
-0.059926189 -0.17914979 1.1725534 3105183
-0.052136302 -0.18221858 1.1753139 2974112
-0.043644078 -0.18401341 1.1767088 2842786
0.090296961 -0.17658603 1.170364 3171750
0.098639034 -0.1724405 1.1687775 3172008
0.10637289 -0.17005971 1.1641458 3303081
-0.068670422 -0.16986719 1.1711563 3104930
-0.062036112 -0.17206326 1.1767534 3170978
0.1007279 -0.1640265 1.1703404 3303337
0.10829023 -0.1619789 1.1677916 3368873
0.11498307 -0.16015431 1.1643207 3237543
-0.079082415 -0.15774825 1.174152 3040164
-0.07211525 -0.16115719 1.174798 3105701
-0.065301418 -0.16536507 1.1785141 3302822
0.109474 -0.15297829 1.1703409 3303597
0.11650804 -0.14996371 1.1657383 3238059
0.12331334 -0.1464455 1.1638997 3303852
-0.081811085 -0.15161128 1.1756415 3106213
-0.073745504 -0.15337206 1.1794034 3172007
0.11711263 -0.14102751 1.1702313 3369387
0.12482865 -0.14018741 1.1660744 3435181
-0.089629345 -0.1417097 1.1739684 3237030
-0.082822539 -0.14217718 1.1779548 3237800
-0.076157071 -0.1453492 1.1798379 3303594
0.1186038 -0.13489723 1.1705985 3500972
0.12659445 -0.13002241 1.1671375 3500976
0.13087091 -0.1266724 1.1622977 3500977
-0.09118709 -0.13260889 1.1761843 3237545
-0.086246759 -0.13416134 1.1798866 3303852
0.1280147 -0.12055215 1.1706955 3566772
0.1311485 -0.12053607 1.1665329 3566515
-0.094219923 -0.12307087 1.1768483 3369389
0.1283448 -0.11099245 1.1710546 3763639
0.13140613 -0.10967571 1.1660559 3763639
-0.10184234 -0.10957781 1.1758353 3435181
-0.09612146 -0.11307739 1.178659 3435438
0.12837581 -0.099895425 1.1714888 3895737
0.13308446 -0.099288769 1.1660925 3764149
-0.10164696 -0.10312991 1.1771475 3435438
-0.096054398 -0.10361297 1.1809212 3501231
0.12806642 -0.094285078 1.1717244 3961530
0.13295586 -0.089804642 1.1664712 3961528
0.13979922 -0.085915022 1.1634557 3895735
-0.10184561 -0.093907818 1.1781207 3501489
-0.097458966 -0.093556032 1.1808053 3501490
0.12707637 -0.076331973 1.1724784 4159679
0.13279548 -0.080486558 1.1672952 3962041
0.1396763 -0.083686091 1.1635494 3895735
-0.10276671 -0.0865715 1.1774524 3501747
-0.098014809 -0.083219506 1.1800206 3567541
0.12597795 -0.070016302 1.1727809 4225473
0.1294913 -0.070150107 1.1685935 4159424
-0.09685678 -0.072948977 1.1792977 3764919
0.12524053 -0.061178658 1.1731645 4422597
0.12893628 -0.060085684 1.1690162 4357059
-0.096911602 -0.063164979 1.1795129 3896505
-0.091952868 -0.062956922 1.1838559 3962298
0.12453149 -0.050588455 1.1736155 4685767
0.12838127 -0.050021265 1.1694388 4422851
-0.096046843 -0.053905852 1.1780014 4027836
-0.090880975 -0.052068006 1.1831373 4028094
0.12197408 -0.040043883 1.1720343 4948684
0.12771988 -0.041408055 1.166804 4751818
-0.094879963 -0.045659982 1.1766642 4093632
-0.089224227 -0.04213006 1.1823804 4094399
0.11477688 -0.030134484 1.1749018 5080784
0.11889929 -0.030765258 1.1698632 5211343
-0.086522363 -0.033464439 1.1811013 4094402
-0.080049962 -0.030139238 1.1835529 4226244
-0.073618971 -0.028141305 1.1843146 4620744
-0.019840179 -0.023943149 1.1818149 5412064
0.0025934353 -0.022661433 1.1807537 6463211
0.010854256 -0.026029781 1.1802121 6397929
0.020480044 -0.024838597 1.179782 6397929
0.029584486 -0.022405759 1.1794264 6003432
0.1111469 -0.020950802 1.1729374 5081042
0.11624256 -0.023536034 1.1670724 5081041
-0.079377338 -0.022067256 1.1786928 4160963
-0.071113184 -0.020879813 1.1836168 4752075
-0.05622898 -0.01701732 1.1838899 4949201
-0.049467966 -0.017193846 1.183548 5016022
-0.039884143 -0.017738797 1.1823837 5213659
-0.030058498 -0.018058553 1.181319 5411552
-0.020175027 -0.018294536 1.1812516 5740773
-0.010054447 -0.01775603 1.181573 6003172
1.9595027e-005 -0.017160617 1.1806965 6331366
0.0099602435 -0.016457878 1.1776263 6989552
0.020054672 -0.015902147 1.1775488 6792432
0.030080959 -0.01529447 1.1764245 5937640
0.038606737 -0.013986319 1.178308 5806054
0.049270872 -0.012115374 1.1788551 5674725
0.055939078 -0.010608785 1.1785839 5674983
0.1017868 -0.010521971 1.1763157 5146841
0.10761937 -0.012012251 1.1702424 5080789
-0.076547332 -0.013309136 1.1770262 4554184
-0.073006995 -0.012405857 1.1798922 4751049
-0.05766207 -0.01138714 1.1821779 4818129
-0.050279297 -0.010929435 1.1810285 5015507
-0.040933736 -0.010238916 1.1771858 5147609
-0.030917956 -0.0096075982 1.1754117 5346018
-0.021153377 -0.0095419809 1.1775467 5937898
-0.010680638 -0.0096999854 1.1772443 6462952
-0.00033786893 -0.008323431 1.1758953 8303605
0.0089660371 -0.0078522786 1.1744349 8501495
0.0188102 -0.0082344115 1.1731174 7252467
0.030099995 -0.0070814937 1.173444 6069484
0.039206192 -0.0055089667 1.1739177 6135528
0.04946506 -0.005436942 1.1765143 5741031
0.05889678 -0.0047688037 1.1776646 5543655
0.068328187 -0.0029741526 1.1782699 5477092
0.078292809 -0.0010772049 1.1778506 5739747
0.089647993 -0.00067859143 1.1773037 5280481
0.09880513 -0.0026275218 1.1730736 5015513
0.10427355 -0.0041916817 1.170429 4949463
-0.070231594 -0.0062404126 1.1769909 4818122
-0.060878418 -0.0047122911 1.1765873 5147606
-0.052254304 -0.0034742504 1.1762087 4818639
-0.043493621 -0.0047127828 1.1757261 5344472
0.0010389481 -0.0016094968 1.1736414 12971007
0.005526009 -0.0019121394 1.1734072 12905215
0.03003582 -0.00051181018 1.1722478 5807584
0.04340481 0.00025200099 1.1716154 6004710
0.049400009 0.0015528053 1.1713694 5807083
0.058137216 0.004440181 1.1731875 5477863
0.066767268 0.0043910593 1.1752963 5542628
0.078875586 0.0019576997 1.1779408 5673698
0.089233734 0.0045727938 1.1760273 5804766
0.094652601 0.00317996 1.1691911 5147865
0.060615532 0.012415111 1.1712402 5412324
0.0037323944 -0.20353214 1.177603 3039650
0.010199186 -0.20380804 1.1772717 3039650
-0.01696085 -0.19680852 1.1788923 2842271
-0.010207975 -0.1964227 1.1785728 2973857
0.00021156296 -0.19697274 1.1793007 2973857
0.010095918 -0.19821528 1.1800277 3039395
0.020583235 -0.19564858 1.1788589 3171237
0.029751029 -0.19367562 1.1777697 3237030
0.040061537 -0.1925555 1.1777755 3302569
0.048375461 -0.19221318 1.1771715 3237546
-0.037152886 -0.1874747 1.1802592 2908065
-0.029542876 -0.18800798 1.1798612 2973857
-0.020738052 -0.18931213 1.1803757 2973857
-0.010858374 -0.19069721 1.1809517 2973858
-0.0024496857 -0.19112562 1.1824044 3105444
0.029170118 -0.18931907 1.1809086 3237030
0.040756267 -0.18714614 1.1804199 3302825
0.049623311 -0.18617113 1.1797105 3171754
0.059398584 -0.18606025 1.1775349 3171752
0.06966161 -0.18502536 1.1764777 3171753
0.077884443 -0.18141818 1.1757993 3237546
0.085900307 -0.17850812 1.1745144 3303592
-0.048820853 -0.17867574 1.1811829 2908579
-0.040431209 -0.18045205 1.1827013 2908579
-0.030497564 -0.1813938 1.1830831 3105444
-0.021719007 -0.18270743 1.1836896 3105443
0.072713606 -0.17776546 1.1792048 3303339
0.080534086 -0.17498745 1.1775905 3303082
0.088688321 -0.17232341 1.1751916 3237545
0.094407439 -0.16898674 1.1744667 3303850
-0.058445573 -0.16793147 1.1820816 3302822
-0.05150304 -0.17193815 1.1838348 3040165
-0.044100463 -0.17537358 1.1850866 3040167
0.083508015 -0.16808289 1.1790502 3303598
0.08928781 -0.16371496 1.1779923 3238061
0.09761934 -0.16109309 1.1757309 3303596
0.10510345 -0.15821087 1.1743599 3369131
-0.0687792 -0.15798062 1.1829844 3171751
-0.062101468 -0.1612943 1.1839379 3368615
-0.054886959 -0.16465756 1.1860418 3171751
0.10662566 -0.15160677 1.1760468 3369134
-0.07113684 -0.15105645 1.1833731 3369130
-0.064778462 -0.15278077 1.1859963 3434922
0.10729328 -0.14196086 1.1779432 3435183
-0.073264562 -0.14262898 1.1851454 3434923
0.10965522 -0.13473198 1.1782627 3501232
0.1161947 -0.13119781 1.1774645 3435694
0.1226844 -0.128971 1.174637 3501232
-0.082094282 -0.13196726 1.1856675 3369646
-0.076102428 -0.13545188 1.1869038 3435182
0.11947389 -0.1218321 1.1790843 3567282
0.12343081 -0.12097934 1.1767356 3567027
-0.091210917 -0.11973262 1.1855977 3501231
-0.086286239 -0.12350045 1.1879612 3435439
0.11903781 -0.11392441 1.1794164 3829686
0.12388573 -0.11075784 1.1775193 3829431
-0.091397181 -0.11635501 1.1857395 3501231
-0.08711838 -0.11293782 1.1873317 3567024
0.12569283 -0.10128602 1.178247 3830201
-0.092173278 -0.10228164 1.1863307 3632818
-0.088814065 -0.10289476 1.1881441 3698612
0.12718798 -0.09055385 1.1779264 3896507
-0.092701025 -0.092711747 1.1867325 3633333
-0.088717386 -0.092797734 1.1893374 3764919
0.12643762 -0.080359489 1.1778629 4093886
-0.093635507 -0.083955683 1.1871227 3633334
-0.089501791 -0.082919724 1.1901649 3830201
0.12294828 -0.070957109 1.1791286 4291523
-0.089722164 -0.072557986 1.1890463 3896506
0.12185239 -0.060501065 1.17897 4619975
-0.086974025 -0.062844738 1.1893393 4028348
0.11548685 -0.049533214 1.1821208 5146320
0.11997603 -0.051457334 1.1808209 4883148
-0.085849531 -0.053298175 1.1882271 3962814
-0.080830097 -0.051759366 1.1906153 3963072
0.11393763 -0.040724713 1.1810405 5146577
0.117681 -0.042050414 1.178799 5080527
-0.084991552 -0.044158105 1.1882571 4028607
-0.078820303 -0.042147048 1.1901679 4291526
-0.029052889 -0.037393115 1.1897591 5147865
-0.02161211 -0.036741361 1.1894161 5344731
-0.0054003354 -0.034908541 1.1886847 5345501
0.0013753362 -0.034521423 1.1883643 5739743
0.011584295 -0.03611555 1.1864598 5936862
0.020631664 -0.035620905 1.186365 5871068
0.030798879 -0.033973582 1.1869279 5739228
0.048805043 -0.031811602 1.1861206 5213656
0.11157276 -0.031967007 1.1814014 4949970
-0.077562936 -0.034528941 1.1882672 4422856
-0.069325648 -0.029368646 1.1898835 4686797
-0.059037007 -0.027659386 1.189623 4884690
-0.048515767 -0.028560713 1.1905693 4950486
-0.038088284 -0.028689578 1.1892126 5213659
-0.029569892 -0.029296905 1.1868963 5279707
-0.019354424 -0.029868245 1.1867685 5345244
-0.0093111992 -0.027657181 1.1862687 5411808
0.00057258271 -0.028198637 1.1855552 5806052
0.010010366 -0.030749127 1.1840765 6068964
0.022036178 -0.03043852 1.1834929 6068963
0.03196042 -0.027527772 1.1840404 6003173
0.040342905 -0.025365904 1.1845887 5608417
0.050545633 -0.024817497 1.1847059 5411038
0.057465486 -0.024517424 1.1859779 5279709
0.10189307 -0.020182267 1.183022 5212630
0.10763503 -0.023374386 1.1808652 5015248
-0.066038348 -0.023423396 1.1881323 4949712
-0.059285469 -0.023037583 1.1878128 4949713
-0.049156152 -0.022458859 1.1873337 5016279
-0.039756462 -0.022298291 1.1868743 5213659
-0.031086383 -0.02255588 1.1864345 5345501
0.041476004 -0.017845459 1.1830243 5871590
0.049886063 -0.016800255 1.1826485 5871847
0.060091294 -0.01406689 1.1842543 5543139
0.067308933 -0.012536556 1.184243 5280225
0.091850154 -0.011220627 1.1847965 5411294
0.097647712 -0.01219701 1.1819203 5279196
0.069116287 -0.0072309375 1.1820716 5411556
0.078589737 -0.0049955547 1.18169 5412066
0.089844547 -0.0043525323 1.1811576 5477344
0.09672159 -0.0062184632 1.1807436 5213404
0.011105785 -0.19379756 1.1856358 3105189
-0.0096257236 -0.18655203 1.1879495 3039906
0.00018737651 -0.18814552 1.1878302 3039908
0.0098539516 -0.18883519 1.1892327 3105447
0.020263724 -0.18735456 1.1861866 3105702
0.029216845 -0.18556154 1.1850619 3171750
0.038155735 -0.18463737 1.1846553 3237289
0.049487229 -0.18212934 1.1841923 3237548
0.059684932 -0.18154672 1.18371 3171752
0.068749562 -0.18102881 1.1832812 3171752
-0.03788159 -0.17666022 1.188736 3039909
-0.029969262 -0.17697731 1.1892221 3105701
-0.021607438 -0.17922097 1.1903796 3105443
-0.011665678 -0.18411191 1.1911523 3040163
0.018979823 -0.18144834 1.1897385 3105960
0.03028727 -0.1796868 1.1892475 3105958
0.039237536 -0.17762926 1.1880833 3237545
0.049494885 -0.17593545 1.1865447 3237547
0.059468359 -0.17503124 1.1855797 3237544
0.069496736 -0.17423442 1.1851985 3237545
0.077965967 -0.17171809 1.1838582 3303339
-0.049617872 -0.16789329 1.1896617 3172009
-0.040925436 -0.17066416 1.191527 3105961
-0.031413935 -0.17240559 1.1925905 3171752
0.052509136 -0.16903685 1.1885647 3303337
0.059330396 -0.16864713 1.188242 3303593
0.069346122 -0.16709703 1.1878066 3303594
0.07832285 -0.1639149 1.1862342 3303596
0.08490748 -0.16191298 1.1832312 3238062
-0.05745168 -0.15981306 1.1903671 3434409
-0.051489182 -0.16135533 1.1928403 3237547
-0.042984173 -0.16329159 1.1935216 3237805
0.078942254 -0.15662514 1.1877424 3238318
0.087997191 -0.15312558 1.1863089 3238572
0.097998954 -0.15226893 1.1841636 3434926
0.10438934 -0.15124878 1.1826847 3369134
-0.060222253 -0.15098414 1.1920843 3435179
-0.054069273 -0.15274224 1.1940398 3369388
0.092307799 -0.14622764 1.1874884 3500977
0.097670153 -0.14233756 1.1863735 3435186
0.10296615 -0.14193054 1.1831211 3500720
-0.069317058 -0.1407434 1.1927059 3566511
-0.063389361 -0.143356 1.1939795 3566767
-0.055987917 -0.14557341 1.1948618 3500977
0.098734982 -0.1346589 1.1871232 3501234
0.10633224 -0.13166569 1.1841089 3501490
-0.079659782 -0.12810767 1.1927125 3566770
-0.072537109 -0.13239683 1.1947963 3632306
-0.065584674 -0.13699487 1.1956741 3632563
0.10774334 -0.12299154 1.1862215 3699127
0.11499131 -0.12120034 1.1838108 3633076
-0.081123047 -0.12264054 1.1940017 3566770
-0.074936531 -0.12331239 1.1966747 3763892
0.10820468 -0.1139459 1.1879684 3633335
0.11462212 -0.11128047 1.1853057 3764407
-0.081720062 -0.11266233 1.1962266 3698868
-0.077294782 -0.11307218 1.1971936 3699126
0.10811461 -0.10197208 1.1884429 3962811
0.11458369 -0.10164195 1.1869664 3830969
0.1221599 -0.1013082 1.1837652 3830714
-0.083531 -0.10272337 1.194826 3699126
-0.078097939 -0.1031039 1.1976249 3830712
0.11476196 -0.091707706 1.1879154 4028606
0.12273936 -0.091204152 1.1841333 3962300
-0.083440691 -0.093253933 1.1958716 3830970
-0.07845182 -0.092747778 1.1980491 3962813
0.11456426 -0.08267884 1.188881 4291522
0.12222212 -0.081675529 1.1848974 4094399
-0.084289677 -0.08323063 1.1964217 3962044
-0.079296283 -0.083343238 1.1984602 4093630
0.11553964 -0.071859203 1.1889904 4554438
0.12022884 -0.072180308 1.1850047 4357059
-0.084238961 -0.07316044 1.1964329 4093886
-0.079580717 -0.072276898 1.1989088 4291009
0.11310118 -0.061419819 1.1888976 4686026
0.11896522 -0.061044522 1.1855046 4685769
-0.083097674 -0.065766796 1.1953307 4159935
-0.078103997 -0.063131094 1.1980497 4225985
0.10535508 -0.051932152 1.1905446 5015248
0.11136406 -0.052752152 1.1875428 5014991
-0.075672835 -0.053135458 1.1975807 4292037
-0.070100263 -0.055111378 1.1991131 4619977
-0.047739021 -0.046988681 1.1983242 5279449
-0.039780892 -0.046534006 1.1979477 5016538
-0.027212525 -0.046956789 1.1973084 4950743
-0.017624015 -0.048086695 1.1967889 4950488
-0.0085599143 -0.047412246 1.1963663 5147351
0.0018091947 -0.045869108 1.1959131 5278422
0.012432666 -0.047541101 1.1944305 5212886
0.021679915 -0.046313453 1.1931577 5278423
0.031604346 -0.044929437 1.1932213 5147094
0.042560339 -0.044763204 1.1939374 4885460
0.051902831 -0.042693693 1.1928271 4950741
0.060996577 -0.041688945 1.1931447 5016279
0.10325795 -0.042132255 1.1896306 5212370
0.11056886 -0.042763043 1.1866385 5212369
-0.073985711 -0.046061508 1.197657 4423370
-0.072113611 -0.042740304 1.1972939 4554187
-0.047563151 -0.041941065 1.1982465 5147610
-0.037857406 -0.040583871 1.1960821 5081818
-0.02865102 -0.042334341 1.1955572 5016538
-0.017602975 -0.040271025 1.1952244 5278938
-0.0085549932 -0.039147157 1.1948203 5344730
0.0018821303 -0.039385155 1.193225 5673948
0.012151326 -0.040995188 1.1915841 5805277
0.021215949 -0.040477298 1.1911553 5541848
0.031351142 -0.03876118 1.1907206 5475544
0.041423824 -0.035911627 1.1903334 5213397
0.052118778 -0.035953745 1.1905091 5082070
0.061824135 -0.034688145 1.1917754 5016536
0.070697844 -0.032073021 1.1930417 5213915
0.081363209 -0.030485816 1.1925755 5279453
0.0923023 -0.030317165 1.1920401 5213659
0.10179532 -0.032629564 1.1898758 5212628
0.10827542 -0.032092184 1.1871711 5146833
-0.072196484 -0.036717929 1.1959313 4554443
-0.04714217 -0.033467226 1.1948175 5016281
-0.039840467 -0.033959679 1.1944364 5147611
-0.0087441299 -0.033092685 1.1929297 5411294
0.061634354 -0.024523579 1.1897792 5148123
0.070343196 -0.024038985 1.1895671 5213915
0.080440566 -0.023756713 1.1906201 5213917
0.091192536 -0.023100749 1.190691 5213659
0.099173598 -0.024295509 1.1882622 5212887
0.091474719 -0.015996434 1.1886356 5279708
0.096007034 -0.015737489 1.1884211 5411037
-0.0057596713 -0.18472795 1.1958455 3106213
-5.1541254e-005 -0.18440184 1.1955755 3105959
0.011237614 -0.1844115 1.1950158 3105706
0.021639349 -0.18316256 1.1945494 3105960
-0.016982989 -0.17849547 1.1966463 3105700
-0.0094679315 -0.17934904 1.196992 3105957
-0.00033017807 -0.17882696 1.1965598 3106216
0.010000928 -0.17839347 1.1969166 3106217
0.020576792 -0.17726627 1.1962651 3171752
0.028409233 -0.17631008 1.1955762 3303337
0.039401531 -0.17298278 1.1940691 3369130
0.046251282 -0.17259143 1.1937451 3369132
-0.030151395 -0.16804041 1.1980433 3171753
-0.020252174 -0.16999266 1.1998677 3171752
-0.0098690558 -0.16977042 1.2014461 3172010
-0.00059147738 -0.17056131 1.2019073 3172012
0.0094357003 -0.16960652 1.202245 3237802
0.020009153 -0.16827659 1.2012268 3303338
0.029199569 -0.16778812 1.200991 3369133
0.039388511 -0.16689828 1.1987977 3369388
0.049443483 -0.16595823 1.1976445 3303853
0.05853834 -0.16417521 1.1952204 3369643
0.068499364 -0.16273533 1.1932656 3303851
-0.048495635 -0.1573835 1.1990367 3303598
-0.04016804 -0.15981124 1.2002465 3303341
-0.031361327 -0.16119877 1.2031912 3303340
-0.021821151 -0.16221917 1.2055411 3369132
-0.013568366 -0.16363478 1.2050767 3303600
0.01975913 -0.16173068 1.2035002 3303598
0.032400593 -0.16100842 1.2029022 3435186
0.039870549 -0.16058165 1.2025489 3369391
0.049638949 -0.16002354 1.2020868 3369392
0.059234388 -0.15653095 1.2011318 3369390
0.068540715 -0.15477332 1.1971481 3435184
0.077624291 -0.1524691 1.1929808 3369392
-0.049791172 -0.15048206 1.2001735 3369646
-0.042313844 -0.15258628 1.20453 3303853
-0.034761578 -0.15561967 1.2064415 3173034
0.060752414 -0.14831744 1.2019957 3566773
0.068810955 -0.14651757 1.2009991 3566516
0.078346886 -0.14396085 1.1976879 3500977
0.088138402 -0.14393675 1.1944826 3500975
-0.060629368 -0.13909218 1.2003561 3632562
-0.051457278 -0.14177604 1.2028023 3501236
-0.043728143 -0.14171097 1.2069865 3501494
0.080246113 -0.13492164 1.201556 3698612
0.087693833 -0.13473246 1.198826 3567283
0.09626361 -0.13168117 1.1958128 3567283
0.1033486 -0.12808698 1.1926637 3501747
-0.068336114 -0.12987655 1.2010999 3895478
-0.062505536 -0.13219276 1.203225 3698613
-0.05338192 -0.13280979 1.2069237 3633080
0.081318103 -0.12822926 1.2017657 3699128
0.087684281 -0.12467194 1.2015898 3830713
0.097058609 -0.12369628 1.1999613 3699126
0.10345257 -0.12166557 1.1929107 3633333
-0.070081688 -0.12195694 1.2014973 3961271
-0.063080229 -0.12223135 1.2061497 3896247
-0.056073532 -0.12454644 1.2087176 3764921
0.087195851 -0.11774488 1.2018861 3962300
0.09786801 -0.11460078 1.2010093 3896506
0.10501137 -0.11205775 1.1952147 3764920
-0.071879059 -0.11279758 1.2034491 3830712
-0.064806566 -0.11219058 1.2082995 4093627
0.10025113 -0.10362136 1.2017938 4028352
0.10533284 -0.10249621 1.1962422 3962812
-0.072820865 -0.1025482 1.2043992 3962556
-0.066064581 -0.10353578 1.2095923 4028606
0.099153385 -0.093271926 1.2022547 4357317
0.10536034 -0.092936121 1.1979523 4225985
0.11034032 -0.088736445 1.1938624 4225985
-0.07282614 -0.093533047 1.2047535 4028606
-0.067766339 -0.093692474 1.2105085 4094655
0.099236764 -0.0852274 1.2025664 4554695
0.10471024 -0.082559034 1.1977907 4554182
0.11063956 -0.080318138 1.1941781 4619462
-0.074168503 -0.082883954 1.2037057 4159424
-0.065958165 -0.081695728 1.2096567 4160448
-0.059695259 -0.079776838 1.210655 4554440
0.09896104 -0.071865521 1.2031047 4620747
0.10446236 -0.072474107 1.2005538 4686026
0.11060026 -0.072682917 1.1944799 4619977
-0.074105032 -0.073189542 1.2036116 4291265
-0.065803215 -0.072947353 1.2084703 4357573
-0.060075648 -0.072879098 1.2109448 4751563
0.013709838 -0.065972582 1.2075601 4818903
0.021329064 -0.064768448 1.2072299 4819160
0.096653141 -0.063463368 1.203549 4752590
0.10395374 -0.063294366 1.2009394 4817869
0.10901777 -0.064754002 1.1948696 4752076
-0.072650239 -0.063513428 1.2039195 4291778
-0.06653513 -0.062613174 1.2072381 4554440
-0.060519435 -0.064831741 1.2112827 4883149
-0.042566866 -0.056558412 1.2067101 5674209
-0.036839738 -0.056231201 1.2064393 5082331
-0.025258424 -0.058489442 1.2076471 4950745
-0.015990933 -0.059593491 1.2046729 4884953
-0.0068386905 -0.059053041 1.2040403 4753366
0.0034611542 -0.057417419 1.2047966 4884692
0.014067012 -0.058399931 1.2033864 4884692
0.022795904 -0.057205852 1.203657 4884692
0.033021569 -0.055533469 1.2056772 4950484
0.043895226 -0.055788513 1.2033471 4950488
0.052685887 -0.055067871 1.2039353 4950489
0.063236408 -0.053060673 1.2045444 5411037
0.072233804 -0.05234582 1.2051954 5542623
0.086200848 -0.04952966 1.204614 5213404
0.094116598 -0.05196052 1.2041264 5081558
0.10240724 -0.053628255 1.2012453 5015248
-0.068007179 -0.052773923 1.2041112 4685772
-0.045812443 -0.051087432 1.2041708 5542365
-0.03685417 -0.050758317 1.203792 4951002
-0.028113162 -0.051238552 1.2021948 4884951
-0.018773315 -0.052579589 1.2016795 4753366
-0.0051367804 -0.050654873 1.2010794 4950484
0.0037265625 -0.05043488 1.2006488 5015763
0.033741474 -0.049579248 1.1991953 5015764
0.040591225 -0.049187899 1.1988713 4885461
0.052442774 -0.047528822 1.1983492 4884950
0.063235521 -0.045925349 1.1997273 5082072
0.072669737 -0.044370681 1.2022806 5542624
0.082406186 -0.045073945 1.2041754 5279197
0.092323206 -0.043140024 1.2009544 5213144
0.099533238 -0.045056596 1.1961131 5212627
0.06634479 -0.038551554 1.1980129 5016538
0.071958445 -0.036512397 1.1978148 5213917
0.081335537 -0.033494473 1.1974688 5345245
0.091817707 -0.035235181 1.197549 5213917
0.18325092 -0.032452427 1.2004761 13158081
-0.00060757808 -0.16589496 1.2083539 3303598
0.012075675 -0.16517031 1.2077539 3303850
-0.029557137 -0.15690401 1.2101412 3303853
-0.019707846 -0.15795362 1.2099699 3304111
-0.0099604074 -0.15959068 1.2111742 3303857
-0.00085732527 -0.15942268 1.2113758 3303856
0.0095567629 -0.15886962 1.211132 3369903
0.019701585 -0.15663522 1.2077112 3435441
0.028793931 -0.15702921 1.2072452 3435187
0.039208308 -0.15579623 1.2067776 3500978
0.049680185 -0.15492244 1.2062931 3369649
0.056278668 -0.15292558 1.2060446 3435441
-0.038116492 -0.14991075 1.21084 3370159
-0.031540297 -0.15030639 1.2104986 3370416
-0.021087224 -0.15006676 1.2122445 3436469
-0.010587139 -0.14990547 1.2144861 3502005
-0.001324961 -0.1493763 1.214048 3501749
0.0092865909 -0.15225551 1.2134092 3501493
0.019434184 -0.14798763 1.2118214 3567542
0.028755438 -0.14760706 1.2123139 3567541
0.039073169 -0.14682651 1.2106435 3633333
0.049253851 -0.14583696 1.2076104 3567541
0.057740398 -0.14458247 1.2062998 3633079
0.067629948 -0.14183047 1.2059178 3632566
-0.038967289 -0.14147425 1.2112134 3501750
-0.031990767 -0.14145175 1.2133735 3567798
-0.023462603 -0.14161465 1.2154496 3633848
-0.0097487178 -0.14404848 1.2146746 3633591
-0.0028020833 -0.14365159 1.2143459 3699128
0.019131716 -0.14123662 1.213354 3830714
0.029551663 -0.1406413 1.2128612 3764921
0.038972087 -0.1391525 1.2124529 3830712
0.049431451 -0.13762459 1.2116368 3830713
0.058086395 -0.13681674 1.2109295 3830458
0.06827534 -0.13588567 1.2084924 3764409
0.07620357 -0.13381976 1.2063642 3764407
-0.048558772 -0.13114592 1.2120942 3698874
-0.041812569 -0.13153991 1.2139989 3764923
-0.033103205 -0.13185099 1.2163107 3765435
-0.026468473 -0.13570915 1.2158304 3699641
0.066925131 -0.13037327 1.2114125 3896252
0.076650999 -0.12523554 1.2085081 3831226
0.083833717 -0.12404472 1.2058133 3830458
-0.051672675 -0.12190483 1.2134024 3896508
-0.042349815 -0.12151282 1.2171748 4028352
-0.03443864 -0.12175792 1.2167732 4094143
0.077326462 -0.11524331 1.2079128 4159936
0.086485483 -0.11340257 1.2060999 4028352
0.094423719 -0.11157985 1.2057781 3962559
-0.060222462 -0.11260516 1.2134001 4093628
-0.0532979 -0.11230538 1.2138203 4028352
-0.042863972 -0.11220887 1.2172525 4094401
-0.036235102 -0.11024233 1.2173144 4225986
0.078392737 -0.10609353 1.2104315 4357317
0.086545147 -0.1045739 1.2092617 4225732
0.095192321 -0.10349439 1.2060575 4159938
-0.061746895 -0.10293992 1.2138551 4028609
-0.05351761 -0.10259967 1.2148272 3963330
-0.044025995 -0.10226765 1.2180135 4160708
-0.037455119 -0.10496765 1.217582 4292035
0.080318272 -0.092429757 1.2122389 4620236
0.085836992 -0.094789684 1.2104812 4488649
0.094143227 -0.0947963 1.2064511 4357318
-0.0634633 -0.092789769 1.2143388 4160449
-0.054692574 -0.092621535 1.2176138 4160708
-0.045361422 -0.09217459 1.2184761 4489161
0.086448483 -0.085484564 1.2111343 4555212
0.094444178 -0.083635755 1.2068744 4620489
-0.15560359 -0.08964324 1.2240376 14082013
-0.062496528 -0.085351408 1.2145829 4226242
-0.054417267 -0.082703613 1.2167916 4620234
-0.047329284 -0.080358975 1.2190375 5079759
-0.013389258 -0.078032598 1.2174472 6791922
-0.0053487252 -0.076411396 1.2171124 5608162
0.00507122 -0.075816065 1.2166196 5016279
0.01520946 -0.077213973 1.214696 5608413
0.023627505 -0.075336799 1.215719 4950485
0.030542202 -0.074360825 1.2154146 5016277
0.088622399 -0.074527979 1.2125304 4752847
0.094350502 -0.074075833 1.2090226 4620747
-0.055653475 -0.073795721 1.2156997 4948687
-0.044840716 -0.076344058 1.2190719 5408980
-0.023601757 -0.07191442 1.2162665 6134248
-0.015020451 -0.070923544 1.2153022 5344990
-0.0060819462 -0.070612557 1.2152294 4884696
0.0050626192 -0.070022821 1.2147845 4818902
0.015417689 -0.07056354 1.2113032 4818646
0.024497334 -0.068990283 1.2116308 4818646
0.034606189 -0.068016194 1.212206 4884696
0.044639938 -0.066949904 1.2117865 5344733
0.053846769 -0.066389829 1.2109945 5936870
0.063652113 -0.065421894 1.2132902 5608416
0.072713904 -0.064051025 1.2137301 5082072
0.085372902 -0.063976787 1.2100998 5016278
0.091684215 -0.065049127 1.2077409 4884178
-0.024653388 -0.065447763 1.2134895 5082331
0.0041721845 -0.063800864 1.2121259 4687574
0.027232649 -0.062483344 1.2110351 4687574
0.035102747 -0.061372519 1.2106888 4819159
0.042221949 -0.061626956 1.2103261 4950233
0.054905199 -0.06090232 1.2097261 5542369
0.063546255 -0.059123009 1.2093678 5805540
0.076237477 -0.056212366 1.2088532 5213659
0.083539963 -0.055795155 1.2085079 5147866
0.092485808 -0.057212472 1.208009 5081557
0.0092544742 -0.1482432 1.2175763 3633335
-0.018783377 -0.13924843 1.2193186 3699641
-0.011255076 -0.13926712 1.2189449 3765177
-0.0014735498 -0.13895237 1.2201229 3830714
0.0089012627 -0.13936856 1.2208281 3962299
0.019109065 -0.13612173 1.2182319 4028092
0.027928464 -0.1363945 1.2174026 3962300
0.037418276 -0.13550845 1.2174096 3962299
0.046953958 -0.1337232 1.2185051 3962299
0.05915565 -0.13187082 1.2157466 3896509
0.068887211 -0.13084857 1.2153046 3830714
-0.029069221 -0.12945133 1.2202129 3962813
-0.022344852 -0.13087308 1.2216053 3962813
-0.011244433 -0.13154903 1.2232555 4028350
-0.0019105282 -0.13314201 1.2227304 4093886
0.0050816918 -0.13274252 1.2223997 4093886
0.018873269 -0.12844622 1.2218851 4291263
0.028196231 -0.12791358 1.221444 4291265
0.037519187 -0.12738092 1.2210031 4291265
0.048007518 -0.1267817 1.2205069 4225471
0.05825299 -0.12584016 1.2175312 4159424
0.067405246 -0.12510507 1.2156036 4028351
-0.030743415 -0.12022191 1.2206583 4159681
-0.02498251 -0.12176818 1.2232271 4159937
0.018423248 -0.12028581 1.2222278 4685507
0.027927855 -0.11880723 1.221815 4685766
0.036784664 -0.11830121 1.221396 4685768
0.048782058 -0.1177008 1.2208251 4685254
0.057956949 -0.11682335 1.2201545 4553924
0.066917598 -0.11584076 1.2162421 4357059
0.072572328 -0.11315351 1.2158169 4291524
-0.032141447 -0.11237732 1.2213696 4291267
-0.026278263 -0.1112777 1.2239947 4291525
0.02852585 -0.11269193 1.2220254 5080013
0.035518073 -0.11229244 1.2216947 5013964
0.050410725 -0.10676379 1.2211739 5014215
0.057402954 -0.1063643 1.2208431 4948424
0.06664262 -0.10573303 1.2196085 4686025
0.074128836 -0.10463726 1.2176774 4554696
-0.040027834 -0.099770948 1.2219214 4423366
-0.034301519 -0.10168243 1.223433 4489158
-0.028054802 -0.1042301 1.2251611 4554697
0.049832128 -0.09627182 1.2216146 6725605
0.057070285 -0.096092172 1.2212629 5541334
0.066147313 -0.095339678 1.2208427 4949456
0.076091833 -0.095867775 1.2188025 4752076
-0.04170204 -0.090541512 1.2223668 4751821
-0.035776965 -0.091661125 1.2247013 4817612
-0.010308916 -0.08684396 1.2249646 6133729
-0.007978173 -0.086710796 1.2248544 5804510
0.016537456 -0.086089768 1.223664 6726116
0.024652187 -0.084846519 1.2233108 6791913
0.037471257 -0.084114119 1.2227044 5673696
0.046318226 -0.086727194 1.2221634 5344728
0.057475418 -0.08647956 1.2216203 5475805
0.065633006 -0.086013488 1.2212344 5147095
0.075985797 -0.08529152 1.2195475 4949712
0.084232293 -0.081598014 1.2164782 4621777
0.19246548 -0.075258791 1.2153726 11781308
-0.044345565 -0.084864378 1.2227206 4883150
-0.035546996 -0.082418963 1.2223808 6001884
-0.024791105 -0.080250263 1.221933 6133474
-0.012959747 -0.082539693 1.2228601 6067939
-0.0051973276 -0.081364602 1.2220116 6594284
0.0057273293 -0.079468831 1.2215446 6002915
0.016791508 -0.082070798 1.2198012 6857704
0.02570842 -0.079572007 1.2201256 6397928
0.034901988 -0.078432888 1.2209171 6397674
0.043952912 -0.07812614 1.2210151 6002659
0.055933438 -0.07718423 1.2209929 5476060
0.064942516 -0.076522328 1.2198879 5213402
0.075581878 -0.077175014 1.220287 5081814
0.085439995 -0.075449824 1.2172765 4818898
0.19510567 -0.070137799 1.2154429 12896707
0.048131555 -0.071421415 1.2186666 6331369
0.057424121 -0.070890501 1.218227 5805025
0.064393543 -0.070492312 1.2178973 5213658
0.075306982 -0.068832681 1.2174218 5213658
0.08362437 -0.06846109 1.2170242 5082070
-0.018446701 -0.12776625 1.2287709 4160192
-0.011634193 -0.12784672 1.2284302 4159936
-0.0019359365 -0.12917136 1.2278976 4225472
0.0090282094 -0.12932774 1.2273482 4225471
-0.019451337 -0.12019126 1.2291181 4160194
-0.011813287 -0.12034199 1.2287337 4291265
-0.0024523363 -0.11980716 1.2282909 4422851
0.0081822369 -0.11945256 1.2297018 4685254
0.018416153 -0.11509224 1.227442 4882628
