# .PCD v0.7 - Point Cloud Data file format
VERSION 0.7
FIELDS x y z rgba
SIZE 4 4 4 4
TYPE F F F U
COUNT 1 1 1 1
WIDTH 1132
HEIGHT 1
VIEWPOINT 0 0 0 1 0 0 0
POINTS 1132
DATA ascii
-0.0020937454 0.048813671 1.0331166 6057083
0.0042653959 0.049206764 1.033712 6057334
-0.092327245 0.009158954 1.0444452 7832202
0.070910685 0.037474707 1.035645 5792617
0.073872596 0.037730306 1.0354867 5724767
-0.051722877 0.040837333 1.0421313 7764863
-0.032318115 0.046496093 1.0410736 6384242
-0.023432359 0.047262877 1.0405985 6121843
0.16126862 -0.064725034 1.0503985 13950701
0.16428456 -0.064464785 1.0502372 13160147
0.16301855 -0.061531335 1.0502895 13423577
0.16354635 -0.074241959 1.0573359 12898285
0.16757312 -0.074876457 1.0566248 12832198
0.1614953 -0.068438806 1.0555553 10136266
0.16827372 -0.068334036 1.0553026 13159885
0.16137552 -0.062142134 1.0568888 12175571
0.16641536 -0.060640994 1.0531089 13093836
-0.13756889 -0.12061906 1.0853561 1720740
-0.1389403 -0.11381591 1.0851822 3628972
-0.14042279 -0.10775946 1.0866439 4745397
0.16351679 -0.076029547 1.0663592 6256041
0.16828114 -0.078310959 1.0663184 12767188
0.1611 -0.067119546 1.0684451 7312841
-0.13282764 -0.1444995 1.0964416 2903988
-0.12972644 -0.1442319 1.0962758 1324707
-0.13535604 -0.13264143 1.0957645 2904505
-0.13487381 -0.12380783 1.0943422 2644141
0.16602337 -0.095766909 1.0803462 5801403
0.17046377 -0.09573137 1.0801105 11779799
-0.13561848 -0.11273649 1.0924228 3039906
0.16434917 -0.0867806 1.079388 3630254
0.170578 -0.08706665 1.0784701 11516624
0.17771333 -0.086414881 1.0796789 13685195
-0.13875213 -0.10400561 1.0949118 2708908
0.16335738 -0.078366414 1.0785217 3762605
0.16835421 -0.081739873 1.0771472 10465738
0.16271091 -0.071587019 1.0743908 6721740
-0.13783163 -0.086528406 1.096413 1588628
-0.13473043 -0.086260796 1.0962472 3826867
-0.12466779 -0.15921426 1.1020919 3694011
-0.13028508 -0.15314524 1.1003562 7178192
-0.12503397 -0.15243895 1.1012297 2114980
-0.13147914 -0.14173421 1.1003617 1063065
-0.12673131 -0.14415455 1.1010234 2447769
-0.13166246 -0.13416122 1.100333 2578847
-0.12905252 -0.13348788 1.1031954 2907546
0.16704389 -0.10672035 1.0858554 6851775
0.1724833 -0.10578488 1.0840601 13029078
-0.13180491 -0.12404349 1.1010404 3104917
-0.13013169 -0.12098579 1.1031893 3170462
0.16473055 -0.096087962 1.0859241 3040417
0.17460829 -0.098573446 1.0839108 13422807
0.17724431 -0.095205776 1.0837539 13619661
-0.13495833 -0.11174621 1.1011453 3104162
0.1627591 -0.088014685 1.0853441 2973607
-0.13499874 -0.10339341 1.1013553 3169952
0.16241673 -0.077897854 1.0874568 2843043
-0.13766491 -0.093910232 1.1006054 3301299
-0.11801579 -0.17058527 1.111811 4750553
-0.11409295 -0.17247991 1.1136155 1196192
-0.12081485 -0.16353616 1.1087191 3036848
-0.11646494 -0.16544048 1.1137056 1789334
0.16574946 -0.13703467 1.096092 12898004
-0.12063155 -0.15258491 1.1100782 2776475
0.16540438 -0.127932 1.0949625 9087435
0.17060548 -0.12282678 1.091256 13488846
-0.12380276 -0.14208049 1.1099706 3038106
0.16428971 -0.11733875 1.0939665 4354994
0.171799 -0.11471777 1.0911516 13752800
-0.12642571 -0.1325607 1.1115079 2973083
0.16346973 -0.10760088 1.0948696 2121388
-0.13263908 -0.11949864 1.1073203 3301280
-0.12865597 -0.12412339 1.1107742 3039132
0.16338778 -0.099517427 1.0926889 2646946
0.17918181 -0.092887603 1.0936537 13817039
-0.13318065 -0.11322483 1.1073172 3366820
-0.13034302 -0.1134459 1.112175 3105183
0.16090158 -0.087436482 1.0962979 3631271
0.18004781 -0.090700299 1.0935966 13817037
-0.13414338 -0.10207138 1.1073117 3499424
-0.13117626 -0.10283656 1.1109637 3302563
0.15964693 -0.077255294 1.0955528 3369127
-0.13197294 -0.093368143 1.1106576 3434147
0.16077948 -0.067536823 1.0964128 2908578
0.16617769 -0.064433597 1.0941989 8233160
-0.13768226 -0.082666993 1.1082594 3365295
-0.13212585 -0.083402209 1.1109618 3499689
0.16072971 -0.0579275 1.0961043 4024485
0.16545367 -0.056045737 1.0941949 11192030
-0.13680637 -0.073678173 1.1103133 2181536
-0.13155407 -0.073081911 1.1112335 3433908
0.15961853 -0.052566849 1.0984924 2708114
-0.13569266 -0.065328598 1.1142176 8233201
-0.13187984 -0.066123486 1.1123027 3564980
-0.0051171463 0.11846243 1.1023555 9935247
0.00048899651 0.11985156 1.1020511 9934992
-0.10727554 -0.18083355 1.1220009 929696
-0.10296015 -0.18081474 1.1240829 1984411
0.15773124 -0.15403652 1.1101224 13424882
-0.10922668 -0.17140448 1.119761 2512540
-0.10429132 -0.17288271 1.1227781 2906513
0.15840942 -0.14803402 1.1076082 8955594
0.16373193 -0.146228 1.1037562 14080986
-0.11752329 -0.15798423 1.1207339 2381461
-0.11387732 -0.16286932 1.1225054 2776212
0.15773675 -0.13845581 1.1063581 3697834
-0.11843308 -0.15211904 1.1215868 2841752
-0.11577386 -0.15622534 1.1246377 2906774
0.15875405 -0.12841402 1.1067338 2646183
-0.12116658 -0.14175345 1.1227045 2907034
-0.11669118 -0.14559819 1.1246325 2775704
0.15863526 -0.11965654 1.1077973 3696546
0.16025919 -0.11496344 1.1071199 3761571
-0.12306786 -0.13243127 1.1213433 2973083
0.16136941 -0.10874499 1.1063619 3368880
-0.12506327 -0.12235736 1.1208528 3039134
0.16064507 -0.097156115 1.105947 3500454
-0.12615407 -0.1119629 1.1205575 3171232
0.15890694 -0.088835508 1.1070114 3631529
-0.12749976 -0.10327764 1.1198839 3302564
0.15628776 -0.07863155 1.1028068 3697839
0.15688324 -0.078831039 1.1057805 3763633
-0.12845758 -0.092765808 1.1206825 3368355
0.15646327 -0.067570083 1.1054596 3436468
0.1704075 -0.06272871 1.1049817 10992842
-0.1270262 -0.082186058 1.120553 3697068
0.15344495 -0.054837745 1.1098468 3765679
0.15658951 -0.057077978 1.1048664 3830452
0.16968942 -0.058523443 1.1049984 11387079
-0.12671873 -0.0743559 1.1182939 3631022
-0.12485617 -0.070973977 1.1176772 3500456
0.15206423 -0.048016004 1.1069925 3830449
0.15865767 -0.047943451 1.1041594 5207985
0.16544643 -0.048370581 1.1078423 10334913
-0.12787956 -0.062386554 1.1203691 3434161
0.15042698 -0.039192941 1.1067802 3893939
0.15748459 -0.03906998 1.1056026 8428221
-0.12880749 -0.052397534 1.123944 6194370
-0.12441649 -0.049908068 1.124557 4421311
0.14738953 -0.02758421 1.1089373 5734064
0.15403402 -0.030697726 1.1096932 10203587
-0.1236633 -0.043151636 1.1244828 6852289
0.145291 -0.021822669 1.1069072 8955077
0.0046359189 0.096127644 1.1169728 9737616
-0.073141307 -0.21476385 1.131019 7635861
-0.069590263 -0.21495062 1.133502 8100012
-0.084059767 -0.20574816 1.1342226 10535920
-0.076962426 -0.20782353 1.1315005 5996227
-0.069899045 -0.21137345 1.1335002 6394567
-0.095390767 -0.19565363 1.126761 8431615
-0.088070184 -0.19747362 1.1291552 1526185
-0.081496224 -0.19930625 1.1329095 1262491
0.14092612 -0.17732403 1.1221473 11717846
-0.10463903 -0.18786371 1.1272119 7571711
-0.097413115 -0.18951693 1.128395 1917611
-0.090053678 -0.19141044 1.1317974 2379673
-0.08293546 -0.19375853 1.1341022 2644619
0.14191698 -0.17033976 1.1220595 5010097
0.148763 -0.16677466 1.118531 10599906
0.15568045 -0.16496319 1.1172967 14081762
-0.098096952 -0.18071112 1.1310452 2709143
0.14204296 -0.15968905 1.1219988 2909858
0.14841664 -0.15866408 1.1178319 4026283
0.15579727 -0.15822205 1.1137513 12307424
-0.10638662 -0.16761804 1.1272019 2775446
-0.10150957 -0.17142519 1.1298759 2775442
0.14893517 -0.14963795 1.1185781 3105445
0.15351877 -0.14841065 1.1133217 2578854
-0.10891401 -0.16060883 1.1294574 2775449
-0.10427288 -0.1626209 1.1337407 2906778
0.15048486 -0.13966645 1.1198473 3564451
0.15352529 -0.13842452 1.115674 3433893
-0.11343347 -0.1522878 1.1307968 2840984
0.15135488 -0.13137636 1.1213614 3565217
0.15465316 -0.12896967 1.1158333 3499430
-0.1194186 -0.14083163 1.1277572 2841497
-0.11597978 -0.14231664 1.1335909 2907290
0.15612787 -0.1181791 1.1180371 3237547
-0.12032605 -0.13141745 1.12936 2973083
-0.11733238 -0.13164103 1.1336086 3038877
0.15843439 -0.1082573 1.119048 3827369
0.16066417 -0.10700113 1.1127328 3564710
-0.1221694 -0.12156971 1.1306666 3039391
-0.11917617 -0.12323093 1.1343313 3170977
0.15782464 -0.098183945 1.1188471 3565735
0.15992835 -0.098476633 1.1127285 3500198
-0.12288601 -0.11340789 1.1328092 3170977
0.15727994 -0.089179024 1.1181628 3631790
0.15864381 -0.090744987 1.1207688 3434923
-0.12400078 -0.1029118 1.1318136 3302823
0.15596938 -0.07779678 1.1183414 3566513
-0.12490069 -0.092951141 1.1304756 3368614
0.15427503 -0.068652004 1.1184235 3632560
-0.12499163 -0.085223399 1.1317765 3565995
0.15214086 -0.058630425 1.1172122 3895728
-0.12328058 -0.069969989 1.1332108 3697842
0.14888015 -0.048917808 1.1158671 4158132
-0.12240662 -0.061560079 1.1318836 3502262
0.14690092 -0.038379785 1.1171204 4027837
-0.12062369 -0.051856451 1.1311531 3698611
0.14129783 -0.027373068 1.1213673 4619197
0.14704752 -0.029990956 1.1155294 4946612
-0.12760463 -0.045996681 1.1277105 7180220
-0.11993202 -0.042321619 1.1344951 4815032
0.14062044 -0.020925857 1.120703 5209534
0.14478216 -0.018811181 1.1131278 8425655
0.0062534548 0.092227072 1.1199111 9474444
-0.044956833 -0.22272319 1.1392449 8300241
-0.063977279 -0.21614078 1.1365788 7642055
-0.05635269 -0.21614163 1.1383138 4815810
-0.049251735 -0.2189911 1.1394538 5210825
-0.074113779 -0.20505762 1.136696 932767
-0.066794015 -0.20788196 1.1380087 2382238
-0.057835482 -0.21015885 1.1398642 2251168
0.1244716 -0.1911636 1.1301 6518691
0.13011551 -0.18964735 1.1283624 11319227
-0.076313615 -0.19847989 1.1386486 2447513
-0.07053528 -0.20146419 1.1404936 2513045
0.13126314 -0.18129507 1.1286358 4617903
0.13811687 -0.1807214 1.1253178 10929103
-0.086692765 -0.18830767 1.1387347 2971544
-0.080457948 -0.19154862 1.1389667 2774929
0.13249567 -0.17188668 1.1279078 2909086
0.13717173 -0.17053221 1.1253163 3105187
-0.095400587 -0.17581946 1.1376766 2709911
-0.09024284 -0.18045175 1.1397828 2644371
0.13787106 -0.16061947 1.1258452 3368356
-0.098192364 -0.16941983 1.1396129 2775444
-0.092848398 -0.17309719 1.1401979 2709910
0.14147204 -0.15040526 1.1265885 3368613
0.14531767 -0.14709784 1.1247655 3499683
-0.10214347 -0.16115889 1.139462 2841497
0.14274791 -0.1428095 1.1288856 3237027
0.14707902 -0.13971749 1.1259699 3302821
-0.10909028 -0.15012492 1.1388445 2645144
-0.10533992 -0.15153277 1.141196 2775964
0.1493735 -0.12954786 1.1266463 3237542
0.15308824 -0.12563473 1.1255798 3106215
-0.1115872 -0.14190973 1.1398196 2907291
0.14994416 -0.11991049 1.1270527 3499683
0.15277931 -0.11767855 1.1253651 3303338
-0.11337125 -0.13210043 1.1408113 3039134
0.15366986 -0.10907866 1.1255436 3499947
-0.11984953 -0.11830847 1.1386815 3236770
-0.11715575 -0.12238047 1.1418973 3236770
0.15451053 -0.098459341 1.1258521 3500458
-0.1204068 -0.11185247 1.1386783 3237027
-0.11844694 -0.11204462 1.142581 3302821
0.15598273 -0.087743998 1.1261879 3632048
-0.12124271 -0.10216849 1.1386735 3302824
-0.11923919 -0.10286637 1.1425765 3302569
0.15349382 -0.079036735 1.1261717 3632047
-0.1224527 -0.093167186 1.1386921 3434408
-0.11968162 -0.090549827 1.1425375 3434665
0.149149 -0.068323866 1.1259836 4026292
-0.12291453 -0.082800508 1.138664 3631531
-0.12105673 -0.081810392 1.1425661 3631531
0.14849651 -0.060372867 1.1246023 4157366
-0.1234718 -0.07634452 1.1386608 4025255
-0.12065694 -0.070958734 1.1407732 3632304
0.14692512 -0.048675243 1.1241812 4289211
-0.11801755 -0.06170572 1.1400141 3568048
0.1428943 -0.038214464 1.1250095 4094399
0.14566171 -0.042378612 1.126219 4224702
-0.11732603 -0.05557926 1.1382296 3764911
-0.11414183 -0.050972458 1.140541 3895729
0.13966814 -0.030039825 1.1259282 4487616
-0.11993233 -0.03762969 1.141281 6458567
-0.11472905 -0.040967766 1.1404212 3895996
0.13859311 -0.019054659 1.1248734 5735616
0.14512032 -0.015226558 1.1241074 9477559
-0.11967327 -0.034914013 1.1422549 6852289
-0.11643849 -0.034634873 1.142082 5933254
0.040482543 0.080893308 1.129169 9474701
-0.0068462007 -0.2299186 1.1492776 7248329
0.025928359 -0.22868834 1.1467321 5801654
0.033785079 -0.22687702 1.1457721 5210039
0.046640258 -0.22640243 1.1464232 6328255
0.054267723 -0.22574423 1.1460154 7379645
0.065758996 -0.22463049 1.1454004 8430007
0.073305517 -0.22220111 1.1409822 8625323
-0.045681491 -0.22511783 1.1433012 9678537
-0.034565415 -0.22415717 1.1492425 4422071
-0.025138829 -0.22402179 1.1502177 2778029
-0.015269399 -0.22499186 1.1496992 2513574
-0.0074605849 -0.22704011 1.1492954 2315684
0.022385649 -0.22519748 1.1477034 2120102
0.034371667 -0.22416317 1.1470625 2185635
0.047353134 -0.22194366 1.1463629 2186146
0.052895512 -0.2225647 1.146072 2316696
0.067962065 -0.21906596 1.1452553 4486314
0.075344168 -0.21803352 1.1428558 5997746
0.086227603 -0.21412332 1.1431172 6063288
0.094788596 -0.21191409 1.1437964 6589614
0.10287075 -0.21143651 1.1433655 8757678
-0.052120663 -0.21366522 1.1435847 1855898
-0.045046084 -0.21557122 1.1464618 2249885
-0.036989398 -0.21719269 1.1500832 2381985
-0.028679598 -0.21861094 1.150378 3039902
0.088315219 -0.20686623 1.1441141 2841504
0.094261132 -0.20580348 1.1437935 3302564
0.10351429 -0.20274174 1.141952 4420011
0.11296392 -0.20109221 1.1370553 6984117
0.12199714 -0.19754849 1.1342694 6254993
-0.064073049 -0.20413712 1.1449714 2710418
-0.055915691 -0.2067076 1.1481378 2775447
-0.048885323 -0.20833713 1.1505963 2906776
0.1053206 -0.19466305 1.1427499 3171492
0.11352192 -0.19257787 1.1395004 3237285
0.12148823 -0.19067374 1.1348337 3629215
-0.067331694 -0.19744158 1.1491159 2775191
-0.058801964 -0.20020905 1.1512145 2906012
0.11475915 -0.18323082 1.1409229 3040421
0.12134386 -0.18097502 1.1371715 3105703
0.12708648 -0.18073441 1.1339142 2777257
-0.084048718 -0.18476221 1.1451313 2710677
-0.076795481 -0.1880338 1.1482977 2709909
-0.070168197 -0.19108263 1.1504358 2709910
0.12195878 -0.1725097 1.1406801 3368100
0.12911254 -0.17005271 1.1358889 3302561
-0.085668854 -0.17833181 1.1483001 2710421
-0.080446199 -0.18074186 1.1521301 2644886
0.12341687 -0.16459191 1.1420383 3040936
0.13104209 -0.16082446 1.1395249 3237031
0.1370108 -0.15739903 1.1362739 3368615
-0.096552908 -0.16619132 1.1457002 2776209
-0.090511613 -0.17016573 1.1501567 2841240
0.13244523 -0.15218461 1.1414967 3237287
0.13840525 -0.14943802 1.1360165 3302822
-0.097880483 -0.15962648 1.1502771 2710683
-0.092777178 -0.16248938 1.152825 2841499
0.14006799 -0.1408447 1.138443 3237541
0.14457965 -0.13773218 1.1343708 3237798
-0.100702 -0.15128213 1.1509948 2907293
0.14112756 -0.13195318 1.1409336 3237797
0.14535388 -0.12903817 1.1356876 3303334
-0.10819583 -0.14018989 1.1473303 2907805
-0.1055466 -0.14160061 1.1532627 2907805
0.14651525 -0.11953866 1.138137 3434407
-0.1094121 -0.13095216 1.1488739 3039392
-0.10642254 -0.13187839 1.154061 3039391
0.14761913 -0.10983514 1.1379021 3500202
0.15121084 -0.10660304 1.132259 3631274
-0.11323536 -0.12207943 1.150901 3170979
0.1487909 -0.099427365 1.1399173 3631791
0.15181121 -0.098598585 1.1339669 3566510
-0.11446501 -0.11179646 1.1520967 3105957
0.14695218 -0.08843115 1.1387351 3632305
0.15194109 -0.089104511 1.1324654 3501227
-0.11582782 -0.10185207 1.1498296 3237546
0.14567035 -0.079437234 1.1378773 3698099
0.15002921 -0.079444639 1.1325846 3698094
-0.11603355 -0.092085183 1.1500294 3434923
0.14613178 -0.070088699 1.1383517 3895479
0.14821777 -0.071928173 1.132242 3895477
-0.11652303 -0.081630841 1.1506222 3566256
0.14548793 -0.058798902 1.1396638 4027579
0.14774311 -0.058027923 1.1362022 4157882
-0.1163396 -0.072672293 1.1498097 3567024
0.14261132 -0.049474053 1.1392586 4159422
0.14669716 -0.04927098 1.134611 4289724
-0.11499896 -0.062684089 1.1474888 3567791
-0.11179519 -0.060463831 1.1526486 3764403
0.13996814 -0.039627958 1.1378565 4356797
-0.11115385 -0.051442694 1.1464649 3830196
0.13644546 -0.030313931 1.1370615 4619718
-0.11050207 -0.040443208 1.1487155 3896507
0.13137856 -0.018813871 1.1377614 4817095
0.13576213 -0.019016586 1.1343032 4948420
-0.11880278 -0.031951122 1.1502051 6916535
-0.11132246 -0.031838037 1.1494998 5210049
0.13009848 -0.012508206 1.1399114 5013440
0.13437715 -0.011721455 1.1373439 5998788
0.023696145 0.052659228 1.1410749 5859448
0.031747051 0.053430736 1.1387842 6122362
0.037426427 0.05405134 1.1414841 6319482
0.048584886 0.056287602 1.1448867 5330522
0.023811966 0.057132244 1.13952 5792108
0.031496797 0.05864346 1.1385708 5527648
0.037050977 0.058400869 1.141482 5067354
-0.00097485259 -0.22938287 1.1519676 4354997
0.0065413853 -0.2297646 1.1535739 4684224
0.016285505 -0.22862904 1.1515826 4289976
0.026982596 -0.22539581 1.1504648 2054307
0.037408374 -0.22504725 1.1499101 2777510
0.042965215 -0.22566991 1.1496186 4026798
0.059352417 -0.22425582 1.1487424 5604271
0.063034445 -0.22228481 1.1485372 4881326
-0.02074955 -0.22069733 1.1529722 3039902
-0.012735024 -0.22092675 1.1530491 2710943
-0.0039966367 -0.22208747 1.1553999 2645152
0.0062550865 -0.22406997 1.1582334 2514339
0.016108625 -0.22311595 1.157172 2514851
0.025679514 -0.21977583 1.1551119 2842787
0.035361852 -0.21851613 1.1523889 2908579
0.044976041 -0.21728984 1.1523625 3039651
0.055237785 -0.21710947 1.1529301 2908578
0.064452216 -0.2154393 1.1521826 2778020
0.074167408 -0.21293443 1.14933 2646433
0.083849907 -0.21479404 1.1473953 5012145
0.095431127 -0.2150805 1.1467826 8955830
-0.034423545 -0.21342656 1.1539466 2841242
-0.024343885 -0.21463627 1.1554688 2775960
-0.01516898 -0.21512359 1.1569208 2841500
-0.0054245107 -0.21646112 1.1601495 2907551
0.026047165 -0.21300548 1.1584629 3105184
0.03518264 -0.21184722 1.1579726 3170722
0.045083188 -0.21099287 1.1574432 3302053
0.055119533 -0.2095719 1.1569037 3170723
0.065490872 -0.20775208 1.1563445 3105188
0.074616507 -0.20616898 1.1541359 3170467
0.083950728 -0.20515501 1.1497445 3236258
0.093645133 -0.20086439 1.1472503 3171236
-0.051946357 -0.20355022 1.1545397 2906776
-0.045196027 -0.20521179 1.1553346 2907033
-0.036508851 -0.20544907 1.1585709 2841497
-0.026783098 -0.20868574 1.1612426 2775704
0.075219244 -0.20062357 1.1557925 3105443
0.084019735 -0.19986416 1.155322 3105443
0.094373047 -0.19523971 1.1534846 3105956
0.10226291 -0.19167899 1.1495062 3105956
-0.063815504 -0.19355266 1.1551183 2644884
-0.056316406 -0.19648573 1.1577399 2775705
-0.047599517 -0.19861543 1.1599588 2841497
0.097369619 -0.18761393 1.1545519 3172006
0.10473073 -0.18458815 1.1531447 3040421
0.1102296 -0.18175623 1.1503353 2974628
-0.073310837 -0.18555462 1.1555814 2645144
-0.066387735 -0.18673059 1.1582834 2710425
-0.060797326 -0.18897904 1.1595131 2776216
0.11294983 -0.17284939 1.1503962 3171493
0.11754495 -0.17021549 1.1469847 3237026
-0.076886632 -0.17781454 1.1583236 2710424
-0.070150003 -0.17944893 1.1619376 2710937
0.11545908 -0.16607614 1.1534834 3302823
0.12123968 -0.16147837 1.1499912 3172005
0.12669143 -0.15785596 1.1488404 3172006
-0.086632311 -0.16723239 1.1561949 2841498
-0.081782259 -0.16934139 1.1608785 2907290
0.12330866 -0.15430056 1.1530074 3303592
0.12916371 -0.15040116 1.1513419 3237544
0.13455673 -0.14557371 1.1443553 3303337
-0.089025073 -0.15894902 1.1579965 2973342
-0.083856061 -0.16163397 1.1640307 3038879
0.1321446 -0.14235094 1.1518106 3237544
0.13598275 -0.13898131 1.1470503 3303336
-0.09804149 -0.14813128 1.1577046 2973342
-0.091496453 -0.15074068 1.161877 2973600
0.13865353 -0.12959072 1.1480627 3368872
-0.10021636 -0.14042604 1.1591357 3039392
-0.094445832 -0.1407477 1.1644864 3236259
0.13922867 -0.1200649 1.1497364 3500460
0.14312065 -0.11728032 1.1437577 3434923
-0.10211181 -0.1309105 1.1597247 3170978
0.13954586 -0.11107473 1.150592 3500719
0.14382505 -0.10819735 1.1470124 3500718
-0.10975527 -0.12036461 1.1571835 3237029
-0.10552638 -0.1213723 1.1629729 3237286
0.14354628 -0.099330097 1.1497581 3697329
-0.11051076 -0.11161239 1.1571792 3237543
-0.10760505 -0.1109211 1.1645323 3172263
0.14394802 -0.090150364 1.1491842 3697843
-0.11148197 -0.10202177 1.1601864 3303340
-0.1092448 -0.10074988 1.1650684 3303852
0.14284626 -0.079760611 1.1495905 3764149
-0.11254328 -0.092316009 1.1571891 3500716
-0.10953345 -0.090680681 1.1650326 3501229
0.14479949 -0.069117174 1.1480024 3764661
-0.11287164 -0.084261723 1.1571658 3566512
-0.10977981 -0.080557972 1.1613528 3632306
0.14094979 -0.059202943 1.1480553 3896764
-0.11000853 -0.070921175 1.161316 3698357
0.13424826 -0.049702313 1.1505617 4291265
0.13787049 -0.050565612 1.1448423 4225217
-0.10919962 -0.061810222 1.1608628 3764408
0.13416563 -0.040070917 1.1498497 4554434
0.13641575 -0.039604403 1.1437194 4488640
-0.10713787 -0.050879773 1.1614993 3895997
-0.10314352 -0.047321811 1.1644739 4027323
0.13279441 -0.029351749 1.1488665 4817354
-0.1066061 -0.041266173 1.1579506 3962044
-0.10244295 -0.039694302 1.163597 4093118
0.12261315 -0.017852299 1.1523525 5014224
0.12800261 -0.020131603 1.1480725 4751563
-0.10647973 -0.030805707 1.1565557 4290235
-0.10139386 -0.030235924 1.1608229 4158908
-0.095257893 -0.027404398 1.1639547 4028609
0.12025832 -0.010991797 1.1506623 4817874
0.12660724 -0.010160536 1.1450917 5145287
-0.099706613 -0.023418672 1.1585625 4487616
-0.094356783 -0.020281844 1.1625355 4356800
0.11036137 0.0007154718 1.1509053 5276623
0.11673288 -0.0017597005 1.1468602 5604813
0.12611961 -0.0021722466 1.1449658 6720449
-0.092795514 -0.013134152 1.1637517 5671109
0.10810859 0.006107904 1.1524279 5802961
0.11429286 0.0058677495 1.1480001 6787017
0.031089962 0.015313409 1.1570379 12972031
-0.024839301 0.020436309 1.157975 5869264
0.0078165317 0.019594088 1.1582503 7515376
0.015304195 0.019870259 1.1578518 8764660
0.024900537 0.020254441 1.157341 10146554
0.03158965 0.019795813 1.1569886 10870005
-0.083304942 0.023731157 1.1550502 8028800
-0.078238182 0.024535775 1.1547774 7305855
-0.020463727 0.021962941 1.1597381 5671370
-0.017163549 0.022247724 1.1595615 5869265
0.0059377253 0.024241194 1.1583264 6988787
0.010337967 0.024620898 1.1580911 7185904
0.095381975 0.040838137 1.1534989 6314850
-0.077454515 0.02962441 1.1547101 8028802
0.091997512 0.044097528 1.1536618 6117979
0.06683211 0.052484706 1.1469425 5593178
0.069017068 0.05267325 1.1468257 5658970
0.00048960373 -0.21892554 1.163854 2973083
0.0061042756 -0.21955469 1.1635594 2973595
0.015483409 -0.2183131 1.1637233 2973598
-0.020333894 -0.20958599 1.1649109 2842012
-0.013867475 -0.21042006 1.1645722 2776219
-0.0042799003 -0.21208167 1.1655982 2907806
0.0054712947 -0.21262383 1.1667202 2907807
0.016031504 -0.21225509 1.166334 2973599
0.024524335 -0.2091755 1.1631976 3039136
0.035163362 -0.20726326 1.1632913 3170723
0.045045502 -0.20629102 1.1620947 3236770
0.054719616 -0.20499408 1.1609075 3170979
0.063701898 -0.20400482 1.1604261 3170980
0.070181869 -0.20177516 1.1600713 3171236
-0.032135744 -0.20169522 1.1654968 2842012
-0.025189001 -0.20336908 1.1665934 2842011
-0.015376229 -0.20478916 1.1670887 2842012
-0.0069243331 -0.20551395 1.1681848 2907805
0.03943935 -0.20290995 1.165713 3302309
0.045260854 -0.20124713 1.1642513 3302308
0.053788032 -0.2003904 1.1624357 3171236
0.064471781 -0.20004061 1.1603652 3171236
0.075013779 -0.19775149 1.1614636 3105443
0.084585629 -0.19499588 1.1602744 3171492
0.090886861 -0.19256416 1.1589265 3040420
-0.054063082 -0.19245093 1.1666127 2841497
-0.045066975 -0.19443381 1.1666799 2907291
-0.036372177 -0.19634345 1.1675793 2907549
-0.029517233 -0.19694069 1.1693394 2907551
0.087218083 -0.18761228 1.1631016 3040420
0.093940347 -0.18518481 1.1608354 3106213
0.10138641 -0.18193227 1.1583158 3106214
-0.056010917 -0.18610711 1.1686866 2907290
-0.049130395 -0.18840274 1.1698356 2973340
0.097528517 -0.1777828 1.162505 3302823
0.10321113 -0.17489982 1.1597856 3237030
0.10903629 -0.17097759 1.1596348 3237031
-0.074546069 -0.1741728 1.1676062 2841497
-0.065864183 -0.17691603 1.1676939 2842012
-0.059452489 -0.17860603 1.1698326 2907547
0.11348912 -0.16288063 1.1585017 3368361
0.11821902 -0.1592091 1.157308 3237285
-0.076526769 -0.16840428 1.1676821 2973085
-0.069616258 -0.16803226 1.1700544 3039135
0.11512542 -0.15557829 1.1574535 3368615
0.12136884 -0.1516964 1.1578311 3237799
0.12559143 -0.14799327 1.1568601 3303337
-0.084998988 -0.15614282 1.1680692 2973857
-0.079211697 -0.15918581 1.1693355 3039137
-0.07310354 -0.1595417 1.1714612 3104930
0.12277019 -0.14404689 1.1589925 3172264
0.1286422 -0.14063951 1.1573286 3238059
-0.086836755 -0.14806804 1.1691271 3039650
-0.082407922 -0.15129307 1.1719128 3105700
0.1311053 -0.13064632 1.1586366 3369132
0.13519865 -0.13045953 1.1562617 3434410
-0.090277597 -0.13976958 1.1699828 3171236
0.13234426 -0.1223864 1.1595767 3500719
0.13543765 -0.11980736 1.1581979 3435183
-0.098518364 -0.12835461 1.1686453 3302823
-0.093579389 -0.12991406 1.1710616 3171495
0.13531774 -0.10968272 1.1579708 3566514
-0.10092188 -0.11989379 1.1701864 3368873
-0.097067669 -0.12074126 1.1717342 3368875
0.13717505 -0.10029557 1.1568052 3697588
-0.10253686 -0.11093252 1.1714404 3303850
0.13804835 -0.090583429 1.1593418 3763892
0.14101687 -0.089643441 1.1557462 3698099
-0.10480789 -0.10088535 1.1704417 3435181
-0.098813027 -0.10085807 1.1725271 3435438
0.1382221 -0.080403723 1.1598532 3829942
0.14085585 -0.079626977 1.1568484 3764149
-0.10458781 -0.091156751 1.1707813 3501229
0.13707313 -0.067093216 1.1598467 3896505
0.14157903 -0.069598779 1.1574355 3830455
-0.10486509 -0.081283092 1.1702838 3632563
-0.10082369 -0.077564687 1.1725155 3567542
0.13397408 -0.060176671 1.1574008 4027837
0.13940823 -0.063277453 1.1556978 3896505
-0.10498586 -0.07119751 1.1700336 3829940
-0.10139816 -0.070909441 1.1725123 3699127
0.13171893 -0.050721191 1.1587124 4291009
-0.10546977 -0.061060604 1.1694738 3895737
-0.10170899 -0.05992119 1.1724731 4027576
0.13111494 -0.040697291 1.158026 4422849
-0.10491136 -0.054291926 1.1686087 4158911
-0.10065873 -0.050210986 1.1703653 4093372
0.13019453 -0.030996226 1.1575248 4817355
-0.097762123 -0.040527102 1.1697004 4093630
-0.09319412 -0.036677372 1.1719036 4094397
0.12189368 -0.020924263 1.1586373 5080014
0.12654275 -0.023739532 1.1561797 4883149
-0.096389905 -0.03276851 1.1680477 4028348
-0.092047557 -0.02982609 1.1693046 4028864
0.11657146 -0.01170411 1.1584277 4949202
-0.089311086 -0.019961253 1.1694281 4029123
-0.085190319 -0.0173622 1.1713812 3963586
0.10971599 -0.0023935959 1.1596341 5146069
0.11337792 -0.0065003857 1.1567904 5080276
-0.089276612 -0.012109034 1.1675657 5342665
-0.082163505 -0.0093360171 1.17118 4882633
-0.019352041 -0.00013364851 1.1678025 6070261
-0.012706198 0.00043983757 1.1674471 6528744
-0.0060603507 0.0010133237 1.1670917 8827627
0.00944662 0.0023514628 1.1662626 10340848
0.018204223 0.0024686232 1.1657976 8895736
0.025733069 0.0024158955 1.1653986 6266608
0.0996252 0.0095739588 1.1604424 5475287
0.10429862 0.0064454079 1.1585414 5475028
-0.079329059 -0.0030790865 1.1689953 5999306
-0.072797582 -0.0014018193 1.1686404 5540557
-0.064594932 0.0026529953 1.1675172 5803727
-0.051950879 0.0054964349 1.1695026 4950220
-0.042937122 0.00514552 1.1690264 5016280
-0.033229582 0.005369626 1.1681099 5411294
-0.023328964 0.0062094554 1.1657381 5806569
-0.013305228 0.0070880875 1.1668444 7120874
-0.0037976913 0.0086583793 1.1669331 12379901
0.0066544982 0.0090328529 1.163847 13891069
0.016405202 0.009634383 1.1626523 12969723
0.026336223 0.010729723 1.1630055 9946095
0.036398247 0.011365756 1.162872 10013177
0.045910887 0.014074095 1.1621126 7449069
0.052489415 0.016495444 1.1639084 5411552
0.096315242 0.013191089 1.1590974 6526426
-0.050407283 0.010596164 1.169395 6264275
-0.043052621 0.012036145 1.1664941 5803990
-0.03365751 0.013478547 1.1644864 5345755
-0.023809724 0.01559484 1.1639534 5412839
-0.014292501 0.017011657 1.1639423 5676266
-0.0050966311 0.016881593 1.1658157 7253489
0.0046032825 0.017535523 1.1634383 8436213
0.0146712 0.016164094 1.1619099 12051453
0.028639583 0.021824054 1.1611404 10082302
0.036503743 0.02176024 1.1607238 10607102
0.045018271 0.021646492 1.1602728 7515119
0.052144583 0.021646097 1.1612301 6068200
-0.012584563 0.022721298 1.1633221 6001365
-0.0081691574 0.023102313 1.1630859 6396124
0.10326513 0.03850925 1.1570984 6447199
0.0088675786 -0.20849988 1.1713682 3039391
0.016402807 -0.20727465 1.1724645 3039135
0.027761903 -0.20686944 1.1703579 3104930
-0.020990357 -0.19986346 1.1729078 2776478
-0.014463112 -0.20019826 1.1745661 2842271
-0.0043538641 -0.20097041 1.1762189 2907807
0.0050136447 -0.20202813 1.1762421 2908063
0.015113195 -0.20200899 1.1768123 2973600
0.025272738 -0.20014641 1.1757967 3105187
0.035071909 -0.19894877 1.1743501 3236773
0.044576701 -0.19678453 1.1731538 3237029
0.055479713 -0.19592959 1.1726379 3171237
0.065042436 -0.19605881 1.1698283 3171236
0.074350134 -0.19369048 1.1687449 3105444
0.08297646 -0.19145256 1.1673517 3171493
-0.033716064 -0.19205657 1.1767476 2841758
-0.025416471 -0.193656 1.1771168 2907551
-0.016306531 -0.19397926 1.1794628 2842271
-0.0055101346 -0.19424018 1.1800697 2908064
0.0013006628 -0.19478142 1.1797113 2973857
0.022561871 -0.19294673 1.1785744 3105444
0.035282347 -0.19084555 1.1778892 3237030
0.045275122 -0.19040099 1.176556 3302823
0.054814227 -0.18879357 1.1759187 3171495
0.063982859 -0.18658796 1.1749524 3105703
0.073654905 -0.18601304 1.1742276 3105703
0.083268881 -0.18468426 1.1718082 3105702
0.0911979 -0.18148765 1.168582 3105958
-0.045682512 -0.18536308 1.1757931 2973598
-0.03734906 -0.18636921 1.1797154 2907551
-0.027241241 -0.18736613 1.1811873 2908065
0.084502555 -0.17613862 1.1752045 3237288
0.093087479 -0.17468263 1.1722939 3302823
0.10137394 -0.17191857 1.1688521 3237287
-0.055944532 -0.17493746 1.1774962 3105183
-0.048056372 -0.17764203 1.1803567 2974112
-0.039509106 -0.17911099 1.181796 2842786
0.094120152 -0.16780558 1.1746522 3171750
0.10232521 -0.16347459 1.1728599 3172008
0.10997032 -0.16105494 1.1681027 3303081
-0.064977184 -0.16599908 1.1757363 3104930
-0.058264673 -0.16774681 1.1813978 3170978
0.10415429 -0.15494068 1.1740549 3303337
0.11164318 -0.15277003 1.1713935 3368873
0.11826782 -0.1508885 1.1678236 3237543
-0.075755052 -0.1540924 1.1782503 3040164
-0.068683498 -0.15725258 1.1790158 3105701
-0.061733179 -0.16108412 1.1828831 3302822
0.11255159 -0.14363624 1.1735523 3303597
0.11947755 -0.14060417 1.1687998 3238059
0.12616557 -0.13695814 1.1667879 3303852
-0.078670315 -0.14798506 1.1794868 3106213
-0.07054507 -0.14933209 1.1832908 3172007
0.11981358 -0.13146962 1.1729052 3369387
0.12749001 -0.13056877 1.1686881 3435181
-0.086797379 -0.13841163 1.1774212 3237030
-0.079970099 -0.13849667 1.1813991 3237800
-0.073204622 -0.14137675 1.1833916 3303594
0.12111372 -0.12528591 1.1730051 3500972
0.12894043 -0.12031767 1.1693103 3500976
0.13309914 -0.11704643 1.1643164 3500977
-0.088633031 -0.12927718 1.1792525 3237545
-0.083638132 -0.13051578 1.1829996 3303852
0.13007289 -0.11066445 1.1724559 3566772
0.13319504 -0.11072902 1.1682849 3566515
-0.091960274 -0.1198183 1.1795201 3369389
0.13010558 -0.1010925 1.1724056 3763639
0.13311279 -0.099896207 1.1673442 3763639
-0.10000206 -0.1066241 1.1779603 3435181
-0.094168305 -0.10982042 1.1809099 3435438
0.12979156 -0.089991458 1.172366 3895737
0.13446648 -0.089470096 1.1669316 3764149
-0.1000048 -0.10012305 1.1789956 3435438
-0.094391167 -0.10027045 1.182766 3501231
0.1293079 -0.08438848 1.1723633 3961530
0.13404308 -0.079987019 1.166906 3961528
0.14075482 -0.076019213 1.1637024 3895735
-0.10048868 -0.090878405 1.1795753 3501489
-0.096108936 -0.090276122 1.1822264 3501490
0.12776025 -0.06645897 1.1723545 4159679
0.13359413 -0.07065171 1.1673323 3962041
0.14056268 -0.073793203 1.1637013 3895735
-0.10163964 -0.083609506 1.178598 3501747
-0.096988641 -0.080004834 1.1810036 3567541
0.12646613 -0.060173303 1.1723912 4225473
0.12997223 -0.060376815 1.1682005 4159424
-0.096153118 -0.069743589 1.179839 3764919
0.12545437 -0.051354513 1.1724001 4422597
0.12910463 -0.050325617 1.1681956 4357059
-0.096512511 -0.059965771 1.1796368 3896505
-0.091552638 -0.059418354 1.183949 3962298
0.12441649 -0.040781844 1.1724015 4685767
0.12823701 -0.040274423 1.1681906 4422851
-0.095940389 -0.050757334 1.1777287 4027836
-0.090822466 -0.048542082 1.1827626 4028094
0.12152786 -0.03039901 1.1703814 4948684
0.12730128 -0.031806424 1.1651931 4751818
-0.095034309 -0.042543903 1.1760367 4093632
-0.08947818 -0.038598917 1.1815765 4094399
0.11403181 -0.020604387 1.1728499 5080784
0.11816021 -0.021321647 1.1678278 5211343
-0.087050818 -0.029916175 1.1799191 4094402
-0.080679603 -0.026289813 1.1822029 4226244
-0.074312292 -0.024062388 1.1828555 4620744
-0.020696502 -0.018306807 1.179983 5412064
0.0016837195 -0.016375557 1.1787864 6463211
0.010044285 -0.019505799 1.1783589 6397929
0.019627227 -0.01803574 1.1778432 6397929
0.02865053 -0.015338741 1.177351 6003432
0.11011267 -0.011630237 1.1705086 5081042
0.11527289 -0.014304325 1.1647408 5081041
-0.080270253 -0.018415973 1.1770008 4160963
-0.072035782 -0.016763054 1.1818393 4752075
-0.05727867 -0.012432039 1.1818932 4949201
-0.050516248 -0.012412965 1.1815345 5016022
-0.040922821 -0.012709305 1.1803596 5213659
-0.031094469 -0.012768976 1.1792738 5411552
-0.021208625 -0.012700558 1.1791806 5740773
-0.011109047 -0.01183477 1.1794418 6003172
-0.0010605231 -0.010964811 1.1785039 6331366
0.0088462448 -0.010085575 1.1753703 6989552
0.018918229 -0.0092204511 1.1752324 6792432
0.028918061 -0.0083503053 1.1740468 5937640
0.037403233 -0.0066986904 1.1758417 5806054
0.048005082 -0.0044757947 1.1762695 5674725
0.054622415 -0.0027758107 1.17591 5674983
0.10043976 -0.0013622493 1.1734731 5146841
0.10630191 -0.002928935 1.1674478 5080789
-0.077718608 -0.0096534342 1.1749517 4554184
-0.074201532 -0.0085189566 1.1777636 4751049
-0.058890596 -0.0069274232 1.1799479 4818129
-0.051528357 -0.0062902123 1.1787531 5015507
-0.042217795 -0.0054746866 1.1748503 5147609
-0.032230701 -0.0046090409 1.1730145 5346018
-0.022468004 -0.0041490048 1.1751093 5937898
-0.011996157 -0.0039944723 1.1747757 6462952
-0.0017044898 -0.0023563057 1.1733315 8303605
0.0075767925 -0.0016592965 1.1718185 8501495
0.017425008 -0.001791507 1.1704825 7252467
0.028674088 -0.00027562678 1.1707187 6069484
0.037727892 0.0015977547 1.1710914 6135528
0.047985502 0.0020992756 1.1736454 5741031
0.057394437 0.0031085685 1.1747317 5543655
0.066766679 0.0052194819 1.1752255 5477092
0.076666303 0.0074053183 1.1746894 5739747
0.088002242 0.008132644 1.1740845 5280481
0.097205885 0.0062899888 1.1699083 5015513
0.10271429 0.0047847778 1.1673129 4949463
-0.071626462 -0.0023999587 1.1745918 4818122
-0.062326439 -0.00060074776 1.1740896 5147606
-0.05374603 0.00088720024 1.1736269 4818639
-0.044952124 -9.8161399e-005 1.1731656 5344472
-0.00054292567 0.0042946637 1.1707883 12971007
0.0039508361 0.0041217878 1.1705508 12905215
0.02840231 0.0062317625 1.1692435 5807584
0.041739482 0.0073826611 1.1685303 6004710
0.047690615 0.0088573098 1.1682073 5807083
0.056337722 0.012089714 1.1698687 5477863
0.064969972 0.012398817 1.1719463 5542628
0.077154368 0.01045794 1.174648 5673698
0.087421484 0.013309263 1.1725869 5804766
0.092865303 0.011794433 1.1657968 5147865
0.058561645 0.020047225 1.167574 5412324
0.0084549235 -0.19709292 1.1833493 3039650
0.014926389 -0.19718178 1.1830065 3039650
-0.012434881 -0.19096622 1.184426 2842271
-0.0056980774 -0.19038489 1.1840658 2973857
0.0047351988 -0.19057947 1.1847785 2973857
0.014655147 -0.1914822 1.1855218 3039395
0.025054596 -0.18864338 1.1842064 3171237
0.034153864 -0.18643504 1.1830006 3237030
0.044424415 -0.18499602 1.1829211 3302569
0.052722201 -0.18442179 1.1822727 3237546
-0.032904942 -0.18221408 1.1854671 2908065
-0.025282942 -0.1825273 1.1850646 2973857
-0.016440559 -0.1835342 1.1856021 2973857
-0.0065211933 -0.1845859 1.1862006 2973858
0.0019001048 -0.18469048 1.1876396 3105444
0.03344465 -0.18196842 1.1859529 3237030
0.044956245 -0.1794596 1.1853298 3302825
0.053786907 -0.1782409 1.1845472 3171754
0.063548908 -0.1779196 1.1823331 3171752
0.073772192 -0.17661265 1.1811954 3171753
0.081876956 -0.17278412 1.1803337 3237546
0.089795187 -0.16968411 1.1788968 3303592
-0.044839434 -0.17375028 1.1860571 2908579
-0.036394991 -0.17519867 1.1876194 2908579
-0.026435953 -0.17581429 1.1880049 3105444
-0.01761933 -0.17682752 1.1886349 3105443
0.076602623 -0.16915151 1.1835992 3303339
0.08432892 -0.16620351 1.1818393 3303082
0.092390552 -0.16339251 1.1792995 3237545
0.098001152 -0.15991387 1.1784121 3303850
-0.054792412 -0.1632815 1.1865319 3302822
-0.047724284 -0.16699204 1.188429 3040165
-0.040215299 -0.1701393 1.1897992 3040167
0.087089457 -0.15915385 1.1829925 3303598
0.092727788 -0.15465775 1.1817281 3238061
0.10096826 -0.15187746 1.1793267 3303596
0.10835566 -0.14882547 1.1778067 3369131
-0.065429196 -0.1536269 1.187047 3171751
-0.05864919 -0.1566878 1.1881167 3368615
-0.051328465 -0.15973239 1.1903358 3171751
0.10967509 -0.14211118 1.1792048 3369134
-0.068000697 -0.146769 1.1871486 3369130
-0.06158559 -0.14818132 1.1898197 3434922
0.11004597 -0.13237695 1.1806855 3435183
-0.070386074 -0.13834362 1.1885675 3434923
0.11218208 -0.12507115 1.1806878 3501232
0.11860632 -0.12137297 1.1797158 3435694
0.12501687 -0.11906859 1.1767722 3501232
-0.079542734 -0.12794869 1.1886666 3369646
-0.07344228 -0.13118951 1.1900285 3435182
0.12159559 -0.11184926 1.1809227 3567282
0.12551856 -0.11097521 1.1785253 3567027
-0.089036576 -0.11601724 1.1881082 3501231
-0.083991356 -0.11952584 1.1906123 3435439
0.12091392 -0.10395196 1.1809188 3829686
0.12565634 -0.10072035 1.1788707 3829431
-0.089327745 -0.11264408 1.1881065 3501231
-0.085153922 -0.10903072 1.1895359 3567024
0.12716886 -0.091174535 1.1791871 3830201
-0.090540946 -0.098589204 1.1880996 3632818
-0.087160073 -0.099019617 1.1899253 3698612
0.12832788 -0.080424629 1.1784035 3896507
-0.091365926 -0.089031883 1.1880949 3633333
-0.087375537 -0.088882692 1.1906865 3764919
0.12725985 -0.070270531 1.1779079 4093886
-0.092572086 -0.080300391 1.1881145 3633334
-0.088465661 -0.079007462 1.1910948 3830201
0.12348196 -0.060935542 1.1787843 4291523
-0.089011624 -0.068714857 1.189536 3896506
0.12206017 -0.050534915 1.1781838 4619975
-0.086567037 -0.058917303 1.1894044 4028348
0.11536304 -0.039645389 1.1808871 5146320
0.11990702 -0.041482974 1.179654 4883148
-0.08574336 -0.049396701 1.1878818 3962814
-0.080768831 -0.047602076 1.190184 3963072
0.11353739 -0.030943476 1.1794378 5146577
0.1173151 -0.032246895 1.1772412 5080527
-0.085170746 -0.040241469 1.187519 4028607
-0.079060793 -0.037959892 1.1893197 4291526
-0.029466912 -0.031684518 1.1885272 5147865
-0.022050887 -0.030817255 1.1881295 5344731
-0.0059058871 -0.028514788 1.1872617 5345501
0.00085365772 -0.027931489 1.1869003 5739743
0.011102928 -0.029287748 1.1850283 5936862
0.020130226 -0.028516881 1.1848795 5871068
0.030242406 -0.026532046 1.1853347 5739228
0.048170477 -0.0238484 1.1843703 5213656
0.11090142 -0.022256032 1.1794333 4949970
-0.078046001 -0.030394629 1.1870912 4422856
-0.069969915 -0.024916634 1.1884558 4686797
-0.059740216 -0.022901386 1.1880852 4884690
-0.049193807 -0.023434252 1.1890308 4950486
-0.038770556 -0.023297094 1.1876428 5213659
-0.030242752 -0.023738034 1.1853235 5279707
-0.020014763 -0.0239968 1.185183 5345244
-0.010046551 -0.021498293 1.1845527 5411808
-0.0001523681 -0.021762542 1.183827 5806052
0.0093569122 -0.024079576 1.1824242 6068964
0.021365806 -0.023420878 1.1817839 6068963
0.031195696 -0.020182602 1.1821706 6003173
0.039507937 -0.017739996 1.1825956 5608417
0.049688846 -0.016870491 1.1826521 5411038
0.056598902 -0.016301557 1.1838851 5279709
0.10086274 -0.010719068 1.180585 5212630
0.10669643 -0.013820618 1.1785454 5015248
-0.066873662 -0.018952459 1.1864407 4949712
-0.060136855 -0.01837112 1.1860805 4949713
-0.050031647 -0.017499119 1.1855402 5016279
-0.040642623 -0.017066501 1.1850401 5213659
-0.031969778 -0.017073274 1.1845802 5345501
0.040402353 -0.010261722 1.1807077 5871590
0.048774838 -0.0089728609 1.1802572 5871847
0.058893561 -0.0058577508 1.1817076 5543139
0.066059917 -0.0041058958 1.1816047 5280225
0.09054938 -0.0020060018 1.1820122 5411294
0.096367911 -0.0029239208 1.1791592 5279196
0.067695931 0.0011556223 1.1792024 5411556
0.077094167 0.0036657751 1.1786913 5412066
0.088322178 0.0046346635 1.1780909 5477344
0.095253088 0.0029672235 1.1777319 5213404
0.015539741 -0.18679956 1.1909328 3105189
-0.005402213 -0.18010911 1.1930108 3039906
0.0044554994 -0.18140072 1.1929237 3039908
0.014142101 -0.18172926 1.1943191 3105447
0.024493564 -0.18005762 1.1911747 3105702
0.033383794 -0.17803714 1.189942 3171750
0.042288549 -0.17685403 1.1894637 3237289
0.053535227 -0.1740174 1.1888529 3237548
0.063708656 -0.17313951 1.188309 3171752
0.072751708 -0.17235917 1.1878254 3171752
-0.033950903 -0.17107499 1.1934775 3039909
-0.026031431 -0.17112514 1.1939479 3105701
-0.01760105 -0.17305651 1.1951696 3105443
-0.00750985 -0.17759883 1.1961141 3040163
0.023034334 -0.17404771 1.1944762 3105960
0.034280185 -0.17195845 1.1938692 3105958
0.043159224 -0.1696756 1.1925857 3237545
0.053355176 -0.16773137 1.1909388 3237547
0.063293345 -0.16655995 1.1898999 3237544
0.073291093 -0.1654691 1.1894485 3237545
0.081674613 -0.16275056 1.1879712 3303339
-0.045952678 -0.16264522 1.1940712 3172009
-0.037173778 -0.16506253 1.1960213 3105961
-0.02761016 -0.16646066 1.1971234 3171752
0.056157507 -0.16066244 1.1926517 3303337
0.062962532 -0.16007522 1.1922879 3303593
0.072924018 -0.15823486 1.1917504 3303594
0.081793495 -0.15484561 1.190011 3303596
0.088305525 -0.15277037 1.1869013 3238062
-0.054032989 -0.1547894 1.1944599 3434409
-0.048019588 -0.15603863 1.1969749 3237547
-0.039456785 -0.15767893 1.1977072 3237805
0.082188755 -0.14748232 1.1912045 3238318
0.091126837 -0.14376773 1.1895901 3238572
0.10109203 -0.14269337 1.1873739 3434926
0.10744406 -0.14153939 1.1858294 3369134
-0.057073548 -0.14598545 1.195809 3435179
-0.050864235 -0.14746642 1.1978153 3369388
0.095222965 -0.13669513 1.1904587 3500977
0.10045882 -0.13269161 1.1891593 3435186
0.10573199 -0.13225973 1.1858732 3500720
-0.066481806 -0.13601491 1.1960262 3566511
-0.060472585 -0.1383853 1.1973886 3566767
-0.053003579 -0.14033206 1.1983376 3500977
0.10128541 -0.12495857 1.1895769 3501234
0.10877864 -0.12186246 1.18641 3501490
-0.077213481 -0.12371774 1.1955316 3566770
-0.069955699 -0.12769063 1.1977705 3632306
-0.062861264 -0.13202882 1.1988182 3632563
0.10992346 -0.11306629 1.1881455 3699127
0.11710645 -0.11115555 1.1856343 3633076
-0.078843527 -0.11824857 1.1965917 3566770
-0.072632901 -0.11861309 1.1992685 3763892
0.11010654 -0.10394428 1.1895033 3633335
0.11643155 -0.10119709 1.1867061 3764407
-0.079746246 -0.10820773 1.1983912 3698868
-0.075308114 -0.10843824 1.1993587 3699126
0.10964423 -0.091969691 1.1894671 3962811
0.11609644 -0.091502234 1.1879542 3830969
0.12365112 -0.091070525 1.1847141 3830714
-0.081869468 -0.098398775 1.1965744 3699126
-0.076420717 -0.098490395 1.1993673 3830712
0.11596704 -0.081535771 1.188478 4028606
0.12391608 -0.080946855 1.1846488 3962300
-0.082072072 -0.08889506 1.197215 3830970
-0.077096373 -0.088141605 1.1993506 3962813
0.11549012 -0.072484381 1.1890583 4291522
0.12310373 -0.07141494 1.1850076 4094399
-0.083231919 -0.07888861 1.1973401 3962044
-0.078232743 -0.078758843 1.1993634 4093630
0.11612789 -0.061644897 1.1887025 4554438
0.12081559 -0.061990302 1.1847171 4357059
-0.083495222 -0.068830431 1.1969216 4093886
-0.078861073 -0.067697614 1.1993406 4291009
0.11336488 -0.051299781 1.1881734 4686026
0.1192065 -0.050887942 1.184746 4685769
-0.0825876 -0.061458781 1.195501 4159935
-0.077672273 -0.058555461 1.1980867 4225985
0.10533052 -0.041995533 1.1894424 5015248
0.11135519 -0.042756092 1.1864563 5014991
-0.075555071 -0.04851833 1.197183 4292037
-0.069920063 -0.050252922 1.1987779 4619977
-0.047824875 -0.041480854 1.1975617 5279449
-0.039885681 -0.040795762 1.1971372 5016538
-0.027311757 -0.040854961 1.1964707 4950743
-0.017693907 -0.041707724 1.1959651 4950488
-0.0086562447 -0.040770788 1.1954811 5147351
0.001658624 -0.038927156 1.1949247 5278422
0.012325609 -0.040330268 1.193476 5212886
0.02152711 -0.038871564 1.1921183 5278423
0.031403676 -0.037178554 1.1920866 5147094
0.042350784 -0.036641698 1.1927551 4885460
0.051621608 -0.034332398 1.1915236 4950741
0.060680307 -0.033033065 1.1917648 5016279
0.10292672 -0.032313526 1.1881188 5212370
0.11024678 -0.032844286 1.1851296 5212369
-0.074089177 -0.041398603 1.1969514 4423370
-0.072322406 -0.038039416 1.19644 4554187
-0.047806665 -0.036438148 1.1972681 5147610
-0.038153004 -0.034873959 1.1950126 5081818
-0.028897744 -0.036358509 1.1945293 5016538
-0.017920207 -0.03396919 1.1940686 5278938
-0.0089126341 -0.032583181 1.1935838 5344730
0.0015231166 -0.032564908 1.1919621 5673948
0.011833699 -0.033923913 1.1903541 5805277
0.020876748 -0.033143569 1.1898706 5541848
0.030952465 -0.031133674 1.189326 5475544
0.040930469 -0.027991839 1.188781 5213397
0.051621914 -0.027694248 1.1889193 5082070
0.061285987 -0.026074879 1.1900952 5016536
0.070076734 -0.02313371 1.1912163 5213915
0.080686323 -0.021237418 1.190644 5279453
0.091613561 -0.020752162 1.1900622 5213659
0.10116903 -0.022859044 1.1879638 5212628
0.10762295 -0.022236787 1.185215 5146833
-0.072596192 -0.032086276 1.1948221 4554443
-0.047658071 -0.02810964 1.1934795 5016281
-0.040345464 -0.028390944 1.1930931 5147611
-0.0092948489 -0.026623845 1.1914375 5411294
0.060774721 -0.016015731 1.1876678 5148123
0.0694637 -0.015270427 1.1874036 5213915
0.079549775 -0.01462996 1.1884068 5213917
0.090276197 -0.013637982 1.1884104 5213659
0.09828499 -0.014687024 1.1860057 5212887
0.090331949 -0.0066226795 1.1860528 5279708
0.094853476 -0.0062325001 1.185811 5411037
-0.0015766621 -0.17782998 1.2008076 3106213
0.0041178837 -0.17733859 1.2005031 3105959
0.015400522 -0.17702156 1.1999032 3105706
0.025757147 -0.17547128 1.1993462 3105960
-0.012986988 -0.17192051 1.2013828 3105700
-0.0054481886 -0.17252472 1.201737 3105957
0.0036678165 -0.17173807 1.2012497 3106216
0.013981181 -0.1709691 1.2015501 3106217
0.024515217 -0.16954288 1.2008126 3171752
0.032312416 -0.16837424 1.200055 3303337
0.043192096 -0.16477463 1.1983674 3369130
0.050025545 -0.16418496 1.198002 3369132
-0.026471741 -0.16182929 1.2023805 3171753
-0.01651226 -0.16339341 1.2042503 3171752
-0.0061374996 -0.16278154 1.20578 3172010
0.0031612702 -0.1632635 1.2062407 3172012
0.013154554 -0.16198421 1.2065009 3237802
0.023679011 -0.1603713 1.2053883 3303338
0.032849155 -0.15960817 1.2050984 3369133
0.043000292 -0.15849692 1.202832 3369388
0.053018365 -0.1572952 1.2016032 3303853
0.062047571 -0.15533586 1.199072 3369643
0.071954295 -0.15367219 1.1970214 3303851
-0.045137025 -0.1517145 1.2029853 3303598
-0.036735002 -0.15382852 1.2042671 3303341
-0.027882513 -0.15481472 1.2072362 3303340
-0.018309742 -0.15543696 1.2095928 3369132
-0.010017926 -0.15661417 1.209159 3303600
0.023230247 -0.1537451 1.2073814 3303598
0.035841621 -0.15265684 1.206707 3435186
0.0432938 -0.15201376 1.2063086 3369391
0.053038955 -0.15117283 1.2057875 3369392
0.062518582 -0.14742795 1.2046496 3369390
0.071756326 -0.14555407 1.2005606 3435184
0.080753967 -0.14314908 1.1962657 3369392
-0.046644509 -0.14481434 1.2038313 3369646
-0.039095141 -0.14649718 1.2082464 3303853
-0.031447552 -0.14921007 1.2102579 3173034
0.063781746 -0.13914184 1.2051568 3566773
0.07177791 -0.13713682 1.204055 3566516
0.081221789 -0.13442907 1.200603 3500977
0.091000348 -0.13423795 1.1973639 3500975
-0.057832144 -0.13376915 1.2035675 3632562
-0.048575193 -0.13605985 1.2060925 3501236
-0.040842183 -0.13557597 1.2102419 3501494
0.082847171 -0.12517817 1.204075 3698612
0.090279035 -0.12487464 1.2013123 3567283
0.0987425 -0.1216903 1.1981405 3567283
0.10570465 -0.11801571 1.1948152 3501747
-0.065820783 -0.12477394 1.2039455 3895478
-0.059915908 -0.12681499 1.2061462 3698613
-0.050768949 -0.12698972 1.2098347 3633080
0.083710432 -0.11845288 1.2039951 3699128
0.089962162 -0.11471033 1.2036445 3830713
0.099297717 -0.11351452 1.2019417 3699126
0.10560891 -0.11158948 1.1947876 3633333
-0.067811534 -0.11690262 1.2040112 3961271
-0.06079419 -0.11676033 1.2086455 3896247
-0.053712763 -0.11874482 1.2112842 3764921
0.089258656 -0.10779546 1.2036468 3962300
0.099825524 -0.10436179 1.2025977 3896506
0.10687267 -0.10184819 1.1966741 3764920
-0.069889128 -0.10772844 1.205577 3830712
-0.062827803 -0.10669531 1.2103713 4093627
0.10186692 -0.093290165 1.2029046 4028352
0.10689821 -0.092246085 1.1972916 3962812
-0.071147881 -0.097482011 1.2060925 3962556
-0.064352088 -0.098036394 1.2112983 4028606
0.10044806 -0.082969584 1.2029276 4357317
