# .PCD v0.7 - Point Cloud Data file format
VERSION 0.7
FIELDS x y z rgba
SIZE 4 4 4 4
TYPE F F F U
COUNT 1 1 1 1
WIDTH 174
HEIGHT 1
VIEWPOINT 0 0 0 1 0 0 0
POINTS 174
DATA ascii
-0.42880905 0.070137322 1.0500281 5134174
-0.4219864 0.069865286 1.0512198 5134176
-0.43030456 0.074568078 1.050542 4871515
-0.43402028 0.050335076 1.0527916 4936281
-0.42344403 0.04985724 1.0546288 5199967
-0.41876096 0.05078141 1.0556439 5397348
-0.4433291 0.055328626 1.0516758 4673880
-0.43545541 0.056614574 1.0513566 4870232
-0.42642453 0.058374736 1.0540501 5068382
-0.41718608 0.060501274 1.0566689 5068384
-0.41017616 0.063315049 1.0594267 4476504
-0.44554591 0.064631373 1.0515126 4607822
-0.43852586 0.066219881 1.0516944 4673623
-0.42781252 0.067576945 1.053882 5134174
-0.41799545 0.070418164 1.05617 4739419
-0.41068929 0.071440443 1.0590056 4081746
-0.44785416 0.072408438 1.0541917 4410445
-0.43954474 0.075544804 1.0531628 4213839
-0.42975736 0.077993795 1.0553758 4345429
-0.41999519 0.079503074 1.0574176 4016211
-0.41230619 0.080512479 1.0601845 3621193
-0.44014829 0.080922395 1.0540068 3884109
-0.43135053 0.083650291 1.0560894 3752784
-0.42132837 0.085559711 1.0582494 3621192
-0.41409063 0.085886866 1.0596228 3686459
-0.44124812 0.03517535 1.0595492 4673626
-0.43274921 0.036320489 1.0583663 4870741
-0.42373365 0.036895428 1.0602971 5265754
-0.41426831 0.0394467 1.0627455 5397604
-0.40719172 0.043202434 1.0677515 4608350
-0.44348145 0.044380356 1.0567224 4673629
-0.43472782 0.044849101 1.0561609 4870744
-0.42621475 0.044990558 1.0573893 5134174
-0.4149178 0.049147289 1.0608523 5397606
-0.40786779 0.050760258 1.0667179 4476760
-0.40312588 0.055481393 1.0706679 4015442
-0.45274746 0.05028842 1.060729 3883351
-0.44849181 0.051854592 1.0564151 4475995
-0.41533974 0.055742096 1.0612721 5068641
-0.40759882 0.060208034 1.0655887 4082513
-0.40291026 0.061678212 1.0712901 3752531
-0.45162344 0.061496716 1.0563177 4079443
-0.4075819 0.069487065 1.0666671 3621705
-0.40326944 0.06751819 1.0703001 3751503
-0.41051078 0.076773465 1.0658793 3490378
-0.42824465 0.017682675 1.0707489 5002588
-0.42516935 0.018268581 1.0714117 5528419
-0.440541 0.025022034 1.0698158 4739163
-0.43243948 0.024075124 1.0680823 5002333
-0.42323574 0.025527745 1.0699552 5397092
-0.41505361 0.028945204 1.0734485 5332066
-0.4097881 0.030881036 1.0764437 4740695
-0.44183531 0.029515631 1.0649608 4082256
-0.43459898 0.029973153 1.0645516 5068120
-0.41304359 0.034338426 1.0713065 5200736
-0.40624157 0.038729902 1.0755255 4345175
-0.40023676 0.04150461 1.0794739 4278096
-0.40510508 0.048968505 1.0741645 4147028
-0.40109411 0.048693594 1.0790583 3819087
-0.40222213 0.056586806 1.0763931 3687502
-0.42073283 0.0055641979 1.0813142 5528423
-0.41670692 0.0068743862 1.0822783 5397348
-0.43138278 0.012207389 1.0750543 4804702
-0.42212155 0.013845321 1.0764297 5462626
-0.41367215 0.015744414 1.0809636 5003105
-0.40681711 0.020504404 1.0840164 4804440
-0.44257134 0.020043895 1.0757862 3817824
-0.43533391 0.018201191 1.0726478 4673622
-0.41991624 0.021138553 1.0759706 5660265
-0.41314626 0.023997329 1.0777079 5069150
-0.40541387 0.028031755 1.081892 4475986
-0.40109622 0.033180524 1.0835898 4014924
-0.40369383 0.035015862 1.0813797 4606547
-0.39878812 0.03833523 1.0833757 3620428
-0.42680439 -0.003447229 1.0858349 4079956
-0.41984507 -0.0027991924 1.0848564 5266270
-0.41471085 -0.001689719 1.0883445 5002845
-0.43053219 0.0023419186 1.0841206 4079963
-0.42230967 0.001565855 1.0834138 5330781
-0.41295668 0.0053609572 1.0874859 5002331
-0.41077319 0.012041919 1.0873681 5001816
-0.40757921 0.015360247 1.0897752 4540755
-0.4045409 0.02303236 1.0904498 4213074
-0.4208653 -0.014721856 1.0972958 5265766
-0.42256024 -0.01013376 1.0948535 5068639
-0.41446215 -0.0068544783 1.0964154 4214103
-0.43085068 -0.004671514 1.0890094 1580089
-0.41099471 0.00086533651 1.0942876 4145996
-0.40947768 0.0070788451 1.0949774 4212054
-0.42734385 -0.017432459 1.0987328 3618132
-0.42183337 -0.017490091 1.0997241 5199718
-0.41573551 -0.015220854 1.1012347 4214875
-0.40728423 -0.076227099 1.1084599 528927
-0.40222016 -0.075936019 1.1094319 1517876
-0.40307242 -0.087743416 1.1195641 4419983
-0.41871047 -0.083563022 1.1153998 1651559
-0.41308528 -0.081281602 1.1135842 1782104
-0.4005428 -0.081134513 1.1137156 4154236
-0.39698535 -0.07754986 1.1189406 3028033
-0.41267338 -0.074825704 1.1201099 2369321
-0.40450257 -0.072873443 1.1182269 2040105
-0.41597402 -0.055547729 1.1188017 4146252
-0.41913411 -0.089994714 1.1244997 5077683
-0.41179812 -0.09101598 1.1242762 4617364
-0.4026587 -0.089655437 1.1261784 4549258
-0.39824632 -0.083008766 1.1254076 6582660
-0.42186177 -0.078402221 1.1219327 7695014
-0.41537896 -0.07348834 1.1246701 2040625
-0.4077355 -0.070702754 1.1258653 2172202
-0.40016997 -0.074269526 1.1266078 2760198
-0.4127284 -0.10173176 1.1318363 4683677
-0.40725052 -0.10068811 1.1330169 3831442
-0.42132649 -0.09626174 1.1300646 3299734
-0.41383445 -0.096867099 1.1298717 4683420
-0.40565571 -0.095945522 1.132497 3960460
-0.40612793 -0.1757272 1.1333266 3829135
-0.39841789 -0.17377229 1.1350745 4223637
-0.39233902 -0.17306696 1.1363043 3960467
-0.40890989 -0.16679847 1.1344044 3498881
-0.40083933 -0.16474387 1.1358228 3895695
-0.39364707 -0.16208631 1.1380138 3631246
-0.41065675 -0.1554336 1.133007 3499128
-0.4035216 -0.15488316 1.1344014 4025235
-0.39559156 -0.15266635 1.1381518 3499655
-0.41171902 -0.14589919 1.1324413 3826560
-0.40532103 -0.14479505 1.1343157 4156303
-0.39798796 -0.14429818 1.1383159 3630985
-0.41404325 -0.13716039 1.1366638 3893387
-0.40749574 -0.13538085 1.1365644 4157333
-0.40089983 -0.13389993 1.1401465 3762828
-0.41456997 -0.12898684 1.1400809 3762325
-0.40899482 -0.12482794 1.1380486 4420507
-0.40339589 -0.12425303 1.1415756 3828877
-0.41862378 -0.11581241 1.1416805 4222878
-0.4106749 -0.11563492 1.1393048 4552347
-0.40515199 -0.11540811 1.1433752 3631755
-0.42100498 -0.10751034 1.1369423 3627913
-0.41196704 -0.10723139 1.136502 4683676
-0.40587679 -0.1051791 1.1410054 3892613
-0.40606815 -0.096805215 1.139079 3563127
-0.40653288 -0.18648043 1.136947 3033484
-0.39873683 -0.18632662 1.1408621 2897991
-0.38914055 -0.18362086 1.1425802 3891064
-0.38234115 -0.18179546 1.1458591 2638186
-0.41208974 -0.17817186 1.1359366 666715
-0.40113473 -0.17835024 1.1378959 4813457
-0.3887071 -0.17300905 1.1411016 3499654
-0.38248667 -0.17221612 1.1461738 3561592
-0.41515288 -0.1672613 1.1373147 6722
-0.39086568 -0.16380021 1.1423423 3694979
-0.38495845 -0.16269727 1.1456749 3233144
-0.39156756 -0.1534393 1.1440521 3104639
-0.38763031 -0.15311863 1.1481073 2640231
-0.3943035 -0.14416553 1.1451994 2907007
-0.3908889 -0.14426976 1.1504912 3099492
-0.41847068 -0.13640948 1.1421828 4089741
-0.39679176 -0.13502207 1.1467371 3496061
-0.39370367 -0.13394718 1.1522791 4278874
-0.41797277 -0.12815212 1.1437376 2972810
-0.39980948 -0.12529786 1.1489515 3757171
-0.39655089 -0.12629351 1.153119 3748927
-0.41809335 -0.12234473 1.1447455 3630740
-0.40056157 -0.11783853 1.1487308 3953004
-0.39893189 -0.19337651 1.1449171 984897
-0.38968477 -0.18769903 1.1476045 4350584
-0.3850193 -0.16269279 1.1535746 4674411
-0.38730508 -0.15485902 1.1569558 6974583
-0.39135289 -0.14444351 1.1580672 3815753
-0.4236533 -0.13935058 1.1500049 5799072
-0.39206278 -0.13450672 1.156605 5064001
-0.38580966 -0.17057882 1.1647573 7039097
-0.3874819 -0.16520153 1.1664386 7565430
-0.38993645 -0.15688041 1.1671243 8223350
-0.39114672 -0.14812818 1.1636417 9076613
