# .PCD v0.7 - Point Cloud Data file format
VERSION 0.7
FIELDS x y z rgba
SIZE 4 4 4 4
TYPE F F F U
COUNT 1 1 1 1
WIDTH 1126
HEIGHT 1
VIEWPOINT 0 0 0 1 0 0 0
POINTS 1126
DATA ascii
0.15110126 -0.10904867 1.1326767 3500458
-0.12428632 -0.099956982 1.1311126 3237027
-0.12255272 -0.10023152 1.1351161 3302821
0.15342385 -0.098482661 1.1329293 3632048
-0.12432767 -0.090239011 1.1309183 3302824
-0.12259191 -0.091021061 1.1349319 3302569
0.15165809 -0.08960484 1.1326506 3632047
-0.1247983 -0.08117073 1.1307377 3434408
-0.122025 -0.078712039 1.1346848 3434665
0.14821765 -0.078581817 1.1320719 4026292
-0.12441039 -0.070803069 1.1305296 3631531
-0.12268184 -0.069891199 1.1345094 3631531
0.14828844 -0.070632175 1.1305387 4157366
-0.12443797 -0.064324424 1.1304001 4025255
-0.12130569 -0.059143756 1.1325777 3632304
0.14770088 -0.058856159 1.1298596 4289211
-0.11788422 -0.050150342 1.1318208 3568048
0.14449994 -0.048090145 1.1303161 4094399
0.14685212 -0.052440025 1.1317329 4224702
-0.11660381 -0.044135194 1.1299838 3764911
-0.11317776 -0.039756808 1.1323913 3895729
0.14190866 -0.039665584 1.1309397 4487616
-0.11789039 -0.025978401 1.1326232 6458567
-0.11293949 -0.029741533 1.1320906 3895996
0.14178972 -0.028651848 1.1296649 5735616
0.1486384 -0.025378592 1.1291884 9477559
-0.11746114 -0.023274243 1.1335686 6852289
-0.11420976 -0.023260511 1.1335633 5933254
0.052073643 0.078953676 1.1272545 9474701
-0.021439951 -0.22657853 1.1494856 7248329
0.011413217 -0.22804713 1.1486628 5801654
0.019430596 -0.22689477 1.1480936 5210039
0.032230828 -0.22744694 1.149418 6328255
0.039897412 -0.22741458 1.1494052 7379645
0.051457629 -0.22724411 1.1493834 8430007
0.059395194 -0.22551733 1.1453354 8625323
-0.059393477 -0.21877456 1.1413881 9678537
-0.048557561 -0.21860012 1.147895 4422071
-0.03921432 -0.21920738 1.1493664 2778029
-0.029443432 -0.22098073 1.1493864 2513574
-0.021817453 -0.22366002 1.1494279 2315684
0.0081218537 -0.22426364 1.1493925 2120102
0.020169349 -0.22421277 1.1493725 2185635
0.033307411 -0.22306228 1.1493286 2186146
0.038788207 -0.22413415 1.1493413 2316696
0.054112066 -0.22187939 1.149272 4486314
0.061667774 -0.22149262 1.1472518 5997746
0.072805993 -0.2184694 1.148031 6063288
0.081472233 -0.21694574 1.14913 6589614
0.089577839 -0.21713051 1.1491208 8757678
-0.064882427 -0.20683621 1.141158 1855898
-0.058144968 -0.20925131 1.1444343 2249885
-0.05044518 -0.21144781 1.1485015 2381985
-0.042305186 -0.21352628 1.1492577 3039902
0.075424716 -0.21138664 1.1490283 2841504
0.081446141 -0.2108137 1.1490073 3302564
0.091000989 -0.20854488 1.1476132 4420011
0.10079381 -0.20775813 1.1432 6984117
0.11021782 -0.20500946 1.140844 6254993
-0.076072827 -0.19634946 1.1417661 2710418
-0.068326831 -0.19950859 1.1453986 2775447
-0.0615892 -0.20165265 1.1482505 2906776
0.093417034 -0.20062451 1.1483845 3171492
0.10191794 -0.19927113 1.1455433 3237285
0.11024328 -0.19810645 1.1412774 3629215
-0.078983665 -0.18933418 1.1456312 2775191
-0.070827991 -0.19274023 1.1482202 2906012
0.10383889 -0.19002879 1.1468891 3040421
0.11077054 -0.18838453 1.1434585 3105703
0.11667405 -0.18867102 1.140507 2777257
-0.094382048 -0.17542584 1.1405764 2710677
-0.087593138 -0.17921068 1.1441715 2709909
-0.081356019 -0.18274279 1.1467034 2709910
0.11189243 -0.17993049 1.1468674 3368100
0.11946057 -0.17815167 1.1424259 3302561
-0.095633298 -0.16882583 1.143558 2710421
-0.090829432 -0.17157541 1.1476952 2644886
0.11391985 -0.17213155 1.1481822 3040936
0.12194666 -0.16904101 1.1460202 3237031
0.12833484 -0.16617179 1.143039 3368615
-0.10534142 -0.15589871 1.1402031 2776209
-0.099882737 -0.16026127 1.1450328 2841240
0.12394665 -0.16050625 1.1479337 3237287
0.13038582 -0.15835577 1.1427366 3302822
-0.10636318 -0.14916122 1.1446042 2710683
-0.1016489 -0.15237716 1.1474617 2841499
0.13261695 -0.14987957 1.1451186 3237541
0.13757172 -0.14722039 1.141245 3237798
-0.10852748 -0.14060408 1.1450461 2907293
0.13426873 -0.14105631 1.1475283 3237797
0.13898396 -0.13859351 1.1424706 3303334
-0.11489181 -0.12901574 1.1408236 2907805
-0.11267629 -0.13052122 1.1469086 2907805
0.14078882 -0.12917335 1.1448354 3434407
-0.1154281 -0.11968198 1.1421618 3039392
-0.1127958 -0.12074646 1.1475135 3039391
0.14269167 -0.11959694 1.1445137 3500202
0.14682166 -0.11677457 1.1390212 3631274
-0.11861393 -0.11049221 1.1438502 3170979
0.14460345 -0.10928085 1.1464318 3631791
0.14798442 -0.10881329 1.1406381 3566510
-0.11906025 -0.10012242 1.1448246 3105957
0.14373186 -0.098196901 1.144989 3632305
0.14896606 -0.099391371 1.1390034 3501227
-0.11948802 -0.090145983 1.1423396 3237546
0.14323434 -0.089147046 1.1439298 3698099
0.1478454 -0.089608192 1.1388762 3698094
-0.11890595 -0.080392331 1.1423817 3434923
0.14443216 -0.079858869 1.1442877 3895479
0.14667358 -0.081978023 1.1383253 3895477
-0.11857046 -0.069923118 1.1427909 3566256
0.14464508 -0.068530776 1.1453943 4027579
0.14713129 -0.06801115 1.142046 4157882
-0.11761478 -0.061025925 1.141855 3567024
0.14256389 -0.059013691 1.1446974 4159422
0.14688706 -0.059230618 1.1402705 4289724
-0.11534536 -0.051225074 1.1394589 3567791
-0.11224167 -0.049171742 1.1447473 3764403
0.14080904 -0.049015194 1.1430097 4356797
-0.11054789 -0.040352553 1.1384717 3830196
0.1381041 -0.039464246 1.1418893 4619718
-0.10911752 -0.029400282 1.1405885 3896507
0.13396336 -0.027581371 1.1421473 4817095
0.13848837 -0.028203823 1.1389296 4948420
-0.1167632 -0.020238765 1.1415085 6916535
-0.10927223 -0.020743467 1.141199 5210049
0.13309295 -0.021152735 1.1441315 5013440
0.13754837 -0.020763509 1.1417829 5998788
0.032446787 0.052401252 1.138676 5859448
0.040641256 0.052476116 1.1368041 6122362
0.046205398 0.052688129 1.1397916 6319482
0.057318613 0.054081447 1.143747 5330522
0.033007395 0.056819566 1.1370627 5792108
0.040828645 0.057686962 1.1364995 5527648
0.046186823 0.057052933 1.1397043 5067354
-0.015691157 -0.2264668 1.1524748 4354997
-0.0083240997 -0.22742298 1.1544827 4684224
0.0015699342 -0.22711626 1.1529939 4289976
0.012538612 -0.22477919 1.1523963 2054307
0.022972744 -0.22528407 1.1523899 2777510
0.028467838 -0.22635877 1.1524026 4026798
0.044939093 -0.22628921 1.1523752 5604271
0.048775379 -0.22462618 1.1523359 4881326
-0.034716375 -0.21619564 1.1522995 3039902
-0.026762001 -0.21706972 1.1528045 2710943
-0.018280517 -0.21888655 1.1556324 2645152
-0.0083847549 -0.22163516 1.1590346 2514339
0.0015553832 -0.22150028 1.1584828 2514851
0.011460476 -0.21898393 1.1568831 2842787
0.021340914 -0.21856257 1.1546586 2908579
0.031011626 -0.21811709 1.1551234 3039651
0.041210838 -0.21875474 1.1562313 2908578
0.050557096 -0.21784854 1.1559483 2778020
0.060578559 -0.21619144 1.1535773 2646433
0.070163876 -0.21886347 1.1521868 5012145
0.081699207 -0.2200956 1.1521931 8955830
-0.047783311 -0.20782739 1.1524386 2841242
-0.03792806 -0.20981726 1.1545109 2775960
-0.028910749 -0.21101555 1.1564542 2841500
-0.019487623 -0.2130729 1.1602145 2907551
0.012206055 -0.21220207 1.160147 3105184
0.021418678 -0.21179469 1.1601242 3170722
0.031370003 -0.21175265 1.1601076 3302053
0.041503262 -0.21115714 1.1600796 3170723
0.052003518 -0.21019153 1.1600436 3105188
0.061329711 -0.20939305 1.1582983 3170467
0.070929706 -0.20922062 1.1543931 3236258
0.081057727 -0.20577535 1.1523522 3171236
-0.064448744 -0.19655922 1.1519538 2906776
-0.057906609 -0.19874467 1.1531303 2907033
-0.049446423 -0.19962007 1.1568257 2841497
-0.040168192 -0.20357919 1.1600574 2775704
0.062296748 -0.20388354 1.1599011 3105443
0.071142375 -0.20384619 1.1598864 3105443
0.081919566 -0.2001088 1.1585312 3105956
0.090268508 -0.19727385 1.1549237 3105956
-0.075476304 -0.18562692 1.1517526 2644884
-0.068386927 -0.18910475 1.1548116 2775705
-0.059999134 -0.19188803 1.1575211 2841497
0.085469455 -0.19273067 1.1596414 3172006
0.093115762 -0.19033661 1.1585811 3040421
0.098965079 -0.18801242 1.1560249 2974628
-0.084298357 -0.1768811 1.1515917 2645144
-0.077643037 -0.17855981 1.1546742 2710425
-0.072325736 -0.1812281 1.156232 2776216
0.10239641 -0.1793547 1.1560963 3171493
0.10736109 -0.17716649 1.1528941 3237026
-0.087367237 -0.16882628 1.1540241 2710424
-0.080982 -0.17092921 1.1580142 2710937
0.10528743 -0.17274794 1.1592103 3302823
0.11159651 -0.16869989 1.1559608 3172005
0.11737785 -0.1655522 1.1550463 3172006
-0.096093789 -0.15753493 1.1512234 2841498
-0.091680259 -0.15993796 1.1561885 2907290
0.114086 -0.16165575 1.1589744 3303592
0.12031791 -0.1582745 1.1575633 3237544
0.1264403 -0.15403357 1.1508008 3303337
-0.097892269 -0.14905228 1.1527712 2973342
-0.093277976 -0.15202904 1.1591104 3038879
0.12391774 -0.15048365 1.1580687 3237544
0.12825865 -0.14752713 1.1534684 3303336
-0.10596853 -0.13754967 1.1518395 2973342
-0.099882409 -0.14059804 1.1563917 2973600
0.13163117 -0.13836502 1.15448 3368872
-0.1075782 -0.12966789 1.1530375 3039392
-0.10213704 -0.13035122 1.1586908 3236259
0.13289471 -0.12888625 1.1560388 3500460
0.13730434 -0.12654056 1.1502336 3434923
-0.10871854 -0.12002082 1.1533825 3170978
0.13390003 -0.11993623 1.156775 3500719
0.13857882 -0.11748311 1.1533844 3500718
-0.11533438 -0.10894325 1.1502819 3237029
-0.1115063 -0.11017735 1.1563017 3237286
0.13888338 -0.10857108 1.1559782 3697329
-0.11537176 -0.10016032 1.1501063 3237543
-0.11280271 -0.099564381 1.1575918 3172263
0.14006211 -0.099466488 1.1552889 3697843
-0.11571085 -0.090466477 1.1529136 3303340
-0.11363231 -0.089285567 1.1578876 3303852
0.13979253 -0.089015812 1.1554804 3764149
-0.11582035 -0.080766238 1.149719 3500716
-0.11309592 -0.079228483 1.1576856 3501229
0.14268731 -0.078597337 1.1538385 3764661
-0.11548856 -0.072713673 1.1495575 3566512
-0.112325 -0.069191657 1.1538465 3632306
0.13966206 -0.068405531 1.1535386 3896764
-0.11176421 -0.059570346 1.1536531 3698357
0.13363793 -0.058348455 1.1555434 4291265
0.13746795 -0.059611287 1.1500378 4225217
-0.11019206 -0.050564844 1.1531068 3764408
0.13437855 -0.048757318 1.1546837 4554434
0.13697261 -0.048592079 1.1486751 4488640
-0.10728066 -0.039826263 1.1536876 3895997
-0.1031681 -0.036545731 1.1568161 4027323
0.13393936 -0.037983365 1.1534687 4817354
-0.10578358 -0.030357085 1.1500285 3962044
-0.10180299 -0.029017963 1.1558633 4093118
0.12456435 -0.025634624 1.1562371 5014224
0.12996349 -0.02842351 1.1522835 4751563
-0.10473201 -0.019969746 1.1484854 4290235
-0.099843651 -0.019730315 1.1530071 4158908
-0.093666896 -0.017343558 1.156417 4028609
0.1228677 -0.018640243 1.1543218 4817874
0.12954231 -0.018431596 1.1490837 5145287
-0.09749122 -0.013116293 1.1507374 4487616
-0.092115402 -0.010345638 1.154941 4356800
0.11396001 -0.0061697811 1.1538641 5276623
0.12030849 -0.009228617 1.1502002 5604813
0.12971546 -0.010433927 1.1488123 6720449
-0.090040803 -0.003325209 1.1561308 5671109
0.11207929 -0.00058477372 1.1551843 5802961
0.11844358 -0.0014085695 1.1510946 6787017
0.03593405 0.014894769 1.1555668 12972031
-0.019364059 0.024532728 1.1534612 5869264
0.013056199 0.02106268 1.1554797 7515376
0.020551976 0.020725824 1.1554745 8764660
0.030161191 0.020324208 1.1554674 10146554
0.036799796 0.019320428 1.1554769 10870005
-0.077136591 0.032479294 1.1473926 8028800
-0.072013751 0.032866888 1.1473767 7305855
-0.014975326 0.025734834 1.1554307 5671370
-0.011658218 0.025748841 1.1554251 5869265
0.011561541 0.025846891 1.1553863 6988787
0.015984353 0.025865555 1.1553789 7185904
0.10219154 0.035073586 1.1550583 6314850
-0.070814952 0.037873425 1.1472746 8028802
0.099080518 0.038598068 1.1549927 6117979
0.075064071 0.048858322 1.1468239 5593178
0.077260241 0.048867591 1.1468202 5658970
-0.01399349 -0.21593487 1.164264 2973083
-0.0084412042 -0.21702075 1.1642768 2973595
0.00098697003 -0.21653739 1.164919 2973598
-0.03401193 -0.20492631 1.1640755 2842012
-0.027626324 -0.20628598 1.1640925 2776219
-0.018272128 -0.20869604 1.16565 2907806
-0.0086686667 -0.21000186 1.1672953 2907807
0.0018922184 -0.21049425 1.1674639 2973599
0.010758583 -0.20817122 1.1647363 3039136
0.021499125 -0.20712256 1.1653651 3170723
0.031476188 -0.20697443 1.1646795 3236770
0.041272216 -0.20648573 1.1639874 3170979
0.0503181 -0.20623422 1.1639681 3170980
0.056968093 -0.20454215 1.1639236 3171236
-0.045144819 -0.1960988 1.1639165 2842012
-0.038423762 -0.19830653 1.1654049 2842011
-0.028798316 -0.20050427 1.1664407 2842012
-0.020501643 -0.20188771 1.167994 2907805
0.025985464 -0.20308281 1.1679443 3302309
0.031990916 -0.20192379 1.1667686 3302308
0.040641867 -0.2017933 1.1653948 3171236
0.051411092 -0.20234698 1.1638886 3171236
0.06203397 -0.20089558 1.1655097 3105443
0.071847372 -0.19894502 1.1647884 3171492
0.078387201 -0.19705629 1.16374 3040420
-0.066272765 -0.18509489 1.1637299 2841497
-0.057484005 -0.18779583 1.1643034 2907291
-0.049032133 -0.19038343 1.165691 2907549
-0.04234881 -0.19149806 1.1678208 2907551
0.074924245 -0.19174495 1.16764 3040420
0.08193019 -0.1899121 1.1656971 3106213
0.089736953 -0.18732038 1.1635273 3106214
-0.067800745 -0.17857581 1.1656023 2907290
-0.061199043 -0.18139681 1.1671486 2973340
0.086019576 -0.18279314 1.1674434 3302823
0.092051283 -0.18043116 1.1649861 3237030
0.09817712 -0.17699558 1.1650854 3237031
-0.085219443 -0.1652073 1.1633621 2841497
-0.07680656 -0.1686402 1.1639509 2842012
-0.070673153 -0.17080075 1.1664515 2907547
0.10332848 -0.16930781 1.1640687 3368361
0.10839756 -0.16605371 1.1630723 3237285
-0.086723968 -0.15929732 1.1632463 2973085
-0.079937831 -0.15943873 1.1659757 3039135
0.10560726 -0.1621829 1.1629993 3368615
0.11211884 -0.15881112 1.163649 3237799
0.11667405 -0.15548031 1.1628478 3303337
-0.094175801 -0.1463868 1.1629999 2973857
-0.088729292 -0.14986208 1.1646166 3039137
-0.082788438 -0.15066886 1.1670682 3104930
0.11407806 -0.15127875 1.1647682 3172264
0.1202866 -0.14838916 1.1633669 3238059
-0.095400542 -0.13817117 1.1638377 3039650
-0.091399387 -0.14168894 1.1669022 3105700
0.12348631 -0.13860407 1.1646537 3369132
0.12769836 -0.13879408 1.1624964 3434410
-0.09819214 -0.12960711 1.1643852 3171236
0.12534514 -0.13045457 1.165534 3500719
0.12870574 -0.12816067 1.1642826 3435183
-0.10539368 -0.11759205 1.1624416 3302823
-0.10072978 -0.11949829 1.1651396 3171495
0.12942445 -0.11806565 1.1638976 3566514
-0.10717493 -0.10893673 1.1637262 3368873
-0.10348779 -0.1100626 1.1654886 3368875
0.13209942 -0.10888324 1.1626914 3697588
-0.10811567 -0.099851869 1.1647583 3303850
0.13363042 -0.099226251 1.1651249 3763892
0.13684736 -0.098598354 1.161678 3698099
-0.10950449 -0.089675263 1.1634901 3435181
-0.10364306 -0.090091832 1.1658895 3435438
0.13460782 -0.089085832 1.1654921 3829942
0.13744773 -0.088582225 1.1626197 3764149
-0.10850893 -0.079991445 1.1636949 3501229
0.13455097 -0.075728625 1.1652249 3896505
0.13895576 -0.078635693 1.1630938 3830455
-0.10795337 -0.070139036 1.1630353 3632563
-0.10374254 -0.066716716 1.1654222 3567542
0.13215715 -0.068632871 1.1625148 4027837
0.13740072 -0.072194397 1.1611489 3896505
-0.10723747 -0.060083315 1.1626278 3829940
-0.10377097 -0.060038108 1.1652886 3699127
0.13061661 -0.059002709 1.163563 4291009
-0.10686287 -0.049953084 1.1618912 3895737
-0.10318147 -0.049063433 1.1650681 4027576
0.13086902 -0.048977844 1.1626953 4422849
-0.10570997 -0.043269485 1.1609555 4158911
-0.10123479 -0.039512079 1.1628736 4093372
0.13077056 -0.039245594 1.1620007 4817355
-0.097527012 -0.030108221 1.1622181 4093630
-0.09277986 -0.026598081 1.1646023 4094397
0.12327315 -0.028516896 1.1625203 5080014
0.12779754 -0.031745054 1.1603551 4883149
-0.095442653 -0.02251897 1.1605241 4028348
-0.090945318 -0.019913025 1.1619653 4028864
0.11873916 -0.018902957 1.1618906 4949202
-0.087422863 -0.010300733 1.1620857 4029123
-0.083210021 -0.0080056712 1.1642152 3963586
0.11261338 -0.0090479627 1.1625923 5146069
0.11606978 -0.013490923 1.1600085 5080276
-0.086651534 -0.0025142282 1.1601101 5342665
-0.079531863 -0.00025536865 1.1640544 4882633
-0.016088553 0.0037799999 1.1638732 6070261
-0.0094086193 0.0038082078 1.163862 6528744
-0.0027286876 0.0038364157 1.1638509 8827627
0.012857817 0.0039022267 1.1638249 10340848
0.021608053 0.0033031031 1.163823 8895736
0.029118001 0.0026351437 1.1638244 6266608
0.10350481 0.0037084296 1.1626849 5475287
0.10799916 0.00017681718 1.1610816 5475028
-0.076087222 0.0057091191 1.1619292 5999306
-0.069431067 0.0068465322 1.161896 5540557
-0.060877826 0.010203615 1.1611484 5803727
-0.048163269 0.012054816 1.1637585 4950220
-0.03919569 0.01096835 1.163766 5016280
-0.029467933 0.010390423 1.163362 5411294
-0.019422621 0.010382503 1.1615059 5806569
-0.0094311181 0.010470279 1.1631287 7120874
0.00015557371 0.011269398 1.1636976 12379901
0.010748749 0.010739438 1.1611646 13891069
0.020564642 0.01052881 1.1604795 12969723
0.030520417 0.01082553 1.1613421 9946095
0.04059422 0.010644577 1.1617327 10013177
0.050322641 0.012561075 1.1614381 7449069
0.056975376 0.01447764 1.1635435 5411552
0.10057497 0.0075543672 1.1611124 6526426
-0.046205085 0.017010286 1.1636562 6264275
-0.038617544 0.017795771 1.161128 5803990
-0.029045004 0.018436156 1.1595998 5345755
-0.01904301 0.019739956 1.1595578 5412839
-0.0094540492 0.020383433 1.1600299 5676266
-0.00040846132 0.019547589 1.1623899 7253489
0.0094221942 0.019370496 1.1605203 8436213
0.019410003 0.017161675 1.1595485 12051453
0.03381478 0.021659747 1.1594357 10082302
0.041658483 0.020953335 1.1594374 10607102
0.050147206 0.020143986 1.1594402 7515119
0.057190768 0.019586794 1.1607738 6068200
-0.0072560646 0.025923572 1.1594155 6001365
-0.0028180145 0.025942311 1.1594081 6396124
0.109662 0.032185681 1.1591051 6447199
-0.0051915497 -0.20607677 1.1720544 3039391
0.0023518875 -0.20544291 1.1735301 3039135
0.013799686 -0.20599659 1.1720227 3104930
-0.034284499 -0.19503033 1.1718795 2776478
-0.027900677 -0.19585896 1.1738864 2842271
-0.017986994 -0.19741264 1.176084 2907807
-0.0087507945 -0.19922242 1.1766195 2908063
0.001273687 -0.20000762 1.177724 2973600
0.011590185 -0.19899109 1.1772206 3105187
0.021515965 -0.19861646 1.1762775 3236773
0.031214733 -0.19724993 1.1755543 3237029
0.042163186 -0.19728799 1.1756043 3171237
0.051815677 -0.19824278 1.1733078 3171236
0.061329089 -0.1966548 1.1726838 3105444
0.070169665 -0.19514775 1.1717165 3171493
-0.046511717 -0.18614921 1.174922 2841758
-0.038400508 -0.18840596 1.1757544 2907551
-0.029480603 -0.1894183 1.1785846 2842271
-0.018787291 -0.19053815 1.1797668 2908064
-0.012034001 -0.19163418 1.179778 2973857
0.0093362583 -0.19154395 1.1797423 3105444
0.022204148 -0.19049001 1.1797009 3237030
0.032255318 -0.19087929 1.1788926 3302823
0.041913927 -0.19005969 1.1787378 3171495
0.051269598 -0.1886204 1.1782259 3105703
0.060980774 -0.18884218 1.1780062 3105703
0.070783131 -0.18834059 1.1760802 3105702
0.079102516 -0.18585718 1.1732311 3105958
-0.057826649 -0.17853123 1.1732342 2973598
-0.049816702 -0.18013105 1.1776074 2907551
-0.039913453 -0.18191212 1.1796278 2908065
0.07253325 -0.17985864 1.1794086 3237288
0.081347108 -0.17915669 1.1769356 3302823
0.089998081 -0.17713732 1.1738967 3237287
-0.067277685 -0.16728041 1.1742345 3105183
-0.059794772 -0.17055732 1.1775494 2974112
-0.051481623 -0.17268345 1.1794615 2842786
0.08281453 -0.17234132 1.1792419 3171750
0.091427237 -0.16872209 1.1778222 3172008
0.099479645 -0.16701949 1.1734412 3303081
-0.075447738 -0.15767765 1.1718644 3104930
-0.069201455 -0.15985218 1.1778992 3170978
0.093882635 -0.16034225 1.1789843 3303337
0.10165106 -0.15883484 1.1766914 3368873
0.10858253 -0.1575633 1.1734498 3237543
-0.085333183 -0.1448936 1.1736248 3040164
-0.078592107 -0.14859897 1.1748112 3105701
-0.072186604 -0.15290388 1.1790986 3302822
0.10318929 -0.14976433 1.178758 3303597
0.11057563 -0.1473933 1.1743343 3238059
0.1176338 -0.14433843 1.1726253 3303852
-0.087800145 -0.1385482 1.1746131 3106213
-0.080019161 -0.14047322 1.1788623 3172007
0.11144376 -0.13823834 1.1783143 3369387
0.1193755 -0.13804144 1.174497 3435181
-0.095001251 -0.12839153 1.1719764 3237030
-0.088418111 -0.1289508 1.1763114 3237800
-0.082022175 -0.1323287 1.1787026 3303594
0.11323738 -0.13217896 1.1783903 3500972
0.12162371 -0.12793079 1.1750414 3500976
0.1262877 -0.12510268 1.1702265 3500977
-0.096177295 -0.11910517 1.1735706 3237545
-0.091500223 -0.12067053 1.1775954 3303852
0.12337641 -0.11834171 1.1780975 3566772
0.12669398 -0.11873839 1.1740993 3566515
-0.098730758 -0.10940517 1.1735196 3369389
0.1241928 -0.10880639 1.1779054 3763639
0.12754482 -0.10795442 1.1729932 3763639
-0.10557756 -0.095637381 1.171338 3435181
-0.10018419 -0.099236786 1.1746402 3435438
0.12478833 -0.097719051 1.1776828 3895737
0.12976445 -0.097681485 1.1724966 3764149
-0.10510312 -0.08913859 1.1722741 3435438
-0.099722356 -0.089666031 1.1763386 3501231
0.12476441 -0.092096411 1.1775703 3961530
0.13011836 -0.088197432 1.1723063 3961528
0.13728791 -0.08484678 1.1694038 3895735
-0.10486011 -0.079875618 1.1726886 3501489
-0.1005885 -0.079577908 1.1755588 3501490
0.12468784 -0.074103981 1.1772106 4159679
0.13041143 -0.078849874 1.1725682 3962041
0.13727841 -0.082612962 1.1693592 3895735
-0.10536197 -0.07255771 1.1715428 3501747
-0.10056265 -0.069294587 1.1741371 3567541
0.12391087 -0.06773483 1.1770843 4225473
0.12760028 -0.068301342 1.173089 4159424
-0.098833412 -0.059158601 1.1728648 3764919
0.12362319 -0.058864612 1.1769074 4422597
0.12755737 -0.058214877 1.1728873 4357059
-0.098382637 -0.049389388 1.1724972 3896505
-0.093623817 -0.049161199 1.1770575 3962298
0.12345302 -0.048244607 1.1766952 4685767
0.12751444 -0.048128415 1.1726856 4422851
-0.096963122 -0.040295638 1.1704841 4027836
-0.091948122 -0.038404226 1.1757485 4028094
0.12152959 -0.037703309 1.1743693 4948684
0.12742892 -0.039671801 1.1695161 4751818
-0.09530358 -0.032216255 1.1687195 4093632
-0.089737356 -0.02862671 1.1744863 4094399
0.1147406 -0.027289852 1.1762899 5080784
0.11905037 -0.028434582 1.171505 5211343
-0.086527109 -0.020201758 1.1728299 4094402
-0.080007568 -0.017058231 1.1753936 4226244
-0.073521882 -0.015339904 1.1763492 4620744
-0.019538652 -0.013987415 1.1762365 5412064
0.0029563569 -0.013892427 1.176199 6463211
0.011044422 -0.017694987 1.1762623 6397929
0.020729175 -0.017013468 1.1762333 6397929
0.029955834 -0.015063621 1.1761796 6003432
0.11169308 -0.018075377 1.1736099 5081042
0.11690861 -0.021267839 1.1681644 5081041
-0.078688979 -0.0093447566 1.1701027 4160963
-0.070607811 -0.0082690716 1.1753458 4752075
-0.055568952 -0.0051431805 1.1761167 4949201
-0.048818056 -0.0056769475 1.1761167 5016022
-0.03923301 -0.0067692697 1.1754565 5213659
-0.029399432 -0.0076429993 1.1748942 5411552
-0.0195494 -0.0083746165 1.1753241 5740773
-0.0094398316 -0.0083220378 1.1761072 6003172
0.00068113767 -0.0082842559 1.1756903 6331366
0.010775093 -0.0082680807 1.1730734 6989552
0.020877736 -0.0082216263 1.1734567 6792432
0.030963045 -0.0081845 1.1727898 5937640
0.039450731 -0.0071889609 1.1750069 5806054
0.050162371 -0.0058212876 1.1759628 5674725
0.056906085 -0.0046682581 1.1759291 5674983
0.10275044 -0.0070049167 1.1759032 5146841
0.1087683 -0.0091554075 1.1702212 5080789
-0.075328305 -0.0008578822 1.1680607 4554184
-0.071880206 4.2922795e-005 1.1710378 4751049
-0.056623649 0.00043512881 1.1740063 4818129
-0.049182143 0.00045283884 1.1731941 5015507
-0.039647121 0.0004388392 1.1697786 5147609
-0.029541299 0.00045998394 1.1684619 5346018
-0.019894794 0.0001707226 1.171064 5937898
-0.0094420593 -0.00052700937 1.1712836 6462952
0.0010097511 0.00024694204 1.1703626 8303605
0.010382635 0.00016321242 1.1693333 8501495
0.02024298 -0.00078921765 1.1685234 7252467
0.031551026 -0.00018205494 1.1693326 6069484
0.040696181 0.00096119195 1.1701567 6135528
0.050814979 0.00068215281 1.1732428 5741031
0.060206246 0.00094938278 1.1748112 5543655
0.069681488 0.0023059845 1.1757693 5477092
0.079740927 0.0036748499 1.1757259 5739747
0.091114447 0.0034729615 1.175712 5280481
0.10034023 0.00081332773 1.1720575 5015513
0.10583399 -0.0011813119 1.1697805 4949463
-0.068654045 0.0058718845 1.1679155 4818122
-0.059224714 0.0069045052 1.1678799 5147606
-0.05053908 0.0076858029 1.1678505 4818639
-0.041842893 0.0059850961 1.1678708 5344472
0.0028399918 0.0067322329 1.167785 12971007
0.0073108943 0.006192632 1.1677887 12905215
0.031887781 0.0062964112 1.1677477 5807584
0.045293361 0.0063530132 1.1677253 6004710
0.051353715 0.0073359758 1.1676961 5807083
0.060138486 0.009891212 1.1697648 5477863
0.068648398 0.0095424503 1.1722921 5542628
0.080477983 0.0066767484 1.1756648 5673698
0.091036215 0.0086497739 1.1741083 5804766
0.096681401 0.0065699965 1.1676396 5147865
0.063119933 0.017597586 1.1674722 5412324
-0.0052895956 -0.19444518 1.1838243 3039650
0.0011620615 -0.1950627 1.1838264 3039650
-0.025637284 -0.1866326 1.1837003 2842271
-0.018865928 -0.18660402 1.183689 2973857
-0.0085340701 -0.18762639 1.1849564 2973857
0.0012274645 -0.18931246 1.1862382 3039395
0.011877905 -0.18734822 1.1854333 3171237
0.021177124 -0.1859052 1.1846784 3237030
0.031521231 -0.18530175 1.1851219 3302569
0.039860565 -0.18541178 1.1849056 3237546
-0.045351062 -0.17623827 1.1835237 2908065
-0.03776947 -0.17717341 1.1835303 2973857
-0.029078346 -0.17888024 1.1845509 2973857
-0.019322064 -0.1807175 1.18569 2973858
-0.011022929 -0.18147379 1.1875747 3105444
0.020683412 -0.18133992 1.1875218 3237030
0.032378137 -0.17978096 1.1874721 3302825
0.04130739 -0.17929438 1.1871405 3171754
0.051164247 -0.1798048 1.1854424 3171752
0.061505165 -0.1793495 1.1848286 3171753
0.069928989 -0.17620498 1.1843405 3237546
0.078137398 -0.17378251 1.1832788 3303592
-0.056569424 -0.16682893 1.1833532 2908579
-0.048363302 -0.16892388 1.1853825 2908579
-0.038520936 -0.17033386 1.1863043 3105444
-0.029860731 -0.17204314 1.187416 3105443
0.064807266 -0.17209628 1.1872669 3303339
0.072828889 -0.16981602 1.1858751 3303082
0.08121337 -0.16771436 1.1837242 3237545
0.087127462 -0.1647177 1.1830833 3303850
-0.065645933 -0.15558369 1.1831427 3302822
-0.059011597 -0.15981546 1.1854671 3040165
-0.051865306 -0.1635316 1.1872805 3040167
0.076092407 -0.16299132 1.187067 3303598
0.082136616 -0.1589902 1.186036 3238061
0.090689421 -0.15693092 1.1840333 3303596
0.098369837 -0.15451503 1.1828614 3369131
-0.075471595 -0.14509386 1.1829484 3171751
-0.069028303 -0.1486709 1.1844218 3368615
-0.062104817 -0.1522532 1.1870711 3171751
0.10015897 -0.1479035 1.1842266 3369134
-0.077476576 -0.13805009 1.1828107 3369130
-0.071344584 -0.13992393 1.1858389 3434922
0.10124621 -0.13820428 1.1855788 3435183
-0.079236358 -0.1294339 1.1839746 3434923
0.1039685 -0.13109607 1.1855847 3501232
0.11071473 -0.12794791 1.1848992 3435694
0.11743531 -0.12622562 1.1822654 3501232
-0.08750692 -0.11833376 1.1834323 3369646
-0.081769794 -0.12202963 1.1851642 3435182
0.11440507 -0.11867512 1.1861199 3567282
0.11850475 -0.11816689 1.183921 3567027
-0.095953748 -0.10568788 1.1821926 3501231
-0.091347694 -0.10954341 1.1850129 3435439
0.11437134 -0.11075011 1.1859614 3829686
0.11946106 -0.10795189 1.1841192 3829431
-0.095968142 -0.10230287 1.1821249 3501231
-0.091592669 -0.099011377 1.1837192 3567024
0.12172933 -0.098555006 1.1843722 3830201
-0.096028164 -0.088198684 1.1818429 3632818
-0.092792451 -0.08886537 1.1838515 3698612
0.12380075 -0.087950818 1.18349 3896507
-0.096068993 -0.078607827 1.1816511 3633333
-0.092218801 -0.078731358 1.184448 3764919
0.12359206 -0.077755071 1.1827863 4093886
-0.096557871 -0.069808714 1.1814759 3633334
-0.092518896 -0.068794332 1.1846498 3830201
0.12054852 -0.068130456 1.183321 4291523
-0.092141807 -0.058523178 1.1829101 3896506
0.12001327 -0.057662498 1.1824901 4619975
-0.088902175 -0.048959278 1.1827613 4028348
0.1140967 -0.046217877 1.184671 5146320
0.11853309 -0.048439663 1.1837083 4883148
-0.087226704 -0.039567322 1.181142 3962814
-0.082247764 -0.03813611 1.1836773 3963072
0.11306463 -0.037426528 1.1829965 5146577
0.11683166 -0.039072677 1.1810231 5080527
-0.0858908 -0.030496873 1.1806726 4028607
-0.079716116 -0.028681695 1.1827602 4291526
-0.029800925 -0.026446506 1.1845036 5147865
-0.022328254 -0.026188523 1.1844865 5344731
-0.0060259905 -0.025213957 1.1844412 5345501
0.00076822657 -0.025185265 1.1844299 5739743
0.010955505 -0.027400225 1.1831244 5936862
0.020011213 -0.027363576 1.1834427 5871068
0.030214645 -0.02619309 1.1844034 5739228
0.04832774 -0.024984449 1.1843505 5213656
0.11115026 -0.028556347 1.1827221 4949970
-0.077973589 -0.021267347 1.1804755 4422856
-0.069558561 -0.016433887 1.182184 4686797
-0.059193056 -0.015258484 1.182326 4884690
-0.048788238 -0.016622625 1.1838369 4950486
-0.038330872 -0.017354049 1.1830015 5213659
-0.02975921 -0.018526502 1.1811445 5279707
-0.019592892 -0.019612685 1.1815501 5345244
-0.009434808 -0.017939582 1.1814116 5411808
0.00042901561 -0.019015566 1.1812155 5806052
0.0097771436 -0.022119217 1.1803535 6068964
0.021816716 -0.022444487 1.1803409 6068963
0.031845015 -0.020003416 1.1811994 6003173
0.040295836 -0.018232033 1.1820277 5608417
0.050497212 -0.018186249 1.1826108 5411038
0.057357777 -0.018153325 1.1841996 5279709
0.10204069 -0.016226664 1.183167 5212630
0.10769926 -0.019827694 1.1814861 5015248
-0.065885991 -0.010779023 1.1802466 4949712
-0.059114631 -0.010750428 1.1802353 4949713
-0.04895759 -0.010707542 1.1802183 5016279
-0.039551321 -0.011043936 1.1802101 5213659
-0.030895825 -0.011759624 1.1802107 5345501
0.041893877 -0.010888107 1.180078 5871590
0.05035568 -0.010288201 1.1800525 5871847
0.060606509 -0.0079727024 1.1819904 5543139
0.067887671 -0.0068073422 1.1822413 5280225
0.092413053 -0.00668367 1.1839147 5411294
0.098276705 -0.0081230253 1.1813881 5279196
0.070069462 -0.0017422885 1.1798505 5411556
0.079655021 -9.2834234e-006 1.1798005 5412066
0.090940624 3.837049e-005 1.1797817 5477344
0.097721577 -0.0021897033 1.1798155 5213404
0.0022108601 -0.1846132 1.1916174 3105189
-0.0181944 -0.17621535 1.192482 3039906
-0.0084836837 -0.1782999 1.1929369 3039908
0.0010588113 -0.17938237 1.1948485 3105447
0.011660617 -0.17861262 1.1922326 3105702
0.020737831 -0.17734046 1.1914426 3171750
0.029722216 -0.17688945 1.1914194 3237289
0.041179381 -0.17498221 1.191363 3237548
0.05140499 -0.17493904 1.1913459 3171752
0.060494423 -0.17490065 1.1913308 3171752
-0.045896389 -0.16489893 1.1912993 3039909
-0.038042303 -0.16557911 1.1921895 3105701
-0.029872008 -0.16816083 1.1938851 3105443
-0.020247463 -0.17348385 1.1954311 3040163
0.010528343 -0.17244206 1.1953615 3105960
0.021923482 -0.17127949 1.1953202 3105958
0.031013595 -0.16974595 1.1944749 3237545
0.041405577 -0.16866314 1.193342 3237547
0.051446531 -0.168318 1.1928138 3237544
0.061509877 -0.16804664 1.1928766 3237545
0.07015235 -0.16604266 1.1918051 3303339
-0.057184685 -0.155518 1.1911296 3172009
-0.048744757 -0.15859807 1.1935782 3105961
-0.039396837 -0.16074215 1.1952066 3171752
0.044683367 -0.16181186 1.1950948 3303337
0.051523291 -0.16178298 1.1950834 3303593
0.061616171 -0.16076341 1.195047 3303594
0.070810594 -0.15813529 1.1937296 3303596
0.077622063 -0.15665275 1.1909387 3238062
-0.064606115 -0.14702953 1.1909715 3434409
-0.058852572 -0.14871144 1.1938201 3237547
-0.05050147 -0.15102318 1.1950297 3237805
0.071743399 -0.15080634 1.1948317 3238318
0.081026196 -0.14785713 1.1936378 3238572
0.091146901 -0.14763355 1.1919371 3434926
0.097643137 -0.14702603 1.1907144 3369134
-0.066983506 -0.13798454 1.1920253 3435179
-0.061027635 -0.13992301 1.1943799 3369388
0.085635632 -0.14112285 1.1946161 3500977
0.091240838 -0.13758078 1.1935362 3435186
0.096694216 -0.13763931 1.1905282 3500720
-0.075545222 -0.12728475 1.191594 3566511
-0.06982787 -0.13010581 1.1933084 3566767
-0.062601641 -0.1326305 1.194681 3500977
0.092673182 -0.1299331 1.193881 3501234
0.10054754 -0.12751351 1.1910696 3501490
-0.085197523 -0.11417325 1.190347 3566770
-0.078413486 -0.11867518 1.1930267 3632306
-0.071760356 -0.12355091 1.1945139 3632563
0.10231537 -0.11880668 1.1927313 3699127
0.10975036 -0.1175307 1.190576 3633076
-0.08642827 -0.10857096 1.191237 3566770
-0.080414578 -0.10938402 1.1942443 3763892
0.10317205 -0.10970478 1.1939598 3633335
0.1098361 -0.10753149 1.191461 3764407
-0.086600125 -0.098457232 1.1928353 3698868
-0.082251489 -0.099026576 1.1940401 3699126
0.10369113 -0.097734869 1.1937196 3962811
0.11022942 -0.097818986 1.1925441 3830969
0.11795126 -0.098060973 1.1897027 3830714
-0.08781907 -0.088545702 1.1907617 3699126
-0.082547396 -0.089023069 1.1938404 3830712
0.11088705 -0.087866366 1.1929107 4028606
0.11904463 -0.087994874 1.1894997 3962300
-0.087278083 -0.079046085 1.1912478 3830970
-0.082374379 -0.07865575 1.1936327 3962813
0.11112118 -0.078796528 1.193329 4291522
0.11899553 -0.078423351 1.189672 4094399
-0.08762227 -0.068978108 1.1911613 3962044
-0.082740277 -0.069213383 1.1934445 4093630
0.11265905 -0.068052761 1.192845 4554438
0.11750232 -0.068852112 1.1891192 4357059
-0.087041795 -0.058941428 1.1905786 4093886
-0.082461685 -0.058140025 1.1932225 4291009
0.11078061 -0.057530489 1.1920152 4686026
0.11680542 -0.057657603 1.1888964 4685769
-0.08546342 -0.051695831 1.1890976 4159935
-0.080467552 -0.049149506 1.1918964 4225985
0.1034777 -0.04758535 1.1927168 5015248
0.10956624 -0.0488871 1.1900661 5014991
-0.077494383 -0.039335299 1.1909558 4292037
-0.07210961 -0.041488063 1.192873 4619977
-0.049338941 -0.034553226 1.1926982 5279449
-0.041359026 -0.034519531 1.1926849 5016538
-0.028814301 -0.035606343 1.1926868 4950743
-0.019284904 -0.037242264 1.1927044 4950488
-0.010188026 -0.037047405 1.1926861 5147351
0.00025782734 -0.036053482 1.1926497 5278422
0.010835206 -0.038340699 1.1917896 5212886
0.020182831 -0.037655927 1.1908998 5278423
0.030153053 -0.036766611 1.1913663 5147094
0.041058317 -0.037102394 1.192606 4885460
0.050537862 -0.035573129 1.191833 4950741
0.059647817 -0.035004862 1.1925347 5016279
0.10194369 -0.037768185 1.1911227 5212370
0.10934049 -0.038945559 1.188534 5212369
-0.075442284 -0.032362923 1.1906954 4423370
-0.073383197 -0.029167779 1.1902281 4554187
-0.048894074 -0.029535033 1.1923305 5147610
-0.039041452 -0.02879893 1.1905664 5081818
-0.029925674 -0.03103476 1.1905967 5016538
-0.018780649 -0.029548667 1.1906828 5278938
-0.009677032 -0.028903879 1.1906554 5344730
0.00079513248 -0.029759273 1.189589 5673948
0.011029599 -0.031976841 1.1885504 5805277
0.02011903 -0.03193846 1.1885352 5541848
0.030339804 -0.030759312 1.1884954 5475544
0.040555742 -0.028444245 1.1884329 5213397
0.051214371 -0.029008038 1.1891333 5082070
0.060904764 -0.028151713 1.1907953 5016536
0.069836617 -0.025908709 1.1923366 5213915
0.08058092 -0.024886392 1.1922991 5279453
0.091526732 -0.025296077 1.1922899 5213659
0.10097389 -0.028207421 1.1907328 5212628
0.1075903 -0.028161205 1.188321 5146833
-0.073086306 -0.023244224 1.1885089 4554443
-0.047870878 -0.021320194 1.1884304 5016281
-0.040595461 -0.022198252 1.1884365 5147611
-0.0094602928 -0.022975564 1.1884028 5411294
0.061342176 -0.018132731 1.1881937 5148123
0.070065022 -0.018096469 1.1883792 5213915
0.080104455 -0.018253051 1.1899059 5213917
0.090861514 -0.018130273 1.1904631 5213659
0.098871365 -0.019868486 1.1885023 5212887
0.091611281 -0.011189066 1.1880069 5279708
0.096155986 -0.011169881 1.1879992 5411037
-0.014603108 -0.17410275 1.2004355 3106213
-0.0088793561 -0.17407858 1.200426 3105959
0.0024073934 -0.17468496 1.2004203 3105706
0.012870899 -0.17398676 1.2003897 3105960
-0.025507458 -0.16728154 1.2003164 3105700
-0.018071499 -0.16848539 1.2010789 3105957
-0.0089087375 -0.16844669 1.2010635 3106216
0.0014036866 -0.1685071 1.2018986 3106217
0.01204296 -0.16795033 1.2016991 3171752
0.019938201 -0.16742969 1.2013385 3303337
0.031147934 -0.16475323 1.2001761 3369130
0.038016431 -0.16472422 1.2001646 3369132
-0.03815705 -0.15611741 1.2004465 3171753
-0.028468277 -0.15844408 1.2028649 3171752
-0.018171016 -0.15864232 1.2049329 3172010
-0.0089788157 -0.15986437 1.205893 3172012
0.0010587508 -0.15939115 1.2066633 3237802
0.011723083 -0.15865475 1.2060862 3303338
0.020927615 -0.15864009 1.2062713 3369133
0.031238981 -0.15839571 1.2045298 3369388
0.04137174 -0.15803045 1.2038157 3303853
0.050649296 -0.15685548 1.2017376 3369643
0.060751345 -0.1560367 1.2001902 3303851
-0.055940751 -0.14451918 1.1999093 3303598
-0.04781669 -0.14727946 1.2016662 3303341
-0.039239306 -0.14891967 1.2051148 3303340
-0.029883694 -0.15026712 1.2079846 3369132
-0.021704324 -0.15211794 1.2080086 3303600
0.011714382 -0.15197682 1.207953 3303598
0.024390442 -0.1519233 1.2079318 3435186
0.031880841 -0.15189168 1.2079192 3369391
0.041675977 -0.15185031 1.2079029 3369392
0.051475681 -0.14890546 1.207213 3369390
0.061034244 -0.14786246 1.2035917 3435184
0.070407778 -0.14627478 1.1997442 3369392
-0.056921672 -0.13750485 1.2005707 3369646
-0.049772795 -0.13970627 1.2054044 3303853
-0.042486198 -0.14298838 1.207859 3173034
0.053383067 -0.14074013 1.2076621 3566773
0.061562385 -0.13940871 1.2069558 3566516
0.071361288 -0.13753909 1.2039689 3500977
0.081276923 -0.13820033 1.2012501 3500975
-0.067141905 -0.12559976 1.1995486 3632562
-0.058245491 -0.12858117 1.2025948 3501236
-0.050723288 -0.12864327 1.2071406 3501494
0.073554933 -0.12838444 1.207383 3698612
0.081119418 -0.12873507 1.205014 3567283
0.089966938 -0.12630595 1.2022479 3567283
0.097368091 -0.12327006 1.1992414 3501747
-0.074378535 -0.11598344 1.1993678 3895478
-0.068781421 -0.11845173 1.2019087 3698613
-0.05988184 -0.11929318 1.206079 3633080
0.074967191 -0.12175357 1.2072482 3699128
0.081513256 -0.11853532 1.2071735 3830713
0.090990663 -0.11813001 1.2059501 3699126
0.09779872 -0.1168588 1.1991124 3633333
-0.075720921 -0.10797731 1.1992097 3961271
-0.068963915 -0.10831273 1.2042067 3896247
-0.06221376 -0.11081119 1.2072467 3764921
0.081377313 -0.11158748 1.2070347 3962300
0.092229187 -0.10903883 1.2064959 3896506
0.099754289 -0.1072168 1.200917 3764920
-0.077120826 -0.098636918 1.2005254 3830712
-0.070255607 -0.098085038 1.2056712 4093627
0.095148861 -0.09816426 1.2067443 4028352
0.10053155 -0.097637989 1.2013909 3962812
-0.077564001 -0.088314302 1.2008197 3962556
-0.071113884 -0.089315102 1.2063862 4028606
0.094577804 -0.087764308 1.2065372 4357317
0.10098423 -0.088003919 1.2025311 4225985
0.10636048 -0.084317617 1.1984481 4225985
-0.077110648 -0.079305395 1.2006388 4028606
-0.07233499 -0.079361528 1.2066336 4094655
0.095070422 -0.079730019 1.2063757 4554695
0.10088968 -0.077637061 1.2017238 4554182
0.10708793 -0.075921223 1.1982789 4619462
-0.077840894 -0.068687543 1.1988978 4159424
-0.069860369 -0.067545071 1.2051623 4160448
-0.063557357 -0.065882593 1.2063501 4554440
0.095474482 -0.066363245 1.2061077 4620747
0.1010471 -0.067401171 1.2038692 4686026
0.10743704 -0.068289459 1.1981257 4619977
-0.07726267 -0.059032578 1.1982331 4291265
-0.069190726 -0.05890508 1.2034689 4357573
-0.063586771 -0.05896974 1.2062118 4751563
0.010537529 -0.055968381 1.2060344 4818903
0.018216722 -0.055167846 1.2060062 4819160
0.093594417 -0.05784519 1.2059404 4752590
0.10100555 -0.058201194 1.2036853 4817869
0.10625818 -0.06028264 1.1979674 4752076
-0.075315878 -0.04944038 1.1980382 4291778
-0.069320142 -0.048642926 1.2015924 4554440
-0.063621104 -0.050904758 1.2060505 4883149
-0.045067254 -0.043833449 1.201879 5674209
-0.039324455 -0.043809202 1.2018694 5082331
-0.027945597 -0.04656266 1.2037735 4950745
-0.018622715 -0.048308145 1.2013265 4884953
-0.0094353575 -0.048264209 1.201111 4753366
0.00089091156 -0.047100067 1.2022716 4884692
0.011483714 -0.048694637 1.201442 4884692
0.020241834 -0.047922358 1.2020679 4884692
0.030438192 -0.046639975 1.2044827 4950484
0.041378565 -0.047579408 1.202706 4950488
0.050158836 -0.047262572 1.2036794 4950489
0.060761474 -0.045749582 1.2046835 5411037
0.069744781 -0.045444943 1.2057301 5542623
0.083852723 -0.043369096 1.2056662 5213404
0.091643482 -0.046216603 1.2057109 5081558
0.099957928 -0.048469614 1.2033422 5015248
-0.070127264 -0.038954075 1.1978202 4685772
-0.047900546 -0.038374584 1.1988646 5542365
-0.038929436 -0.038516011 1.1989051 4951002
-0.030161917 -0.039528534 1.1977683 4884951
-0.020891879 -0.041362286 1.1977904 4753366
-0.0071597435 -0.040159758 1.1977446 4950484
0.0017132862 -0.040408425 1.1977355 5015763
0.031766631 -0.041139938 1.1977025 5015764
0.038635127 -0.041110937 1.1976911 4885461
0.050569069 -0.040079508 1.1976515 4884950
0.061356891 -0.038933638 1.199458 5082072
0.070733115 -0.037696302 1.2023729 5542624
0.080322072 -0.038765453 1.2047796 5279197
0.090464205 -0.037530083 1.2019383 5213144
0.097777307 -0.040098179 1.1975771 5212627
0.064925417 -0.03184358 1.197464 5016538
0.07064186 -0.030102625 1.1974201 5213917
0.080170885 -0.027582549 1.1973547 5345245
0.090532154 -0.029834867 1.1980501 5213917
0.18175507 -0.031434104 1.2052724 13158081
-0.0090441685 -0.15481445 1.2120434 3303598
0.0036737956 -0.15476075 1.2120222 3303850
-0.037531424 -0.14429981 1.2118783 3303853
-0.02775358 -0.1458472 1.2122509 3304111
-0.018171251 -0.14789033 1.2140251 3303857
-0.0090907365 -0.1481638 1.214661 3303856
0.0013382528 -0.14814618 1.2148942 3369903
0.01173261 -0.14663494 1.2118469 3435441
0.02080337 -0.14750925 1.21185 3435187
0.031278707 -0.14682762 1.2118198 3500978
0.041793257 -0.14650799 1.2117968 3369649
0.048492201 -0.14486137 1.2117532 3435441
-0.045733571 -0.13685918 1.2117424 3370159
-0.039178614 -0.13760215 1.2117469 3370416
-0.028818313 -0.13777623 1.2139844 3436469
-0.018437933 -0.13800021 1.216723 3502005
-0.0091504063 -0.137961 1.2167075 3501749
0.0013128761 -0.141399 1.2167597 3501493
0.011733189 -0.13774784 1.2154199 3567542
0.021029225 -0.13780232 1.216344 3567541
0.031439379 -0.13764106 1.2151365 3633333
0.041786194 -0.13734865 1.2125512 3567541
0.050378118 -0.13660157 1.211585 3633079
0.060405981 -0.13437431 1.2115246 3632566
-0.046155039 -0.12838385 1.2115736 3501750
-0.039293211 -0.12857567 1.214067 3567798
-0.03088944 -0.1290348 1.2165633 3633848
-0.017301694 -0.13219176 1.2166051 3633591
-0.010336045 -0.13216235 1.2165934 3699128
0.011716884 -0.1309085 1.2165334 3830714
0.022165349 -0.13086438 1.2165159 3764921
0.031659912 -0.1298746 1.2164811 3830712
0.042211611 -0.12892275 1.2160882 3830713
0.050920375 -0.12859207 1.2157581 3830458
0.061245076 -0.12832162 1.2137711 3764409
0.069360204 -0.12678826 1.2119143 3764407
-0.055219468 -0.117556 1.2113713 3698874
-0.048597638 -0.11816731 1.2136235 3764923
-0.040031713 -0.11876863 1.2163725 3765435
-0.033594374 -0.12297471 1.2164464 3699641
0.060054827 -0.12257928 1.2162902 3896252
0.070160531 -0.11812116 1.2135655 3831226
0.077511802 -0.11745794 1.2111591 3830458
-0.057898942 -0.10810824 1.2119762 3896508
-0.048750822 -0.1079492 1.21617 4028352
-0.040853463 -0.1086123 1.2161707 4094143
0.071387887 -0.1082307 1.2124131 4159936
0.080704495 -0.10696366 1.2109442 4028352
0.08873412 -0.10556187 1.2109034 3962559
-0.065937981 -0.098412164 1.2110053 4093628
-0.05903374 -0.098432288 1.211745 4028352
-0.048777241 -0.09864413 1.2156713 4094401
-0.042063795 -0.097010098 1.2159405 4225986
0.07281819 -0.099007532 1.2144346 4357317
0.081084311 -0.097970814 1.2135767 4225732
0.089913934 -0.097522892 1.2107407 4159938
-0.066970453 -0.088673346 1.2108122 4028609
-0.058787797 -0.088684089 1.2121633 3963330
-0.049447667 -0.088629395 1.2157845 4160708
-0.043015271 -0.09167476 1.2158353 4292035
0.075375959 -0.085371204 1.2155217 4620236
0.080837399 -0.088106923 1.2141786 4488649
0.089307487 -0.08877565 1.2105668 4357318
-0.068170205 -0.078439824 1.2106094 4160449
-0.059561905 -0.078507021 1.2142935 4160708
-0.050269414 -0.078473061 1.2155827 4489161
0.081907585 -0.078821257 1.2143086 4555212
0.09017615 -0.077639103 1.2103425 4620489
-0.16036411 -0.070116371 1.21559 14082013
-0.066825196 -0.071057953 1.2104596 4226242
-0.058727253 -0.068684697 1.2128998 4620234
-0.051635865 -0.066561989 1.2153467 5079759
-0.017583251 -0.066031292 1.2152821 6791922
-0.0094616115 -0.064836271 1.2152454 5608162
0.00098685455 -0.064792156 1.2152278 5016279
0.011114798 -0.066809162 1.2138883 5608413
0.019564372 -0.065294072 1.2152085 4950485
0.026527546 -0.064684309 1.2151853 5016277
0.084589392 -0.06792134 1.215158 4752847
0.090487897 -0.067972153 1.2119137 4620747
-0.059441302 -0.059810575 1.2112231 4948687
-0.048943464 -0.062681511 1.2152648 5408980
-0.027394574 -0.059496537 1.2132435 6134248
-0.018737853 -0.058995601 1.2126427 5344990
-0.0098014269 -0.059135251 1.2129885 4884696
0.001367392 -0.05912983 1.2130548 4818902
0.011828088 -0.060399182 1.2101219 4818646
0.020953467 -0.059262879 1.2107991 4818646
0.031062659 -0.05875985 1.2118089 4884696
0.041147314 -0.058222491 1.211818 5344733
0.050397452 -0.058171537 1.2114451 5936870
0.060124796 -0.057553463 1.2141559 5608416
0.069216564 -0.056611091 1.2149562 5082072
0.082014784 -0.057391349 1.2119509 5016278
0.088362202 -0.058920056 1.209971 4884178
-0.027975943 -0.053169049 1.2100402 5082331
0.00092852395 -0.053047001 1.2099921 4687574
0.024052098 -0.052949362 1.2099534 4687574
0.031977367 -0.05225534 1.2099271 4819159
0.039082415 -0.052885897 1.2099284 4950233
0.051800381 -0.052832197 1.2099072 5542369
0.060530491 -0.051510926 1.2098669 5805540
0.073367633 -0.049273223 1.2098018 5213659
0.080690086 -0.049242307 1.2097896 5147866
0.089562327 -0.051131457 1.2098134 5081557
0.0013014311 -0.13714084 1.2206752 3633335
-0.026274081 -0.12667054 1.2205095 3699641
-0.018748004 -0.12708715 1.220506 3765177
-0.0090276692 -0.12718794 1.22214 3830714
0.0012676632 -0.12807605 1.2233746 3962299
0.011740417 -0.12550786 1.2210929 4028092
0.020561915 -0.12627015 1.2207131 3962300
0.030074939 -0.12585905 1.2211314 3962299
0.039631262 -0.12448679 1.2225841 3962299
0.052027039 -0.12341799 1.2203205 3896509
0.061808955 -0.12291086 1.2202948 3830714
-0.036059778 -0.11633687 1.2203183 3962813
-0.029490415 -0.11800321 1.2221195 3962813
-0.018528186 -0.11912813 1.2243472 4028350
-0.0092769023 -0.12121332 1.2243743 4093886
-0.0022655465 -0.12118372 1.2243626 4093886
0.011742251 -0.11761954 1.2242692 4291263
0.021090727 -0.11758006 1.2242535 4291265
0.030439202 -0.11754059 1.2242379 4291265
0.040956236 -0.11749619 1.2242204 4225471
0.051362526 -0.11725131 1.2216985 4159424
0.060619421 -0.11709319 1.2201803 4028351
-0.037264168 -0.10702565 1.220134 4159681
-0.031716328 -0.1086956 1.2230684 4159937
0.011707446 -0.10944124 1.2241056 4685507
0.021285657 -0.10846613 1.2240709 4685766
0.030166708 -0.10842863 1.2240561 4685768
0.042192608 -0.10846282 1.2240378 4685254
0.051422045 -0.1080864 1.2237655 4553924
0.06059169 -0.10779437 1.2202444 4357059
0.066393629 -0.10542342 1.2199378 4291524
-0.038278181 -0.099092238 1.2203103 4291267
-0.032491527 -0.098126255 1.2231492 4291525
0.02219465 -0.10238687 1.2239479 5080013
0.029206008 -0.10235727 1.2239362 5013964
0.04437739 -0.097619817 1.2238173 5014215
0.051388748 -0.097590208 1.2238057 4948424
0.060695648 -0.097497202 1.222989 4686025
0.068309732 -0.096896775 1.2213645 4554696
-0.045506626 -0.086098738 1.2197285 4423366
-0.039964139 -0.088196211 1.2216287 4489158
-0.033945929 -0.090940438 1.2238079 4554697
0.044332638 -0.087104864 1.2236072 6725605
0.051578704 -0.087307937 1.2235997 5541334
0.060692471 -0.08703579 1.2235799 4949456
0.070678331 -0.088183276 1.2220628 4752076
-0.046711031 -0.076787502 1.2195442 4751821
-0.040966224 -0.078054763 1.2222276 4817612
-0.015318587 -0.074504912 1.2234496 6133729
-0.012981467 -0.074495047 1.2234457 5804510
0.011561597 -0.075170308 1.2234204 6726116
0.019738199 -0.074356884 1.2233912 6791913
0.032592352 -0.074302614 1.2233697 5673696
0.041304883 -0.077381417 1.2234174 5344728
0.052472781 -0.077723712 1.2234066 5475805
0.060652696 -0.077689171 1.223393 5147095
0.071095496 -0.07758908 1.2221742 4949712
0.079656914 -0.074507117 1.2192984 4621777
0.18801075 -0.073646367 1.2231103 11781308
-0.049065296 -0.070974752 1.2194316 4883150
-0.040143818 -0.068996184 1.2193779 6001884
-0.029279426 -0.067397594 1.2193286 6133474
-0.017639924 -0.070211902 1.2209669 6067939
-0.0097956974 -0.069479413 1.2204306 6594284
0.0012235465 -0.068162479 1.2203869 6002915
0.012203514 -0.071414769 1.2193433 6857704
0.021215456 -0.069347933 1.2199545 6397928
0.030410375 -0.068621472 1.2211257 6397674
0.039450906 -0.06876041 1.2216476 6002659
0.05145286 -0.068419501 1.2221552 5476060
0.060525421 -0.068276495 1.2214545 5213402
0.071086206 -0.069432393 1.2224112 5081814
0.081148952 -0.0683892 1.2197891 4818898
0.19091101 -0.068668641 1.2230061 12896707
