# .PCD v0.7 - Point Cloud Data file format
VERSION 0.7
FIELDS x y z rgba
SIZE 4 4 4 4
TYPE F F F U
COUNT 1 1 1 1
WIDTH 174
HEIGHT 1
VIEWPOINT 0 0 0 1 0 0 0
POINTS 174
DATA ascii
-0.4272007 0.076010056 1.0543208 5134174
-0.42027438 0.075832658 1.0545145 5134176
-0.42866248 0.080442183 1.054914 4871515
-0.43170077 0.056261957 1.0584055 4936281
-0.42096457 0.055930525 1.0586976 5199967
-0.41619602 0.056925267 1.058992 5397348
-0.44113627 0.061140008 1.0585072 4673880
-0.43340957 0.062480919 1.0570071 4870232
-0.42410666 0.06440039 1.0583036 5068382
-0.4146139 0.066685423 1.0594852 5068384
-0.40731454 0.069643088 1.0611079 4476504
-0.44347253 0.070414163 1.0583897 4607822
-0.43652147 0.072066136 1.0575001 4673623
-0.42562231 0.073580831 1.0580637 5134174
-0.4156144 0.076574557 1.0588125 4739419
-0.40798765 0.077746622 1.0605227 4081746
-0.44546697 0.078252271 1.061142 4410445
-0.43743593 0.081423886 1.0588212 4213839
-0.4274632 0.084022991 1.0595118 4345429
-0.41752824 0.085677274 1.060065 4016211
-0.40953255 0.086837485 1.0616518 3621193
-0.43797955 0.08682017 1.0595824 3884109
-0.42900836 0.089685678 1.0602798 3752784
-0.41880414 0.091745771 1.0609001 3621192
-0.41144851 0.09217643 1.061195 3686459
-0.43767554 0.041262947 1.0665944 4673626
-0.42945385 0.042441115 1.0641533 4870741
-0.42026165 0.043151826 1.0647334 5265754
-0.41057462 0.045857884 1.0657007 5397604
-0.40289497 0.049828433 1.0695087 4608350
-0.44041362 0.050355345 1.063848 4673629
-0.43184108 0.050879173 1.0620048 4870744
-0.42324239 0.051130317 1.0619763 5134174
-0.41161662 0.055488229 1.0636322 5397606
-0.40381092 0.057344027 1.0683584 4476760
-0.39860672 0.062226705 1.0714331 4015442
-0.44907477 0.056309201 1.0689816 3883351
-0.44551107 0.057774097 1.0640492 4475995
-0.41205776 0.062089257 1.0639113 5068641
-0.40383008 0.06675344 1.0669196 4082513
-0.3983826 0.068441644 1.0718312 3752531
-0.44874719 0.067381896 1.0641198 4079443
-0.4037759 0.076061659 1.0677054 3621705
-0.39895669 0.074244313 1.0707295 3751503
-0.40688139 0.083294936 1.0671343 3490378
-0.42296013 0.024241034 1.0763015 5002588
-0.41982895 0.024873178 1.0764918 5528419
-0.43535489 0.031444479 1.0769483 4739163
-0.4275794 0.030511048 1.0740834 5002333
-0.4182207 0.032098725 1.0745525 5397092
-0.40966257 0.035692733 1.0767138 5332066
-0.40404326 0.037765868 1.0788515 4740695
-0.43739802 0.03577188 1.0722009 4082256
-0.43030429 0.036276646 1.0707294 5068120
-0.40805432 0.041032352 1.0741415 5200736
-0.4007687 0.045611218 1.0771922 4345175
-0.39429036 0.048558988 1.0801396 4278096
-0.39997345 0.055810966 1.075374 4147028
-0.39529118 0.055723898 1.079638 3819087
-0.39689547 0.0635195 1.07693 3687502
-0.41383883 0.012524653 1.0860194 5528423
-0.40973276 0.013898119 1.0863476 5397348
-0.42536929 0.018878158 1.0811797 4804702
-0.41602829 0.020635847 1.081143 5462626
-0.4070352 0.02274733 1.0843401 5003105
-0.3998712 0.027658198 1.0862188 4804440
-0.43643266 0.02664021 1.083297 3817824
-0.42970464 0.024759971 1.0791954 4673622
-0.41400686 0.027929138 1.0801495 5660265
-0.40709361 0.03089764 1.0807966 5069150
-0.39888805 0.035126306 1.0836881 4475986
-0.39443612 0.040361874 1.0845844 4014924
-0.39735046 0.042104915 1.0827218 4606547
-0.39224991 0.045526356 1.0838823 3620428
-0.41907343 0.0036098268 1.0916436 4079956
-0.41233888 0.0042847488 1.0896437 5266270
-0.40676725 0.0055464022 1.0923126 5002845
-0.42308465 0.0093107633 1.0903174 4079963
-0.41504261 0.0085814521 1.0884451 5330781
-0.405247 0.012580909 1.090997 5002331
-0.40318969 0.019272834 1.0903627 5001816
-0.39972293 0.022691905 1.0921786 4540755
-0.39671758 0.030406553 1.0921737 4213074
-0.41138887 -0.0072480571 1.1024508 5265766
-0.41347924 -0.0027535073 1.1001449 5068639
-0.40528294 0.0006408263 1.1004126 4214103
-0.42259985 0.0024524741 1.0954084 1580089
-0.4022606 0.0083184093 1.0975724 4145996
-0.4007394 0.014563013 1.0978476 4212054
-0.41755474 -0.0099659897 1.1048959 3618132
-0.41195846 -0.0099463705 1.105076 5199718
-0.40573552 -0.0075798482 1.1056143 4214875
-0.39554217 -0.068255439 1.1133577 528927
-0.39039481 -0.06789162 1.1135731 1517876
-0.38961512 -0.079380527 1.1240706 4419983
-0.40574446 -0.075464085 1.1221033 1651559
-0.40047228 -0.073194161 1.1194208 1782104
-0.38804659 -0.072938353 1.1177211 4154236
-0.38381448 -0.069161259 1.1222627 3028033
-0.39920011 -0.066532604 1.1256207 2369321
-0.39141506 -0.06457255 1.1225108 2040105
-0.40290296 -0.047333647 1.1242296 4146252
-0.40475968 -0.081609115 1.1313565 5077683
-0.39752138 -0.082575671 1.1300983 4617364
-0.38822085 -0.081079632 1.1306087 4549258
-0.38405284 -0.074423969 1.1290052 6582660
-0.40797976 -0.070126444 1.1288676 7695014
-0.4012318 -0.065074809 1.1304839 2040625
-0.39353219 -0.062189251 1.13047 2172202
-0.38589385 -0.065667599 1.13021 2760198
-0.3972064 -0.093055248 1.1380311 4683677
-0.39162901 -0.091929242 1.1383702 3831442
-0.40604013 -0.087715715 1.1373665 3299734
-0.39864832 -0.088264316 1.1361036 4683420
-0.39018759 -0.087192252 1.1374818 3960460
-0.38951004 -0.16690932 1.1407617 3829135
-0.38165367 -0.16483602 1.1413096 4223637
-0.37547019 -0.16404159 1.1416199 3960467
-0.39222044 -0.15797459 1.1419649 3498881
-0.38405648 -0.15580903 1.1421313 3895695
-0.37665701 -0.15302381 1.1431718 3631246
-0.39429742 -0.14667436 1.1404967 3499128
-0.38704306 -0.14602074 1.1408207 4025235
-0.37868163 -0.14362073 1.1433089 3499655
-0.3955529 -0.13717172 1.1398062 3826560
-0.38896525 -0.13595569 1.1406956 4156303
-0.38113606 -0.13527185 1.1435692 3630985
-0.39735135 -0.12832388 1.1440581 3893387
-0.3909111 -0.12649378 1.1429536 4157333
-0.38388449 -0.12484572 1.1454916 3762828
-0.39748123 -0.12005138 1.147269 3762325
-0.39231411 -0.11591222 1.1443233 4420507
-0.38627023 -0.11517974 1.146979 3828877
-0.40142861 -0.10686737 1.1490459 4222878
-0.39391187 -0.10669851 1.1455345 4552347
-0.38785985 -0.10629746 1.1487491 3631755
-0.40457895 -0.098738901 1.1444582 3627913
-0.39570507 -0.098398566 1.142699 4683676
-0.3890523 -0.096154623 1.1462047 3892613
-0.38962886 -0.087847494 1.1440766 3563127
-0.38924694 -0.17754611 1.1447232 3033484
-0.38096765 -0.17720394 1.1474556 2897991
-0.37125912 -0.1743654 1.1476769 3891064
-0.36407965 -0.17238089 1.1498753 2638186
-0.39499778 -0.16932017 1.1442837 666715
-0.38387302 -0.1693453 1.1446322 4813457
-0.37118122 -0.16380222 1.1458337 3499654
-0.36430091 -0.16279794 1.1499206 3561592
-0.39796817 -0.15839754 1.1457653 6722
-0.37325481 -0.15457718 1.1470989 3694979
-0.36694095 -0.15332051 1.1495017 3233144
-0.37383395 -0.14417374 1.1485813 3104639
-0.36935404 -0.14369258 1.1520089 2640231
-0.37649313 -0.13489157 1.1498362 2907007
-0.37234527 -0.13480049 1.1545753 3099492
-0.40093976 -0.12743637 1.1501377 4089741
-0.37884888 -0.12572527 1.1514449 3496061
-0.37500289 -0.12445054 1.1564438 4278874
-0.40032744 -0.11913025 1.1513553 2972810
-0.38163769 -0.11596163 1.1537825 3757171
-0.37779599 -0.11679823 1.1574593 3748927
-0.40037492 -0.11329519 1.1521956 3630740
-0.38250959 -0.1085195 1.15345 3953004
-0.3804813 -0.1841239 1.1517053 984897
-0.37101561 -0.17828761 1.1528469 4350584
-0.36585411 -0.15306757 1.1573224 4674411
-0.3677251 -0.14515047 1.160764 6974583
-0.37170202 -0.13473925 1.16214 3815753
-0.40489346 -0.13017265 1.1587154 5799072
-0.3727442 -0.12485975 1.1604996 5064001
-0.36491102 -0.16060358 1.1687323 7039097
-0.36639029 -0.15519011 1.1704772 7565430
-0.36882591 -0.14687228 1.1712631 8223350
-0.37064129 -0.13824457 1.167733 9076613
