# .PCD v0.7 - Point Cloud Data file format
VERSION 0.7
FIELDS x y z rgba
SIZE 4 4 4 4
TYPE F F F U
COUNT 1 1 1 1
WIDTH 174
HEIGHT 1
VIEWPOINT 0 0 0 1 0 0 0
POINTS 174
DATA ascii
-0.41594994 0.081562981 1.0825773 5134174
-0.40911132 0.080790184 1.0817533 5134176
-0.41691312 0.086085513 1.083444 4871515
-0.42154118 0.062165238 1.0869805 4936281
-0.41094708 0.060911357 1.0856942 5199967
-0.4061169 0.061487235 1.0853029 5397348
-0.4303945 0.067825601 1.088534 4673880
-0.4228774 0.068543576 1.0859401 4870232
-0.41335186 0.069625996 1.0858908 5068382
-0.40362355 0.071059488 1.0857053 5068384
-0.39593378 0.073337786 1.0862869 4476504
-0.43189409 0.077264912 1.0888981 4607822
-0.42502573 0.078341961 1.0870264 4673623
-0.41406867 0.078905374 1.0860124 5134174
-0.40383244 0.081012741 1.0853339 4739419
-0.39596525 0.081482276 1.0859276 4081746
-0.43276933 0.085165404 1.0920293 4410445
-0.42490897 0.087703474 1.0886066 4213839
-0.4147507 0.08942242 1.08787 4345429
-0.404733 0.090207376 1.0869889 4016211
-0.39652106 0.090637058 1.0874064 3621193
-0.42485771 0.093103327 1.0895197 3884109
-0.41566202 0.095172845 1.0889403 3752784
-0.4053334 0.096337155 1.0880922 3621192
-0.39800331 0.096130542 1.0873146 3686459
-0.42757335 0.047509708 1.0957299 4673626
-0.41971868 0.04804942 1.0921307 4870741
-0.41051257 0.047957204 1.0913706 5265754
-0.40058649 0.049799398 1.0909511 5397604
-0.39211681 0.052993603 1.0936539 4608350
-0.42986459 0.056874983 1.09355 4673629
-0.42163563 0.056716532 1.0904808 4870744
-0.41314301 0.056234062 1.0891987 5134174
-0.40106067 0.059537038 1.0892016 5397606
-0.3925212 0.060588859 1.0927624 4476760
-0.38651651 0.064922951 1.0951154 4015442
-0.43713307 0.063401565 1.0999835 3883351
-0.43420351 0.064693049 1.0946054 4475995
-0.40087155 0.066141382 1.0896407 5068641
-0.39191595 0.070001818 1.0914826 4082513
-0.38568863 0.071082719 1.0955695 3752531
-0.43653327 0.074536212 1.0952921 4079443
-0.39092612 0.079246178 1.0923913 3621705
-0.3859005 0.076941468 1.0946504 3751503
-0.39342976 0.086730994 1.0923886 3490378
-0.41317368 0.029032735 1.1029251 5002588
-0.41000432 0.029390005 1.1026647 5528419
-0.42465922 0.037246428 1.1054852 4739163
-0.41749221 0.035732828 1.1015004 5002333
-0.40806049 0.03650292 1.1006194 5397092
-0.39899611 0.03929273 1.1015592 5332066
-0.39296597 0.040819108 1.1028827 4740695
-0.42697576 0.041861989 1.101153 4082256
-0.42015231 0.041800402 1.0986674 5068120
-0.39731044 0.044544838 1.0988594 5200736
-0.38928467 0.048399463 1.1008799 4345175
-0.38221365 0.050701283 1.1028918 4278096
-0.38786167 0.058540605 1.0991176 4147028
-0.38263899 0.057936572 1.1026492 3819087
-0.38392192 0.065912515 1.1003218 3687502
-0.40381673 0.016316751 1.1110282 5528423
-0.39960113 0.017325396 1.1107727 5397348
-0.4153178 0.023761986 1.1080225 4804702
-0.40596157 0.024716908 1.1066463 5462626
-0.39645001 0.025964415 1.1085248 5003105
-0.38868397 0.030192504 1.1094087 4804440
-0.42522949 0.032377809 1.1118509 3817824
-0.41935706 0.030044766 1.1067816 4673622
-0.40346795 0.031835891 1.105477 5660265
-0.39629865 0.034184895 1.1051502 5069150
-0.38742018 0.037616685 1.1068735 4475986
-0.38244024 0.042426661 1.1071872 4014924
-0.38542733 0.04446277 1.1057971 4606547
-0.37993038 0.047403298 1.1062502 3620428
-0.40895182 0.0077287108 1.1172235 4079956
-0.40254357 0.0078818407 1.1142704 5266270
-0.39655548 0.008589372 1.1161144 5002845
-0.41259262 0.013785494 1.1165836 4079963
-0.40500149 0.012425 1.1135446 5330781
-0.39462522 0.015502272 1.1146959 5002331
-0.39209759 0.022009319 1.1138675 5001816
-0.38811639 0.025068698 1.1152079 4540755
-0.38447309 0.03249608 1.1148788 4213074
-0.40077767 -0.0040398259 1.1266271 5265766
-0.40277347 0.00067869946 1.1247191 5068639
-0.39435676 0.0033528842 1.1238359 4214103
-0.41198602 0.006772643 1.1214459 1580089
-0.39110935 0.010820331 1.1206994 4145996
-0.3890183 0.016902426 1.1208423 4212054
-0.40674177 -0.0062885582 1.1299068 3618132
-0.40119857 -0.0067513101 1.1292666 5199718
-0.39477849 -0.0049399752 1.1289245 4214875
-0.38897857 -0.066454768 1.1341858 528927
-0.38384223 -0.066537403 1.1336515 1517876
-0.38257378 -0.078336932 1.1437492 4419983
-0.39840809 -0.073006153 1.1442208 1651559
-0.3933987 -0.071120828 1.1408302 1782104
-0.38137519 -0.071878836 1.1373354 4154236
-0.37621444 -0.068603553 1.1412654 3028033
-0.3906607 -0.064766124 1.1468763 2369321
-0.3832638 -0.063391931 1.1426909 2040105
-0.39281356 -0.045290198 1.1463289 4146252
-0.39664474 -0.079466403 1.1531374 5077683
-0.38977805 -0.081011616 1.15082 4617364
-0.38040584 -0.080328979 1.1499867 4549258
-0.3759411 -0.074011251 1.1478907 6582660
-0.3991625 -0.067686483 1.1513183 7695014
-0.39183199 -0.063275449 1.1520056 2040625
-0.38399041 -0.061057836 1.1509089 2172202
-0.37680742 -0.065166466 1.1494826 2760198
-0.38924867 -0.091695294 1.1584638 4683677
-0.3836033 -0.09105891 1.1580002 3831442
-0.39757878 -0.08560545 1.1591783 3299734
-0.39052457 -0.086747348 1.1568397 4683420
-0.38189217 -0.086439356 1.1569816 3960460
-0.38779861 -0.16598386 1.1589351 3829135
-0.37979326 -0.16460414 1.1583589 4223637
-0.373584 -0.16434889 1.1577734 3960467
-0.38950622 -0.15688722 1.1606551 3498881
-0.38124466 -0.15543132 1.1596582 3895695
-0.37355554 -0.1533172 1.1596466 3631246
-0.39076614 -0.14541475 1.1596756 3499128
-0.38351199 -0.14539146 1.1589448 4025235
-0.3746998 -0.14378309 1.160219 3499655
-0.39126313 -0.13582419 1.1593182 3826560
-0.38453466 -0.13519955 1.1592526 4156303
-0.37634307 -0.13526571 1.1609602 3630985
-0.39163941 -0.12697624 1.1639193 3893387
-0.38528982 -0.12567224 1.1619122 4157333
-0.3778525 -0.12470033 1.1634196 3762828
-0.3905724 -0.11881479 1.167238 3762325
-0.38553929 -0.11505153 1.1636305 4420507
-0.37913445 -0.11491095 1.1653842 3828877
-0.39304063 -0.10539637 1.16977 4222878
-0.38612449 -0.10577216 1.1651999 4552347
-0.37966022 -0.10597783 1.1675004 3631755
-0.39608929 -0.09690503 1.1658143 3627913
-0.38756743 -0.097274266 1.1627816 4683676
-0.38030615 -0.095703766 1.1653097 3892613
-0.38044721 -0.087322049 1.1634132 3563127
-0.38790771 -0.17670983 1.1626559 3033484
-0.37932315 -0.17715079 1.1641529 2897991
-0.36947191 -0.17515785 1.1629944 3891064
-0.36190319 -0.17385447 1.1641484 2638186
-0.39291173 -0.16801436 1.1631854 666715
-0.38189948 -0.16899787 1.1619027 4813457
-0.36872736 -0.16459285 1.1613177 3499654
-0.36126748 -0.16429251 1.1643689 3561592
-0.39465964 -0.15692337 1.1652486 6722
-0.36977273 -0.15526313 1.1630102 3694979
-0.36309198 -0.15461649 1.1644824 3233144
-0.36920971 -0.14489318 1.1647168 3104639
-0.36425701 -0.1448909 1.1674591 2640231
-0.37082866 -0.13545634 1.1664857 2907007
-0.36604834 -0.13585049 1.1705681 3099492
-0.39421973 -0.12595442 1.1704708 4089741
-0.37210774 -0.12617053 1.1685586 3496061
-0.36748275 -0.12536725 1.1729597 4278874
-0.39270607 -0.11776766 1.1717099 2972810
-0.37365553 -0.11627301 1.1714246 3757171
-0.36941236 -0.11753561 1.174487 3748927
-0.39211565 -0.1119753 1.1726352 3630740
-0.37390488 -0.10877731 1.1713345 3953004
-0.378842 -0.18420191 1.1681819 984897
-0.36883217 -0.17922804 1.1680139 4350584
-0.36086923 -0.15467362 1.1720629 4674411
-0.36151633 -0.14672405 1.1758591 6974583
-0.36431667 -0.13605362 1.1779574 3815753
-0.3971197 -0.12857975 1.1794927 5799072
-0.36470726 -0.12607965 1.1766349 5064001
-0.35895854 -0.16257535 1.1830982 7039097
-0.3596859 -0.15710579 1.1851214 7565430
-0.3612375 -0.14863548 1.1863793 8223350
-0.3627736 -0.13979001 1.1832821 9076613
