# .PCD v0.7 - Point Cloud Data file format
VERSION 0.7
FIELDS x y z rgba
SIZE 4 4 4 4
TYPE F F F U
COUNT 1 1 1 1
WIDTH 174
HEIGHT 1
VIEWPOINT 0 0 0 1 0 0 0
POINTS 174
DATA ascii
-0.4136937 0.085657969 1.0851713 5134174
-0.40682444 0.084938996 1.084589 5134176
-0.41472265 0.090173587 1.0859976 4871515
-0.41928166 0.066220865 1.0894017 4936281
-0.40863931 0.065050356 1.0884899 5199967
-0.40380311 0.065664403 1.0882676 5397348
-0.42822883 0.071811914 1.0906358 4673880
-0.42063123 0.072587207 1.0883064 4870232
-0.41111875 0.073745683 1.0885901 5068382
-0.40140161 0.075256705 1.0887443 5068384
-0.39375538 0.077597037 1.0895926 4476504
-0.42981529 0.081239328 1.0909343 4607822
-0.42289424 0.082369253 1.0893034 4673623
-0.41191313 0.083019167 1.0886739 5134174
-0.40167648 0.085207567 1.0883526 4739419
-0.39383897 0.085740626 1.0892214 4081746
-0.43086278 0.089135915 1.0940222 4410445
-0.42290747 0.091733083 1.0908741 4213839
-0.4127436 0.093532398 1.0904924 4345429
-0.40270773 0.094396472 1.0899624 4016211
-0.39451915 0.094892241 1.0906675 3621193
-0.42293125 0.097134143 1.0917813 3884109
-0.41373765 0.099276498 1.0915222 3752784
-0.40339521 0.10052243 1.0910357 3621192
-0.39604092 0.1003736 1.0905162 3686459
-0.42550069 0.051526926 1.0979538 4673626
-0.41752896 0.052125581 1.0946318 4870741
-0.40830141 0.052106149 1.0941955 5265754
-0.39838171 0.0540272 1.0941222 5397604
-0.39003783 0.057291888 1.0971164 4608350
-0.42778835 0.060871258 1.095682 4673629
-0.41945565 0.060775325 1.0929039 4870744
-0.4109197 0.060359389 1.0919214 5134174
-0.39887157 0.063758872 1.0923439 5397606
-0.39047104 0.064882733 1.0962009 4476760
-0.38458735 0.069267191 1.0987576 4015442
-0.43532994 0.067346394 1.1018475 3883351
-0.43222368 0.068655506 1.0965739 4475995
-0.39875051 0.070364967 1.0927806 5068641
-0.38989609 0.074298844 1.0949306 4082513
-0.38382494 0.075433865 1.0992321 3752531
-0.43465436 0.07848046 1.0971651 4079443
-0.38901231 0.083551794 1.095861 3621705
-0.384051 0.081289746 1.0982983 3751503
-0.39157379 0.091016337 1.0957603 3490378
-0.41121608 0.033173367 1.1056749 5002588
-0.40804249 0.033555686 1.1055255 5528419
-0.42284942 0.041297711 1.1078191 4739163
-0.41553506 0.039837196 1.1040903 5002333
-0.40608463 0.040681727 1.1035401 5397092
-0.39708135 0.043544926 1.1047938 5332066
-0.39111373 0.045120873 1.1063261 4740695
-0.42504901 0.045889974 1.103402 4082256
-0.41814217 0.045880273 1.1011577 5068120
-0.39534369 0.048807442 1.1021478 5200736
-0.38742474 0.052728273 1.1044436 4345175
-0.38044727 0.055088691 1.1066995 4278096
-0.38602144 0.062878564 1.1027187 4147028
-0.38092136 0.062320083 1.1064322 3819087
-0.38218516 0.070283033 1.1040505 3687502
-0.40204865 0.020541256 1.1141186 5528423
-0.39783484 0.021583302 1.11401 5397348
-0.41349593 0.027891098 1.110701 4804702
-0.40410501 0.028919315 1.1096528 5462626
-0.39467549 0.030244833 1.1118624 5003105
-0.38697916 0.034535818 1.1130128 4804440
-0.42360413 0.036431484 1.1141673 3817824
-0.41753894 0.03414005 1.1093106 4673622
-0.40162855 0.036056757 1.1085621 5660265
-0.39447111 0.038462654 1.1084843 5069150
-0.38568622 0.041967154 1.1105134 4475986
-0.38075876 0.046817116 1.1109953 4014924
-0.38371128 0.04882779 1.1094985 4606547
-0.37825719 0.051812656 1.1101402 3620428
-0.40732968 0.011919063 1.1201414 4079956
-0.40082312 0.012120267 1.117415 5266270
-0.39490929 0.012877619 1.119467 5002845
-0.41099381 0.017945858 1.1193659 4079963
-0.40329006 0.016642852 1.1165971 5330781
-0.39298543 0.019804211 1.1181079 5002331
-0.3904821 0.026330369 1.11736 5001816
-0.38657486 0.029422911 1.1188352 4540755
-0.38298145 0.036878832 1.1186242 4213074
-0.39939749 0.00022630394 1.129842 5265766
-0.40136251 0.0049266815 1.1278588 5068639
-0.3929415 0.0076671261 1.1272681 4214103
-0.41050261 0.010943277 1.124256 1580089
-0.38964543 0.015156945 1.1242374 4145996
-0.38760915 0.021255707 1.1244456 4212054
-0.40545502 -0.0020665321 1.1329134 3618132
-0.39988923 -0.0024856385 1.1324689 5199718
-0.39347574 -0.00062340125 1.1323498 4214875
-0.38737515 -0.062084213 1.1378945 528927
-0.38222271 -0.062126346 1.1375409 1517876
-0.3812159 -0.073904566 1.1476929 4419983
-0.39709887 -0.068700045 1.147601 1651559
-0.39198864 -0.066778354 1.1443858 1782104
-0.37984416 -0.067443945 1.1413164 4154236
-0.37485084 -0.064123318 1.1454207 3028033
-0.38951528 -0.060395509 1.1505158 2369321
-0.38198712 -0.058966696 1.1465908 2040105
-0.39180243 -0.040938016 1.1498669 4146252
-0.39559844 -0.07513646 1.1565828 5077683
-0.38864252 -0.076629207 1.1545099 4617364
-0.37925255 -0.075872548 1.1540054 4549258
-0.37476733 -0.069521569 1.1520588 6582660
-0.39814436 -0.063379005 1.1546605 7695014
-0.39087781 -0.058908768 1.1555988 2040625
-0.38302043 -0.05662971 1.1547751 2172202
-0.37575933 -0.060682304 1.1536075 2760198
-0.38829696 -0.087300144 1.1621821 4683677
-0.38264406 -0.086619139 1.1619161 3831442
-0.3966952 -0.081276335 1.1625954 3299734
-0.38955435 -0.082364291 1.1605076 4683420
-0.38093498 -0.08198715 1.1609519 3960460
-0.38627362 -0.16157418 1.1628041 3829135
-0.37826419 -0.16013114 1.1625075 4223637
-0.37204045 -0.15982687 1.16214 3960467
-0.38811287 -0.15248966 1.1644509 3498881
-0.37983322 -0.1509688 1.1637427 3895695
-0.37216553 -0.14879331 1.1639982 3631246
-0.38942882 -0.14102869 1.1634123 3499128
-0.38215387 -0.14094818 1.1629366 4025235
-0.37340495 -0.13926804 1.1645172 3499655
-0.3899892 -0.1314428 1.1630247 3826560
-0.38326773 -0.13076444 1.1631945 4156303
-0.37514094 -0.13076328 1.1651888 3630985
-0.39059719 -0.12259322 1.1675978 3893387
-0.38419157 -0.12124065 1.1658131 4157333
-0.37681973 -0.1202077 1.1675794 3762828
-0.3897123 -0.11441997 1.1709409 3762325
-0.38458568 -0.11062045 1.1675072 4420507
-0.37824771 -0.11042679 1.1694846 3828877
-0.39237455 -0.10101901 1.1733667 4222878
-0.38529944 -0.10134438 1.1690426 4552347
-0.37891853 -0.10149591 1.171569 3631755
-0.39534986 -0.092556559 1.1692948 3627913
-0.38672408 -0.092860892 1.1665636 4683676
-0.37956879 -0.091229677 1.169343 3892613
-0.37970981 -0.082851395 1.1674315 3563127
-0.38642803 -0.17229672 1.1665334 3033484
-0.3778981 -0.17266741 1.1683314 2897991
-0.3680284 -0.17059702 1.1675167 3891064
-0.36051551 -0.16923197 1.168934 2638186
-0.39151657 -0.16364096 1.166875 666715
-0.38045856 -0.16453779 1.1659811 4813457
-0.36730948 -0.16002823 1.1658529 3499654
-0.35996398 -0.15966499 1.1691637 3561592
-0.39342397 -0.15256211 1.1688607 6722
-0.36848783 -0.15070534 1.1674951 3694979
-0.36186823 -0.15000375 1.1692001 3233144
-0.36806753 -0.14032942 1.1692065 3104639
-0.36321437 -0.14028461 1.1721209 2640231
-0.36982262 -0.13090393 1.1709048 2907007
-0.36518562 -0.13125549 1.175153 3099492
-0.39341402 -0.12158507 1.1740533 4089741
-0.3712475 -0.12162644 1.1729188 3496061
-0.36678648 -0.1207815 1.1774786 4278874
-0.39200997 -0.11338516 1.1753337 2972810
-0.37297365 -0.11173856 1.1757154 3757171
-0.36883074 -0.11296392 1.1789266 3748927
-0.39149851 -0.10758728 1.1762713 3630740
-0.3732793 -0.10424519 1.1756066 3953004
-0.37750268 -0.17971016 1.1723841 984897
-0.367533 -0.17465661 1.172561 4350584
-0.35991269 -0.15003501 1.176854 4674411
-0.36075589 -0.1420868 1.1806145 6974583
-0.36371297 -0.13143688 1.1825987 3815753
-0.39660808 -0.12422386 1.1829714 5799072
-0.36413616 -0.12146777 1.18125 5064001
-0.35832796 -0.15790942 1.1879603 7039097
-0.35916939 -0.15244369 1.1899493 7565430
-0.3608315 -0.14398471 1.1911405 8223350
-0.3623282 -0.13515513 1.1879793 9076613
