# .PCD v0.7 - Point Cloud Data file format
VERSION 0.7
FIELDS x y z rgba
SIZE 4 4 4 4
TYPE F F F U
COUNT 1 1 1 1
WIDTH 1126
HEIGHT 1
VIEWPOINT 0 0 0 1 0 0 0
POINTS 1126
DATA ascii
0.063319623 -0.22381583 1.1433889 5997746
0.074423864 -0.22069076 1.1442472 6063288
0.08307299 -0.21910042 1.1453857 6589614
0.091180138 -0.21919502 1.1453719 8757678
-0.063386895 -0.21040878 1.1376785 1855898
-0.056622192 -0.21283399 1.1408906 2249885
-0.048897423 -0.21505073 1.1448991 2381985
-0.040734686 -0.21705791 1.1456007 3039902
0.0769642 -0.21360795 1.1454296 2841504
0.082978889 -0.21296793 1.1454237 3302564
0.092507631 -0.21055761 1.1440896 4420011
0.10228994 -0.20954707 1.1396987 6984117
0.11168227 -0.20663333 1.1374156 6254993
-0.074692667 -0.20006627 1.1385608 2710418
-0.066911139 -0.20323333 1.1421095 2775447
-0.060149379 -0.20537651 1.1449044 2906776
0.094835967 -0.20263386 1.145068 3171492
0.10332056 -0.20111239 1.1422634 3237285
0.11163133 -0.19974419 1.1380297 3629215
-0.077680014 -0.19318727 1.1426082 2775191
-0.069486387 -0.19656931 1.1451074 2906012
0.10513933 -0.19188774 1.1438507 3040421
0.11205141 -0.19007748 1.1404645 3105703
0.11795693 -0.1902211 1.1375066 2777257
-0.093232967 -0.17932293 1.1379191 2710677
-0.086401559 -0.18312509 1.1414139 2709909
-0.080124989 -0.18665291 1.1438525 2709910
0.11308046 -0.18170366 1.1440935 3368100
0.12062721 -0.17972538 1.1397003 3302561
-0.094556488 -0.17281753 1.1410725 2710421
-0.0897213 -0.17562103 1.1451362 2644886
0.11502169 -0.17391983 1.1456121 3040936
0.12301315 -0.17068493 1.143532 3237031
0.12936832 -0.16766801 1.140627 3368615
-0.10440819 -0.15991542 1.138057 2776209
-0.098900184 -0.16434214 1.1427708 2841240
0.12491896 -0.16218156 1.1456684 3237287
0.13133247 -0.15982449 1.1405294 3302822
-0.10550335 -0.1533072 1.142633 2710683
-0.10075294 -0.15654437 1.1454053 2841499
0.13347018 -0.15138936 1.1431326 3237541
0.13839412 -0.1485749 1.13933 3237798
-0.10776225 -0.14478908 1.1432987 2907293
0.13502473 -0.14261442 1.1457725 3237797
0.13971099 -0.13996793 1.140781 3303334
-0.11425578 -0.13316543 1.1393809 2907805
-0.11202205 -0.13480505 1.1454245 2907805
0.14141199 -0.13059349 1.1433917 3434407
-0.1148951 -0.12387644 1.1409631 3039392
-0.11224971 -0.12505141 1.1462851 3039391
0.14320849 -0.12099143 1.143321 3500202
0.14730546 -0.11798061 1.1379042 3631274
-0.11818213 -0.1147699 1.1428914 3170979
0.14500633 -0.11070853 1.1455085 3631791
0.14838032 -0.110052 1.1397291 3566510
-0.11874308 -0.10443476 1.144137 3105957
0.14401157 -0.099600956 1.1443564 3632305
0.14925705 -0.10058021 1.1383417 3501227
-0.11928206 -0.094402045 1.141914 3237546
0.1434135 -0.090532541 1.1435344 3698099
0.148028 -0.090810083 1.1384705 3698094
-0.11880811 -0.084646977 1.1422114 3434923
0.14450842 -0.081244215 1.1441355 3895479
0.14677155 -0.083181567 1.1381197 3895477
-0.11858857 -0.074188992 1.1428947 3566256
0.14459604 -0.069947317 1.1455383 4027579
0.14707546 -0.069312677 1.1422048 4157882
-0.1177318 -0.065260306 1.142192 3567024
0.14240934 -0.060438905 1.1450907 4159422
0.14673343 -0.060491916 1.1406597 4289724
-0.1155718 -0.055375516 1.1400534 3567791
-0.11248962 -0.053427063 1.1453937 3764403
0.14054333 -0.050419722 1.1436653 4356797
-0.11089539 -0.044428363 1.1393512 3830196
0.13773237 -0.040873289 1.1427954 4619718
-0.10958592 -0.033520088 1.1417542 3896507
0.13346028 -0.029047877 1.1433643 4817095
0.13799104 -0.029535666 1.1401316 4948420
-0.11733242 -0.024471119 1.1429135 6916535
-0.10983639 -0.024884477 1.142591 5210049
0.13251922 -0.022683442 1.1455163 5013440
0.13696942 -0.022183485 1.1431787 5998788
0.031062566 0.049867876 1.1419866 5859448
0.039255191 0.050082542 1.1401174 6122362
0.044817455 0.050277941 1.1431094 6319482
0.055915624 0.051690347 1.1471002 5330522
0.031573731 0.05433283 1.1404895 5792108
0.039384738 0.055301331 1.1399493 5527648
0.044750482 0.054643057 1.1431365 5067354
-0.013978004 -0.22978237 1.1484784 4354997
-0.0066002533 -0.23070908 1.1504607 4684224
0.0032893661 -0.23025379 1.1489806 4289976
0.014231307 -0.22778043 1.1484447 2054307
0.024670392 -0.22816926 1.1484252 2777510
0.030177061 -0.22918293 1.14841 4026798
0.046646524 -0.22893009 1.1483846 5604271
0.050464131 -0.22722417 1.1483889 4881326
-0.033115931 -0.21972169 1.1485717 3039902
-0.025152219 -0.22052047 1.1490538 2710943
-0.016650354 -0.22231656 1.1518333 2645152
-0.00672381 -0.22504348 1.1551626 2514339
0.0032140706 -0.22478396 1.1546147 2514851
0.013090231 -0.22211693 1.1530815 2842787
0.022964787 -0.22152796 1.150869 2908579
0.032630093 -0.2209876 1.1513455 3039651
0.042836048 -0.22154096 1.1524365 2908578
0.05217161 -0.2205241 1.1521776 2778020
0.062173441 -0.21869451 1.149851 2646433
0.071787409 -0.22122277 1.148391 5012145
0.083335683 -0.2223267 1.1483654 8955830
-0.046274774 -0.21150534 1.1489296 2841242
-0.036397509 -0.21343939 1.1509492 2775960
-0.027366942 -0.21458812 1.1528608 2841500
-0.01792057 -0.21663861 1.1565661 2907551
0.013761492 -0.215415 1.1565219 3105184
0.022969026 -0.21490505 1.15651 3170722
0.032919269 -0.21475229 1.1564946 3302053
0.043045297 -0.21404393 1.1564825 3170723
0.053534202 -0.21296138 1.156472 3105188
0.06285049 -0.21201414 1.1547483 3170467
0.072446927 -0.21163309 1.1508491 3236258
0.082535587 -0.2080235 1.1488993 3171236
-0.063064195 -0.20041379 1.1487398 2906776
-0.056497924 -0.20255663 1.1498587 2907033
-0.048027538 -0.20343463 1.15353 2841497
-0.038705125 -0.20737389 1.1566572 2775704
0.063756846 -0.20653808 1.1564949 3105443
0.072601512 -0.2064023 1.1564813 3105443
0.083336256 -0.20251146 1.1552246 3105956
0.091652282 -0.19949064 1.1516926 3105956
-0.07421229 -0.1896029 1.1488247 2644884
-0.06708397 -0.1930808 1.1517917 2775705
-0.058665112 -0.19584091 1.1544276 2841497
0.086804457 -0.19512603 1.1565276 3172006
0.094423465 -0.1926204 1.1555306 3040421
0.10024597 -0.19016539 1.1530361 2974628
-0.083130769 -0.18095419 1.1488926 2645144
-0.076456428 -0.18263915 1.1519302 2710425
-0.071109459 -0.18528819 1.1534178 2776216
0.10358116 -0.181475 1.1533344 3171493
0.10852041 -0.17914879 1.1501905 3237026
-0.086288072 -0.17300034 1.1515352 2710424
-0.079878829 -0.17513609 1.1554688 2710937
0.10639963 -0.17492038 1.1566201 3302823
0.11266258 -0.17071895 1.1534779 3172005
0.11840841 -0.16748449 1.1526463 3172006
-0.095139995 -0.16173697 1.1490308 2841498
-0.090698741 -0.16422009 1.1539314 2907290
0.11507466 -0.16372897 1.156675 3303592
0.12126832 -0.16024306 1.1553531 3237544
0.12734149 -0.1557589 1.1487039 3303337
-0.097031951 -0.15331821 1.1508001 2973342
-0.092383228 -0.15640858 1.1570593 3038879
0.12478173 -0.15242867 1.1560622 3237544
0.12908834 -0.14930478 1.151541 3303336
-0.10523546 -0.1418854 1.1501697 2973342
-0.099114679 -0.14498425 1.1546407 2973600
0.13235939 -0.14013547 1.1527922 3368872
-0.10693206 -0.13405602 1.1515738 3039392
-0.10148212 -0.13482675 1.1572073 3236259
0.13351823 -0.13068734 1.1545986 3500460
0.13789999 -0.12814172 1.148857 3434923
-0.10817915 -0.12443452 1.1521711 3170978
0.13442449 -0.12174905 1.155569 3500719
0.13907489 -0.1191563 1.152244 3500718
-0.11491819 -0.1133536 1.1493615 3237029
-0.11107504 -0.11470236 1.155347 3237286
0.13928136 -0.1103124 1.1550702 3697329
-0.11505296 -0.10457003 1.1494159 3237543
-0.11248863 -0.10414183 1.1569145 3172263
0.14035892 -0.10118037 1.1546195 3697843
-0.11549871 -0.094957367 1.152476 3303340
-0.11343201 -0.09388411 1.1574793 3303852
0.13997361 -0.090741925 1.1550845 3764149
-0.11571658 -0.085178629 1.1495366 3500716
-0.11300718 -0.083819859 1.1575407 3501229
0.14275229 -0.080252588 1.153716 3764661
-0.1154741 -0.077121407 1.1495858 3566512
-0.11234859 -0.073678032 1.1539657 3632306
0.13961418 -0.070090584 1.1536829 3896764
-0.11189453 -0.064049333 1.1540244 3698357
0.13347951 -0.060156848 1.1559504 4291265
0.13732179 -0.061232567 1.1504135 4225217
-0.11042241 -0.055015739 1.1537141 3764408
0.13411355 -0.050538868 1.155342 4554434
0.13670398 -0.050187632 1.1493398 4488640
-0.10763005 -0.044264436 1.1545758 3895997
-0.10355325 -0.041021533 1.1577892 4027323
0.13355465 -0.039742332 1.1544095 4817354
-0.10623901 -0.034686685 1.1511658 3962044
-0.10227191 -0.033456735 1.1570338 4093118
0.12404411 -0.027574994 1.1575001 5014224
0.12947275 -0.030199394 1.153475 4751563
-0.10530304 -0.024251498 1.1498953 4290235
-0.10041641 -0.024076343 1.1544219 4158908
-0.09426555 -0.021711342 1.1578932 4028609
0.12226953 -0.020552106 1.1557685 4817874
0.12893999 -0.020132422 1.1505378 5145287
-0.098138027 -0.017379493 1.1523261 4487616
-0.092792124 -0.014660418 1.1566008 4356800
0.11322405 -0.0081734583 1.1556375 5276623
0.11960504 -0.011064753 1.1518948 5604813
0.1290244 -0.012128957 1.150476 6720449
-0.09079513 -0.0076509714 1.1579741 5671109
0.11128192 -0.0026461259 1.1571033 5802961
0.11765382 -0.0032919571 1.1529936 6787017
0.034969896 0.011972986 1.1578896 12972031
-0.020432206 0.02104912 1.1560361 5869264
0.012025069 0.017887063 1.1579636 7515376
0.019524118 0.017633565 1.1579498 8764660
0.02913719 0.017338842 1.1579323 10146554
0.035786513 0.016408809 1.1579157 10870005
-0.07829091 0.028510906 1.1501765 8028800
-0.073172688 0.028955556 1.1501709 7305855
-0.016056525 0.022247843 1.1580364 5671370
-0.012739781 0.022298761 1.1580313 5869265
0.010477455 0.022655204 1.1579956 6988787
0.014899787 0.022723094 1.1579888 7185904
0.10099953 0.032891504 1.1579107 6314850
-0.072029464 0.033976026 1.1502 8028802
0.09784963 0.036381789 1.1579374 6117979
0.073718719 0.046585523 1.1500396 5593178
0.075914651 0.046619229 1.1500362 5658970
-0.01239395 -0.21954454 1.1605393 2973083
-0.0068299696 -0.22056875 1.1605239 2973595
0.0025924444 -0.21999788 1.1611787 2973598
-0.032533213 -0.2087574 1.1606387 2842012
-0.026132932 -0.2100462 1.1606203 2776219
-0.016752178 -0.21239236 1.1621144 2907806
-0.0071343835 -0.21363425 1.163725 2907807
0.0034313537 -0.21401377 1.1638809 2973599
0.012270687 -0.21152198 1.1612152 3039136
0.022999117 -0.21037114 1.1618713 3170723
0.03297374 -0.21009451 1.1611902 3236770
0.042763561 -0.20947927 1.1605113 3170979
0.0518061 -0.20912707 1.1604986 3170980
0.058436915 -0.2073608 1.1604986 3171236
-0.043763295 -0.20005274 1.1607108 2842012
-0.037017785 -0.20222403 1.162141 2842011
-0.027368287 -0.20434129 1.1631191 2842012
-0.01905637 -0.20567286 1.1646358 2907805
0.02744111 -0.2063508 1.1645555 3302309
0.033433028 -0.2050949 1.1634107 3302308
0.042081628 -0.20483258 1.1620409 3171236
0.052855916 -0.20522723 1.1605209 3171236
0.063462496 -0.20370108 1.1621797 3105443
0.073253483 -0.20162362 1.1615099 3171492
0.07977169 -0.19963571 1.1605114 3040420
-0.065011941 -0.18928263 1.1608119 2841497
-0.056193635 -0.19190004 1.1613147 2907291
-0.047713228 -0.19442923 1.1626343 2907549
-0.041017383 -0.19552508 1.1647342 2907551
0.076251149 -0.19446702 1.1645491 3040420
0.08323583 -0.19250637 1.162655 3106213
0.091012791 -0.18977234 1.1605539 3106214
-0.066611581 -0.18283214 1.1628543 2907290
-0.059978589 -0.18561929 1.1643263 2973340
0.087246522 -0.18539068 1.1645871 3302823
0.09325102 -0.18289845 1.1621926 3237030
0.09933842 -0.17939895 1.162382 3237031
-0.084177978 -0.16960347 1.1609646 2841497
-0.075727396 -0.17295714 1.1614635 2842012
-0.069569737 -0.17511429 1.1639068 2907547
0.10440399 -0.17163056 1.161567 3368361
0.10943643 -0.1682955 1.1606562 3237285
-0.085747942 -0.16370952 1.1610036 2973085
-0.07895992 -0.16384712 1.1637285 3039135
0.10660337 -0.16445526 1.1606846 3368615
0.11307736 -0.16102967 1.1614224 3237799
0.11759517 -0.15762873 1.1607087 3303337
-0.093342476 -0.15088041 1.1610951 2973857
-0.087857328 -0.15433621 1.1626204 3039137
-0.081907243 -0.155141 1.1650501 3104930
0.11495329 -0.15350793 1.1627384 3172264
0.12112904 -0.15051399 1.1614134 3238059
-0.09465795 -0.14270359 1.1621476 3039650
-0.090617232 -0.14625582 1.1651192 3105700
0.12422045 -0.14073108 1.162956 3369132
0.12843376 -0.14081784 1.1607946 3434410
-0.097544149 -0.13418829 1.1629192 3171236
0.12598909 -0.13258731 1.1640494 3500719
0.12932372 -0.13022432 1.1628586 3435183
-0.10487893 -0.12220705 1.1612908 3302823
-0.10019346 -0.12413144 1.1639379 3171495
0.12993041 -0.12011532 1.1627381 3566514
-0.10675566 -0.11360861 1.1628015 3368873
-0.10305578 -0.11473928 1.1645339 3368875
0.13250312 -0.1108754 1.1617727 3697588
-0.10779674 -0.10456486 1.1640711 3303850
0.13392764 -0.10126905 1.1644582 3763892
0.13713649 -0.1005155 1.161029 3698099
-0.10929861 -0.09437456 1.1630697 3435181
-0.10343227 -0.094788805 1.1654576 3435438
0.1347927 -0.091131508 1.1650907 3829942
0.13762608 -0.090521425 1.1622328 3764149
-0.10841037 -0.084688984 1.163528 3501229
0.13458775 -0.077773333 1.1651734 3896505
0.1390239 -0.080574602 1.1629671 3830455
-0.10796422 -0.074817136 1.1631266 3632563
-0.10379093 -0.071412012 1.1656023 3567542
0.13211469 -0.070636034 1.1626501 4027837
0.13739704 -0.07410223 1.1611915 3896505
-0.10735993 -0.064746872 1.1629826 3829940
-0.10389341 -0.064732917 1.1656437 3699127
0.1304678 -0.061054297 1.16395 4291009
-0.10709783 -0.0545973 1.1625115 3895737
-0.10342564 -0.05375037 1.1657107 4027576
0.13060886 -0.051007964 1.163345 4422849
-0.10601933 -0.04787913 1.161751 4158911
-0.10158553 -0.044123843 1.163767 4093372
0.13040236 -0.041262556 1.1629055 4817355
-0.097982392 -0.034665518 1.163358 4093630
-0.093273774 -0.031166591 1.1658334 4094397
0.12278664 -0.030634925 1.1637057 5080014
0.12734595 -0.033754922 1.1614567 4883149
-0.09598273 -0.027011886 1.1618633 4028348
-0.091514155 -0.024394855 1.1633723 4028864
0.11814622 -0.021058649 1.1633279 4949202
-0.088098407 -0.014750548 1.1637443 4029123
-0.083910696 -0.01246547 1.1659334 3963586
0.11191178 -0.01129391 1.1642872 5146069
0.1154165 -0.015629113 1.1615881 5080276
-0.087413959 -0.0069069266 1.1619734 5342665
-0.080318712 -0.0046733171 1.1659756 4882633
-0.016924059 6.8508089e-005 1.1659012 6070261
-0.010244854 0.00017105043 1.1658909 6528744
-0.0035656486 0.00027359277 1.1658807 8827627
0.012019161 0.00051285326 1.1658566 10340848
0.020775499 1.103431e-005 1.1658392 8895736
0.028292388 -0.00057343394 1.1658233 6266608
0.10266243 0.0013539121 1.1647136 5475287
0.10719519 -0.0020844713 1.1630183 5475028
-0.076940946 0.0013825893 1.1640074 5999306
-0.070297815 0.0025942028 1.164004 5540557
-0.061782517 0.0060643181 1.1633449 5803727
-0.049088545 0.0079874024 1.1660026 4950220
-0.040109478 0.0070005804 1.1659819 5016280
-0.030376023 0.0065413192 1.1655631 5411294
-0.020331746 0.0066933632 1.1637076 5806569
-0.010341387 0.0068493783 1.1653323 7120874
-0.0007639844 0.0077395663 1.1659222 12379901
0.0098337214 0.0073935837 1.1633763 13891069
0.01965116 0.007309787 1.1626861 12969723
0.029603269 0.0076941699 1.1635563 9946095
0.039678562 0.0076147541 1.1639422 10013177
0.049385071 0.0096460357 1.1636981 7449069
0.056016728 0.011580452 1.165853 5411552
0.099689707 0.0052069873 1.1632422 6526426
-0.047185436 0.012965254 1.1660302 6264275
-0.039607748 0.013900727 1.1635236 5803990
-0.03004331 0.014686994 1.1620128 5345755
-0.020056391 0.016102239 1.1620052 5412839
-0.010475026 0.0168394 1.1624941 5676266
-0.0014200881 0.016042389 1.1648315 7253489
0.0084114168 0.016023308 1.1629581 8436213
0.018422827 0.013951547 1.161929 12051453
0.032776833 0.018610448 1.1619343 10082302
0.040627886 0.01799123 1.1619177 10607102
0.04912506 0.017276242 1.1618993 7515119
0.056174733 0.01676245 1.163218 6068200
-0.008338742 0.022417761 1.162025 6001365
-0.0039011762 0.022485889 1.1620182 6396124
0.10850264 0.029981636 1.1618806 6447199
-0.0036996827 -0.20979682 1.1685854 3039391
0.0038366653 -0.2091182 1.1700772 3039135
0.015289486 -0.20950527 1.1685561 3104930
-0.03291332 -0.19907279 1.1686993 2776478
-0.026520157 -0.19988282 1.1706839 2842271
-0.016589267 -0.20138353 1.1728402 2907807
-0.0073334314 -0.2031042 1.1733284 2908063
0.0026994357 -0.20380685 1.174412 2973600
0.013003895 -0.20266318 1.1739355 3105187
0.022924658 -0.20215398 1.1730028 3236773
0.032607488 -0.20066155 1.1723157 3237029
0.043555699 -0.20057952 1.1723651 3171237
0.05321756 -0.20136678 1.1700443 3171236
0.062712617 -0.19965766 1.1694624 3105444
0.071535677 -0.19802788 1.168535 3171493
-0.045237377 -0.19041045 1.1719729 2841758
-0.037101433 -0.19259816 1.1727461 2907551
-0.028170092 -0.19358531 1.175549 2842271
-0.017464699 -0.19461709 1.1767017 2908064
-0.010699674 -0.19563812 1.1766844 2973857
0.01066826 -0.19531007 1.1766515 3105444
0.023523666 -0.19411282 1.1766378 3237030
0.033578314 -0.19436935 1.1758198 3302823
0.043227203 -0.19343895 1.1756866 3171495
0.052566208 -0.19188312 1.1752127 3105703
0.062279187 -0.19199139 1.1749874 3105703
0.072074853 -0.19133092 1.1730754 3105702
0.080365434 -0.18868169 1.1702925 3105958
-0.056636512 -0.1828768 1.170485 2973598
-0.048608132 -0.18450166 1.1748149 2907551
-0.038685203 -0.18622512 1.1767881 2908065
0.073731765 -0.18292013 1.1766248 3237288
0.08253663 -0.18205599 1.1741712 3302823
0.091163859 -0.17986199 1.1711864 3237287
-0.06621138 -0.1717615 1.1717794 3105183
-0.058691703 -0.17504092 1.1750073 2974112
-0.050354987 -0.17712408 1.1768633 2842786
0.083929062 -0.17528749 1.1766552 3171750
0.092500746 -0.1715371 1.1753309 3172008
0.10053258 -0.16963121 1.1709961 3303081
-0.074488014 -0.16219115 1.1696614 3104930
-0.068216354 -0.16445354 1.1756372 3170978
0.09486343 -0.16316384 1.176712 3303337
0.10261404 -0.16151088 1.1744595 3368873
0.10953011 -0.16007815 1.1712524 3237543
-0.084514044 -0.14956795 1.1717557 3040164
-0.077732004 -0.15322815 1.1728448 3105701
-0.071278006 -0.15757255 1.1770182 3302822
0.10405222 -0.15248109 1.1767629 3303597
0.11141063 -0.14991333 1.172403 3238059
0.11843404 -0.1467367 1.1707747 3303852
-0.087050915 -0.14327833 1.1729097 3106213
-0.079247907 -0.14522755 1.1771073 3172007
0.11217833 -0.14085662 1.1766213 3369387
0.12010634 -0.14047194 1.1728107 3435181
-0.094364874 -0.13313659 1.1705397 3237030
-0.087774754 -0.13373612 1.1748587 3237800
-0.08134111 -0.13710436 1.1771609 3303594
0.11390468 -0.13478182 1.176856 3500972
0.12224251 -0.13035472 1.1736196 3500976
0.12687357 -0.12734999 1.1688805 3500977
-0.095643319 -0.12390874 1.1723765 3237545
-0.09094809 -0.12552699 1.1763589 3303852
0.12388967 -0.12083009 1.1769257 3566772
0.12721032 -0.12108515 1.1729186 3566515
-0.098304138 -0.11423964 1.1725794 3369389
0.12460028 -0.11128454 1.1769835 3763639
0.12794128 -0.11026715 1.1720952 3763639
-0.10530371 -0.1004962 1.170759 3435181
-0.099869877 -0.10412081 1.1739658 3435438
0.12507284 -0.10018925 1.1770511 3895737
0.13004681 -0.099960767 1.1718677 3764149
-0.10490106 -0.094019286 1.1718649 3435438
-0.099513665 -0.094593264 1.1759142 3501231
0.12498656 -0.094566211 1.1770859 3961530
0.13029553 -0.09047164 1.1719259 3961528
0.13742672 -0.086966865 1.1691123 3895735
-0.10476061 -0.084768221 1.1725217 3501489
-0.10049179 -0.084498413 1.1753988 3501490
0.12471049 -0.076572485 1.1771973 4159679
0.13048506 -0.081131473 1.1724324 3962041
0.13739245 -0.08473289 1.1691262 3895735
-0.10534386 -0.077428833 1.1715679 3501747
-0.10058029 -0.074181743 1.1742469 3567541
0.12386296 -0.070211217 1.177238 4225473
0.12755732 -0.070631996 1.1732292 4159424
-0.098963842 -0.063997373 1.1732404 3764919
0.12347693 -0.061343145 1.1772933 4422597
0.12740256 -0.060544807 1.1732917 4357059
-0.098621458 -0.054217495 1.1731287 3896505
-0.093864232 -0.054056026 1.1776935 3962298
0.123189 -0.050723765 1.1773592 4685767
0.1272478 -0.050457619 1.1733541 4422851
-0.097303376 -0.045058973 1.1713544 4027836
-0.092308216 -0.043250553 1.1766666 4028094
0.12114824 -0.040147159 1.1753101 4948684
0.1270677 -0.04192239 1.1704071 4751818
-0.095733963 -0.036918264 1.1698021 4093632
-0.09020628 -0.033419438 1.1756608 4094399
0.11424477 -0.029863454 1.1775025 5080784
0.11856566 -0.030834667 1.1726893 5211343
-0.08709006 -0.024918936 1.1742257 4094402
-0.080605052 -0.021771528 1.1768709 4226244
-0.074138559 -0.020007007 1.1778712 4620744
-0.020173667 -0.018053651 1.1777951 5412064
0.0023188964 -0.017708331 1.1777605 6463211
0.010448625 -0.021421343 1.1777242 6397929
0.020125221 -0.020631969 1.1777133 6397929
0.029329691 -0.01857923 1.1777109 6003432
0.1110946 -0.02061633 1.1750646 5081042
0.11634369 -0.023607112 1.1695375 5081041
-0.079373479 -0.013908036 1.1717839 4160963
-0.071303301 -0.012880459 1.1770533 4752075
-0.056299798 -0.009609282 1.1779062 4949201
-0.049543411 -0.010067999 1.1778923 5016022
-0.039947025 -0.011036329 1.177204 5213659
-0.03010452 -0.011785977 1.1766192 5411552
-0.020246865 -0.01241935 1.17703 5740773
-0.01013829 -0.012275219 1.1778144 6003172
-1.8475577e-005 -0.012114339 1.1773988 6331366
0.010073967 -0.011917755 1.1747833 6989552
0.020175578 -0.011769347 1.1751678 6792432
0.030259674 -0.011602975 1.1745023 5937640
0.03873641 -0.010571785 1.1767449 5806054
0.049432494 -0.009110935 1.1777364 5674725
0.056163006 -0.0078827217 1.1777331 5674983
0.10203043 -0.0097095221 1.1776468 5146841
0.1080702 -0.011643678 1.1719105 5080789
-0.076107636 -0.0053338706 1.1699648 4554184
-0.07266891 -0.0044731423 1.1729645 4751049
-0.057416841 -0.0039896816 1.1759427 4818129
-0.0499762 -0.0038682148 1.1751312 5015507
-0.040442541 -0.0036870763 1.1717167 5147609
-0.030337939 -0.0035194382 1.1704012 5346018
-0.020688107 -0.0037697703 1.172995 5937898
-0.010228224 -0.0043570846 1.1731964 6462952
0.00021411665 -0.0034434572 1.1722962 8303605
0.0095870718 -0.003396295 1.1712652 8501495
0.019457145 -0.0042178258 1.1704309 7252467
0.030757988 -0.003506735 1.1712559 6069484
0.039890133 -0.0022841319 1.1721098 6135528
0.050012238 -0.0025316775 1.1751877 5741031
0.059400395 -0.002201505 1.1767627 5543655
0.068860285 -0.00076548755 1.1777562 5477092
0.078903928 0.0007154718 1.1777489 5739747
0.090278983 0.00064012408 1.1777298 5280481
0.099532686 -0.0018204823 1.1740071 5015513
0.10504758 -0.0036937892 1.1716788 4949463
-0.069508404 0.0014709681 1.1699959 4818122
-0.060091101 0.002608642 1.1699876 5147606
-0.051414669 0.003486678 1.1699789 4818639
-0.042700171 0.0018825382 1.1699547 5344472
0.0019716667 0.0031269789 1.1698893 12971007
0.0064482763 0.0026370659 1.169879 12905215
0.031022491 0.003014341 1.1698412 5807584
0.044426613 0.0032201186 1.1698205 6004710
0.050475694 0.004270643 1.1698171 5807083
0.059232168 0.0068680719 1.1719521 5477863
0.067746103 0.0065476224 1.1744696 5542628
0.079607658 0.003725931 1.1777663 5673698
0.09014295 0.0058559701 1.1762621 5804766
0.095809072 0.0040089637 1.1697414 5147865
0.062127396 0.014664404 1.1698622 5412324
-0.0039234292 -0.19847915 1.1806557 3039650
0.0025346773 -0.19902495 1.1806419 3039650
-0.024356486 -0.19089207 1.1807359 2842271
-0.017585868 -0.19078812 1.1807256 2973857
-0.0072429664 -0.19172874 1.1819659 2973857
0.0025370037 -0.19333944 1.1832032 3039395
0.013164801 -0.19123685 1.1824503 3171237
0.022447251 -0.18967158 1.1817336 3237030
0.032784153 -0.18896528 1.1821929 3302569
0.041124135 -0.18897718 1.1819741 3237546
-0.044184305 -0.18071583 1.1808311 2908065
-0.036592811 -0.18156675 1.1808134 2973857
-0.027883021 -0.18320325 1.1817892 2973857
-0.018106671 -0.18496141 1.1828799 2973858
-0.009799147 -0.18567473 1.1847444 3105444
0.021903746 -0.18518803 1.1846956 3237030
0.03358046 -0.18349877 1.1846869 3302825
0.042503681 -0.18290469 1.1843683 3171754
0.052365132 -0.18326119 1.1826576 3171752
0.062700197 -0.18267536 1.1820561 3171753
0.071088523 -0.17942594 1.1816506 3237546
0.07926929 -0.17688566 1.180653 3303592
-0.055506296 -0.17143022 1.1809069 2908579
-0.047276907 -0.17348647 1.1828808 2908579
-0.037419274 -0.1748109 1.1837656 3105444
-0.028740352 -0.17645261 1.1848322 3105443
0.065922372 -0.17545231 1.1846837 3303339
0.073917858 -0.17304759 1.1833521 3303082
0.082277939 -0.17079751 1.181257 3237545
0.088158287 -0.16771972 1.1806949 3303850
-0.064706929 -0.16028464 1.1809907 3302822
-0.058025472 -0.16450201 1.1832038 3040165
-0.050837941 -0.16818489 1.1849194 3040167
0.077105857 -0.16622066 1.1847223 3303598
0.083105065 -0.16212717 1.1837965 3238061
0.091633983 -0.15992147 1.1818485 3303596
0.099286839 -0.15739073 1.1807405 3369131
-0.074648291 -0.14990288 1.1810709 3171751
-0.068165369 -0.15344563 1.1824503 3368615
-0.061201878 -0.15701908 1.1850051 3171751
0.10100296 -0.15079778 1.1822784 3369134
-0.076731265 -0.14288059 1.1811177 3369130
-0.070578061 -0.14476497 1.184096 3434922
0.101983 -0.14112583 1.183884 3435183
-0.078586116 -0.13431786 1.1825069 3434923
0.10462635 -0.13399047 1.1840761 3501232
0.11133708 -0.13075085 1.1834733 3435694
0.11803744 -0.12888579 1.1808857 3501232
-0.086979337 -0.12329971 1.1822551 3369646
-0.081201114 -0.12697582 1.1838897 3435182
0.11492474 -0.12147285 1.1849365 3567282
0.11901796 -0.12086181 1.1827517 3567027
-0.095566124 -0.11072013 1.1813468 3501231
-0.090916865 -0.11459687 1.1840653 3435439
0.11480315 -0.11354727 1.1849855 3829686
0.11986104 -0.11064553 1.1832174 3829431
-0.095618062 -0.10733487 1.1813678 3501231
-0.091278903 -0.10403794 1.1830477 3567024
0.12202509 -0.10123392 1.1837163 3830201
-0.095834479 -0.093229666 1.1814551 3632818
-0.09259101 -0.093912803 1.1834456 3698612
0.12397864 -0.090587966 1.1831121 3896507
-0.095981635 -0.083638124 1.1815145 3633333
-0.092129566 -0.083792143 1.1843073 3764919
0.12365676 -0.080380231 1.1826756 4093886
-0.096568055 -0.074843392 1.1815697 3633334
-0.092539713 -0.073867753 1.1847692 3830201
0.12050688 -0.070807241 1.183462 4291523
-0.092276946 -0.063551009 1.1832991 3896506
0.11985543 -0.060327698 1.1829056 4619975
-0.089143559 -0.053951174 1.1834008 4028348
0.11381298 -0.049010392 1.1853852 5146320
0.11827347 -0.05115689 1.1843647 4883148
-0.087572724 -0.044502046 1.1820278 3962814
-0.082609266 -0.043082587 1.1846 3963072
0.11268308 -0.040190198 1.1839415 5146577
0.11646759 -0.041742258 1.1819257 5080527
-0.086337551 -0.035408169 1.1817962 4028607
-0.080182791 -0.033579923 1.1839308 4291526
-0.030294975 -0.030837908 1.1857328 5147865
-0.022825623 -0.030496739 1.1857227 5344731
-0.0065351781 -0.029340647 1.1857033 5345501
0.00025830045 -0.029236354 1.1856928 5739743
0.010469146 -0.031303301 1.18433 5936862
0.019523978 -0.0311746 1.1846493 5871068
0.029714072 -0.029916622 1.1856405 5739228
0.047812641 -0.028506286 1.1856196 5213656
0.11067045 -0.031337649 1.1838993 4949970
-0.078523166 -0.026089437 1.1818409 4422856
-0.070161775 -0.021209374 1.1836755 4686797
-0.059809886 -0.01992324 1.1838484 4884690
-0.049390174 -0.021211036 1.1853235 4950486
-0.038925573 -0.021804363 1.1844693 5213659
-0.030341955 -0.022832699 1.1825823 5279707
-0.020164108 -0.023816362 1.1829596 5345244
-0.010025233 -0.022027694 1.1828651 5411808
-0.00015014224 -0.022988759 1.182641 5806052
0.009231573 -0.025964946 1.1816982 6068964
0.021274006 -0.026156291 1.1816773 6068963
0.03127487 -0.023627505 1.1825997 6003173
0.039705768 -0.021784827 1.1834742 5608417
0.049906164 -0.02164124 1.1840584 5411038
0.056766376 -0.021573856 1.1856476 5279709
0.10142493 -0.019125596 1.1846666 5212630
0.10712259 -0.022618428 1.1828922 5015248
-0.066552617 -0.015465349 1.1818869 4949712
-0.059781991 -0.015361406 1.1818764 4949713
-0.049626052 -0.015205488 1.1818608 5016279
-0.040216647 -0.01543726 1.181844 5213659
-0.031553753 -0.016056709 1.181826 5345501
0.041221786 -0.014375113 1.1817174 5871590
0.049676411 -0.013680972 1.1817079 5871847
0.059901483 -0.011303507 1.1837059 5543139
0.067169346 -0.01006446 1.1839874 5280225
0.091692299 -0.0097127557 1.1856637 5411294
0.097570859 -0.011020385 1.1831006 5279196
0.069294207 -0.0049146786 1.1817299 5411556
0.078859963 -0.003074795 1.1817256 5412066
0.090144336 -0.0029015541 1.1817082 5477344
0.096949585 -0.0050544441 1.1816838 5213404
0.0034697233 -0.18877201 1.1887038 3105189
-0.017027115 -0.18062639 1.1897875 3039906
-0.007293772 -0.18261436 1.1901879 3039908
0.0022606524 -0.18364066 1.1920707 3105447
0.012852563 -0.1826852 1.1894759 3105702
0.021914905 -0.18129224 1.1887197 3171750
0.030893732 -0.18074119 1.1887084 3237289
0.042329036 -0.17870623 1.1887023 3237548
0.052553535 -0.17854926 1.1886865 3171752
0.061641976 -0.17840974 1.1886725 3171752
-0.044853151 -0.1695907 1.1889011 3039909
-0.03699176 -0.17020684 1.1897732 3105701
-0.028792897 -0.17274132 1.1914008 3105443
-0.019109523 -0.17799598 1.1928071 3040163
0.011652824 -0.1766116 1.1927654 3105960
0.023034368 -0.17532209 1.1927547 3105958
0.032106694 -0.17366627 1.1919501 3237545
0.042485729 -0.17243904 1.190846 3237547
0.052522093 -0.17196889 1.1903272 3237544
0.06258183 -0.17158771 1.1903973 3237545
0.07120128 -0.16946068 1.1893787 3303339
-0.056244768 -0.16033426 1.1889768 3172009
-0.047770545 -0.16338363 1.191344 3105961
-0.038398996 -0.16546583 1.1929159 3171752
0.045687858 -0.16560006 1.1927776 3303337
0.052527048 -0.16549507 1.1927671 3303593
0.062607996 -0.16436306 1.1927576 3303594
0.071772367 -0.16159961 1.1915097 3303596
0.078566223 -0.15996906 1.1887586 3238062
-0.063759848 -0.15192738 1.1890409 3434409
-0.057987243 -0.15361939 1.1918446 3237547
-0.049610704 -0.15586929 1.1929934 3237805
0.072624192 -0.15429212 1.1928034 3238318
0.081873409 -0.15120994 1.1916872 3238572
0.091990545 -0.1508297 1.189993 3434926
0.098479316 -0.15011843 1.1887869 3369134
-0.066237055 -0.14293998 1.1903311 3435179
-0.060259424 -0.14487328 1.1926342 3369388
0.08640819 -0.14445288 1.1928415 3500977
0.091973498 -0.14082184 1.1918548 3435186
0.097426377 -0.14074114 1.1888463 3500720
-0.074916944 -0.13232814 1.1901799 3566511
-0.06916821 -0.13512957 1.19182 3566767
-0.061914079 -0.13760906 1.1931262 3500977
0.093321092 -0.13317041 1.1923999 3501234
0.10116738 -0.13059089 1.1896529 3501490
-0.084714308 -0.1192963 1.1892763 3566770
-0.077880062 -0.12379137 1.1918374 3632306
-0.071172908 -0.1286303 1.1931967 3632563
0.10283905 -0.12191148 1.1915419 3699127
0.11025886 -0.12049717 1.1894208 3633076
-0.086006843 -0.11373322 1.1903127 3566770
-0.079983674 -0.11455802 1.1932979 3763892
0.10359515 -0.11283592 1.1930084 3633335
0.11023401 -0.11052421 1.1905674 3764407
-0.086290322 -0.10366734 1.1921754 3698868
-0.081935316 -0.10421978 1.1933649 3699126
0.10398147 -0.10085882 1.1930816 3962811
0.11051997 -0.10083964 1.1919044 3830969
0.11824324 -0.10092153 1.1890579 3830714
-0.087619603 -0.093719043 1.190362 3699126
-0.082342133 -0.094218373 1.1934272 3830712
0.11106734 -0.090893351 1.1925316 4028606
0.11922493 -0.090842061 1.1891185 3962300
-0.087183803 -0.084229991 1.1910967 3830970
-0.082284078 -0.083847888 1.1934911 3962813
0.11120106 -0.081835531 1.1931872 4291522
0.11906981 -0.081279464 1.1895413 4094399
-0.087639563 -0.074167639 1.1912738 3962044
-0.082754649 -0.074408472 1.19355 4093630
0.11261963 -0.071066387 1.1929846 4554438
0.11747046 -0.071714178 1.1892394 4357059
-0.087170526 -0.064113334 1.1909541 4093886
-0.082598865 -0.063330695 1.1936181 4291009
0.11062446 -0.060547464 1.1924305 4686026
0.11664947 -0.060526088 1.1893097 4685769
-0.085672952 -0.056814384 1.1896633 4159935
-0.080704853 -0.054286987 1.1925279 4225985
0.10321198 -0.050705682 1.1933923 5015248
0.10931385 -0.051870007 1.1907084 5014991
-0.077840887 -0.044419155 1.1918446 4292037
-0.072432071 -0.046561547 1.193705 4619977
-0.049739704 -0.039372496 1.1937121 5279449
-0.041760661 -0.039249998 1.1936998 5016538
-0.029204665 -0.040197346 1.1936735 4950743
-0.019657714 -0.04172742 1.1936485 4950488
-0.010563562 -0.041431315 1.1936355 5147351
-0.00012937747 -0.040321033 1.1936252 5278422
0.010472467 -0.042467546 1.1927058 5212886
0.019811686 -0.041656125 1.1918343 5278423
0.029771566 -0.040668849 1.1923242 5147094
0.040680215 -0.040916059 1.1935549 4885460
0.05014202 -0.039262082 1.1928223 4950741
0.059245311 -0.038611419 1.1935387 5016279
0.10156882 -0.04086775 1.1920556 5212370
0.10897753 -0.041894879 1.1894372 5212369
-0.07586626 -0.037420027 1.1917669 4423370
-0.073842838 -0.034191124 1.1913835 4554187
-0.04935059 -0.034341775 1.1934758 5147610
-0.039507203 -0.033450544 1.1917319 5081818
-0.030367201 -0.03558521 1.1917038 5016538
-0.019239308 -0.033978418 1.1918288 5278938
-0.010143409 -0.033232249 1.1918186 5344730
0.00033730455 -0.033943288 1.1907305 5673948
0.010595436 -0.036019299 1.1896342 5805277
0.019683879 -0.035879772 1.1896203 5541848
0.029890947 -0.034586743 1.1896114 5475544
0.040080577 -0.032157719 1.1896098 5213397
0.050744988 -0.032621473 1.1902955 5082070
0.060425751 -0.031701565 1.1919794 5016536
0.069332622 -0.029400788 1.1935791 5213915
0.08006493 -0.028258793 1.1935686 5279453
0.091014609 -0.028546736 1.1935489 5213659
0.10049301 -0.031311408 1.1919163 5212628
0.10710785 -0.031128705 1.1895066 5146833
-0.073612094 -0.028221659 1.1898199 4554443
-0.048419558 -0.026016809 1.1897924 5016281
-0.041134857 -0.026814006 1.1897755 5147611
-0.0099929981 -0.027244963 1.1897219 5411294
0.060751393 -0.021613672 1.189641 5148123
0.069473341 -0.021485582 1.1898276 5213915
0.07951431 -0.021570772 1.1913497 5213917
0.090269521 -0.021343373 1.1919103 5213659
0.098297596 -0.022940747 1.1899048 5212887
0.090941623 -0.014332354 1.1896366 5279708
0.095485851 -0.014262587 1.1896297 5411037
-0.013457295 -0.17868307 1.1977937 3106213
-0.0077341627 -0.17859522 1.1977849 3105959
0.0035586087 -0.17907608 1.1977636 3105706
0.014013725 -0.17826134 1.1977514 3105960
-0.024436606 -0.17198239 1.197853 3105700
-0.016987557 -0.17312327 1.1985838 3105957
-0.0078257881 -0.17298262 1.1985698 3106216
0.0024868976 -0.17295054 1.199403 3106217
0.013119293 -0.17227082 1.1992185 3171752
0.021008182 -0.17165342 1.1988717 3303337
0.032187246 -0.16882333 1.1977799 3369130
0.039054997 -0.16871789 1.1977694 3369132
-0.037209116 -0.16096643 1.1982752 3171753
-0.027494496 -0.16324805 1.200632 3171752
-0.017195104 -0.16338621 1.2026943 3172010
-0.0079896636 -0.16453099 1.2036222 3172012
0.0020422526 -0.16396683 1.2044048 3237802
0.01269761 -0.16309741 1.2038473 3303338
0.021901464 -0.16298553 1.2040329 3369133
0.032209016 -0.16258135 1.2022985 3369388
0.042336907 -0.16208524 1.2015945 3303853
0.051600307 -0.16075346 1.199548 3369643
0.061692238 -0.15978253 1.1980227 3303851
-0.055120409 -0.14955598 1.1980414 3303598
-0.046965785 -0.15227106 1.1997257 3303341
-0.038369805 -0.15390581 1.2031302 3303340
-0.028999051 -0.15522413 1.205964 3369132
-0.020799661 -0.15698414 1.2059398 3303600
0.012615407 -0.15647115 1.2058883 3303598
0.025290091 -0.15627655 1.2058687 3435186
0.032779671 -0.15616158 1.2058573 3369391
0.042573743 -0.15601121 1.2058421 3369392
0.052340023 -0.15294084 1.2052298 3369390
0.061885446 -0.1516975 1.2016371 3435184
0.071239762 -0.1499058 1.1978328 3369392
-0.056178823 -0.14257266 1.1988863 3369646
-0.049004674 -0.14482048 1.2036608 3303853
-0.041681483 -0.14808476 1.2060288 3173034
0.054156922 -0.14476943 1.2058926 3566773
0.062320784 -0.14332938 1.2052214 3566516
0.072097547 -0.14127368 1.2022847 3500977
0.082019165 -0.14175355 1.1995497 3500975
-0.066530652 -0.13075893 1.198176 3632562
-0.057600915 -0.13372025 1.2011433 3501236
-0.050077245 -0.13381796 1.2056861 3501494
0.074190535 -0.1321878 1.2059374 3698612
0.081757791 -0.13239241 1.2035601 3567283
0.090577096 -0.12979376 1.2008586 3567283
0.097943321 -0.12659834 1.1979328 3501747
-0.073873453 -0.12122199 1.1982468 3895478
-0.068248652 -0.12369376 1.2007226 3698613
-0.059339151 -0.12454539 1.2048695 3633080
0.07552918 -0.12554042 1.2059762 3699128
0.082039163 -0.12224896 1.2059859 3830713
0.091511153 -0.1217067 1.2047738 3699126
0.098302841 -0.12018152 1.1979718 3633333
-0.075304538 -0.11322984 1.1982986 3961271
-0.068542875 -0.11362104 1.2032852 3896247
-0.06176462 -0.11612324 1.2062588 3764921
0.08182618 -0.11530179 1.2060291 3962300
0.092648998 -0.11261976 1.2055573 3896506
0.10015192 -0.11056899 1.2000282 3764920
-0.076807521 -0.10394319 1.1998583 3830712
-0.069947436 -0.10345015 1.205017 4093627
0.095448039 -0.10172372 1.2060906 4028352
0.1008231 -0.10099784 1.2007529 3962812
-0.077364981 -0.09363737 1.2004228 3962556
-0.07090266 -0.094711989 1.2059612 4028606
0.094761692 -0.091328882 1.2061558 4357317
0.1011693 -0.091392495 1.2021449 4225985
0.10650323 -0.087541185 1.1981598 4225985
-0.077011555 -0.084622346 1.2004778 4028606
-0.072233938 -0.084782451 1.2064692 4094655
0.095165186 -0.083288155 1.2062048 4554695
0.10095963 -0.081009738 1.2016093 4554182
0.10713753 -0.079135686 1.1982106 4619462
-0.077859908 -0.073971301 1.1990154 4159424
-0.069890842 -0.072904825 1.2053077 4160448
-0.063606307 -0.07120423 1.2065388 4554440
0.095421009 -0.069915295 1.2062868 4620747
0.10100418 -0.070832416 1.2040219 4686026
0.10740203 -0.071499132 1.1982572 4619977
-0.077388912 -0.064296424 1.1986037 4291265
-0.069317453 -0.064216562 1.2038412 4357573
-0.063712381 -0.064290889 1.2065816 4751563
0.010374056 -0.060464337 1.2064841 4818903
0.018043896 -0.059578259 1.206477 4819160
0.093446605 -0.06141714 1.2063425 4752590
0.10086063 -0.061631802 1.2040789 4817869
0.10613444 -0.063504472 1.1983086 4752076
-0.075548604 -0.05468142 1.19866 4291778
-0.069561116 -0.05391087 1.202234 4554440
-0.063836128 -0.056225326 1.2066315 4883149
-0.045362934 -0.048841968 1.2026469 5674209
-0.039620757 -0.048753813 1.202638 5082331
-0.028211558 -0.051429857 1.2044696 4950745
-0.018870575 -0.053007219 1.2019778 4884953
-0.0096843299 -0.052855808 1.2017637 4753366
0.00062871911 -0.051608045 1.2029545 4884692
0.011238317 -0.053062815 1.2020838 4884692
0.019987509 -0.052210137 1.2027297 4884692
0.030169688 -0.050878454 1.2051775 4950484
0.041119315 -0.051649708 1.203377 4950488
0.049895801 -0.051261146 1.2043586 4950489
0.060481288 -0.049657512 1.2054021 5411037
0.069460958 -0.049280804 1.2064565 5542623
0.083545014 -0.047047723 1.2064472 5213404
0.09136685 -0.049808878 1.2064174 5081558
0.099705122 -0.051906787 1.2039908 5015248
-0.070476592 -0.044136126 1.1987168 4685772
-0.048257373 -0.043337803 1.1997763 5542365
-0.039285235 -0.043380778 1.1998134 4951002
-0.030507343 -0.04426593 1.1986506 4884951
-0.021217542 -0.045996744 1.1986247 4753366
-0.0074995942 -0.044641271 1.1986107 4950484
0.0013756445 -0.044791229 1.1985953 5015763
0.03143524 -0.045188405 1.1985437 5015764
0.038302992 -0.045082971 1.1985332 4885461
0.050224759 -0.043918625 1.1985208 4884950
0.060999706 -0.042700917 1.200357 5082072
0.070362434 -0.041436445 1.2033033 5542624
0.079963304 -0.042461868 1.2056813 5279197
0.090090349 -0.041040171 1.2028736 5213144
0.097430281 -0.043411978 1.1984468 5212627
0.064488895 -0.035521958 1.1985493 5016538
0.070185676 -0.033717185 1.1985511 5213917
0.07968618 -0.031090766 1.1985518 5345245
0.090071954 -0.033245519 1.1991882 5213917
0.18130897 -0.034021877 1.2063677 13158081
-0.0081093032 -0.15964486 1.2099028 3303598
0.0046072779 -0.15944964 1.2098832 3303850
-0.036711387 -0.14944595 1.2100124 3303853
-0.026916893 -0.15089409 1.2103446 3304111
-0.017312026 -0.15287659 1.2120649 3303857
-0.0082288645 -0.15306592 1.2126936 3303856
0.0021993527 -0.1529388 1.2129273 3369903
0.012575492 -0.15123315 1.2099208 3435441
0.021655384 -0.15200664 1.2099012 3435187
0.032122515 -0.15120837 1.2098891 3500978
0.04263287 -0.15077171 1.2098745 3369649
0.049313143 -0.14905033 1.2098743 3435441
-0.044995531 -0.14209571 1.2100713 3370159
-0.03843274 -0.14276582 1.2100564 3370416
-0.028070537 -0.14288355 1.2122889 3436469
-0.017687565 -0.14306405 1.2150208 3502005
-0.0084010493 -0.14292149 1.2150065 3501749
0.0020997077 -0.14624348 1.2149688 3501493
0.012478551 -0.14244319 1.2137252 3567542
0.021774871 -0.14241879 1.2146478 3567541
0.032182265 -0.14211059 1.2134451 3633333
0.042524502 -0.14163589 1.2108686 3567541
0.051107354 -0.14076856 1.2099224 3633079
0.0611099 -0.13842945 1.2099204 3632566
-0.045510948 -0.13362405 1.2101244 3501750
-0.038646735 -0.13380501 1.212612 3567798
-0.030237714 -0.13423614 1.2150958 3633848
-0.016615802 -0.13724229 1.2150549 3633591
-0.009650914 -0.13713536 1.2150441 3699128
0.012386749 -0.13563596 1.2150174 3830714
0.022834077 -0.13547558 1.2150013 3764921
0.03231708 -0.13438001 1.2149926 3830712
0.042857472 -0.13330127 1.2146249 3830713
0.051561944 -0.13286555 1.2143039 3830458
0.061882474 -0.13242872 1.2123246 3764409
0.069979608 -0.13075741 1.2105088 3764407
-0.054694876 -0.12289578 1.2102056 3698874
-0.048066072 -0.12349239 1.2124411 3764923
-0.039493255 -0.12407048 1.2151736 3765435
-0.033009678 -0.12820542 1.2151375 3699641
0.060629345 -0.12676784 1.2149932 3896252
0.070684277 -0.12212817 1.2123864 3831226
0.078027092 -0.12132072 1.2099984 3830458
-0.057478726 -0.11349738 1.2110575 3896508
-0.04833179 -0.11334679 1.2152542 4028352
-0.040427573 -0.11392207 1.2152376 4094143
0.071801625 -0.11219792 1.2114934 4159936
0.081103235 -0.11078966 1.2100582 4028352
0.089116812 -0.10929834 1.2100544 3962559
-0.06562499 -0.10386892 1.2103407 4093628
-0.058720753 -0.10383186 1.2110797 4028352
-0.048461482 -0.10403271 1.2149993 4094401
-0.04176648 -0.10233197 1.2153113 4225986
0.073130175 -0.10301556 1.2137556 4357317
0.08138407 -0.10186516 1.2129254 4225732
0.090207405 -0.10124528 1.2101022 4159938
-0.06676539 -0.09414044 1.2104026 4028609
-0.058582745 -0.094095834 1.2117531 3963330
-0.049242817 -0.094032422 1.2153747 4160708
-0.042777054 -0.097006567 1.2153459 4292035
0.075536951 -0.089384839 1.2151995 4620236
0.081028007 -0.092023745 1.2137853 4488649
0.089504018 -0.092503741 1.2101573 4357318
-0.068078548 -0.083919041 1.2104678 4160449
-0.059469022 -0.083987236 1.214149 4160708
-0.050177135 -0.083884016 1.2154388 4489161
0.081995264 -0.082733378 1.2141585 4555212
0.090249136 -0.081356205 1.2102249 4620489
-0.16035768 -0.076751433 1.215663 14082013
-0.066815466 -0.076521322 1.2105113 4226242
-0.058743663 -0.074123144 1.2130131 4620234
-0.051675566 -0.071986735 1.2155147 5079759
-0.017630951 -0.071077049 1.2154647 6791922
-0.0095230639 -0.069791503 1.2154593 5608162
0.00092426501 -0.069631115 1.2154433 5016279
0.011073576 -0.071499959 1.2140515 5608413
0.019506199 -0.069926374 1.2154111 4950485
0.026462179 -0.06923905 1.2154039 5016277
0.084556326 -0.071830377 1.2152929 4752847
0.090454154 -0.07173083 1.2120486 4620747
-0.059556469 -0.065216631 1.2115693 4948687
-0.049026363 -0.068075836 1.2155344 5408980
-0.027514653 -0.064600334 1.2135977 6134248
-0.018864179 -0.063987896 1.2130103 5344990
-0.0099266581 -0.064037472 1.2133526 4884696
0.0012414325 -0.06390997 1.2134192 4818902
0.011714755 -0.064986058 1.2104541 4818646
0.020827165 -0.063766778 1.2111611 4818646
0.030930433 -0.063178316 1.212184 4884696
0.041008517 -0.062529609 1.2122072 5344733
0.050257422 -0.062366366 1.2118359 5936870
0.059978053 -0.061711669 1.2145622 5608416
0.069059044 -0.060689833 1.215387 5082072
0.081864305 -0.061249219 1.2123625 5016278
0.088227734 -0.062655106 1.2103435 4884178
-0.028166981 -0.058197983 1.2105613 5082331
0.00073434133 -0.057754282 1.2105167 4687574
0.023855401 -0.057399321 1.2104812 4687574
0.031772487 -0.056617025 1.2104729 4819159
0.038884088 -0.057168595 1.2104579 4950233
0.051600672 -0.056973368 1.2104384 5542369
0.060315587 -0.055554792 1.2104329 5805540
0.073127121 -0.05317397 1.2104266 5213659
0.080448791 -0.053061571 1.2104154 5147866
0.089341424 -0.054852221 1.2103897 5081557
0.002042138 -0.14208968 1.2189946 3633335
-0.025647765 -0.13192499 1.2191025 3699641
-0.018117538 -0.13225789 1.2190882 3765177
-0.0083962344 -0.13229366 1.2207191 3830714
0.0019086441 -0.1330996 1.2219303 3962299
0.012351669 -0.13035661 1.2197168 4028092
0.021180969 -0.13101085 1.2193173 3962300
0.030688968 -0.13050541 1.2197465 3962299
0.040229887 -0.1290658 1.2212348 3962299
0.052612439 -0.12780073 1.219 3896509
0.06238813 -0.12718469 1.2189878 3830714
-0.035547443 -0.12169898 1.2191818 3962813
-0.028959522 -0.12333897 1.2209387 3962813
-0.017984891 -0.12440022 1.2231365 4028350
-0.0087110605 -0.12638272 1.2231091 4093886
-0.0017004665 -0.12627509 1.2230984 4093886
0.012266943 -0.12255462 1.2230985 4291263
0.021614404 -0.12241111 1.2230841 4291265
0.03096186 -0.1222676 1.2230697 4291265
0.041477755 -0.12210616 1.2230535 4225471
0.051880002 -0.12168 1.220539 4159424
0.06113416 -0.12137957 1.2190257 4028351
-0.036855005 -0.11240004 1.2192413 4159681
-0.031288192 -0.11408463 1.222131 4159937
0.012141457 -0.11437573 1.2231491 4685507
0.021708263 -0.11329392 1.2231401 4685766
0.030588347 -0.11315758 1.2231265 4685768
0.042613883 -0.11305796 1.2231075 4685254
0.05183851 -0.11257225 1.2228453 4553924
0.061003394 -0.1120865 1.2193333 4357059
0.066778608 -0.10964414 1.2190888 4291524
-0.037956826 -0.1044857 1.2196252 4291267
-0.032180466 -0.10353027 1.2224884 4291525
0.022549789 -0.10720382 1.2231764 5080013
0.029560383 -0.10709619 1.2231655 5013964
0.044678301 -0.10218935 1.2231711 5014215
0.051688895 -0.10208172 1.2231603 4948424
0.060993969 -0.10186419 1.2223464 4686025
0.068600491 -0.10113706 1.2207384 4554696
-0.045328997 -0.091562353 1.2193836 4423366
-0.039763086 -0.093647279 1.2212284 4489158
-0.033714235 -0.096380733 1.223335 4554697
0.044516955 -0.091673642 1.2232362 6725605
0.051764823 -0.091796108 1.2232236 5541334
0.060875013 -0.091422513 1.2232111 4949456
0.07087256 -0.09241911 1.2216647 4752076
-0.046636559 -0.08226341 1.2194431 4751821
-0.040877335 -0.083536722 1.2220926 4817612
-0.015270287 -0.079735965 1.2234076 6133729
-0.012933424 -0.079700083 1.2234039 5804510
0.01161561 -0.080102324 1.2233614 6726116
0.019782687 -0.079197817 1.2233536 6791913
0.032635443 -0.079000503 1.2233338 5673696
0.041381575 -0.081982724 1.2233012 5344728
0.052552573 -0.082200788 1.2232815 5475805
0.060731605 -0.082075223 1.2232689 5147095
0.071172312 -0.081827492 1.2220533 4949712
0.079698265 -0.078576565 1.2192594 4621777
0.18803693 -0.07661473 1.2230945 11781308
-0.049055144 -0.076476157 1.2194828 4883150
-0.040156156 -0.074398078 1.219481 6001884
-0.029310161 -0.072678402 1.219474 6133474
-0.017639743 -0.075405426 1.2210381 6067939
-0.0098042563 -0.074572228 1.2205213 6594284
0.0011997018 -0.073132515 1.2205122 6002915
0.012214754 -0.076234445 1.2193841 6857704
0.021203402 -0.07408455 1.2200494 6397928
0.030390024 -0.0732871 1.2212393 6397674
0.039431684 -0.073339418 1.2217575 6002659
0.051429257 -0.072878882 1.2222742 5476060
0.060499489 -0.072617009 1.2215775 5213402
0.07107269 -0.073680408 1.2225038 5081814
0.081122532 -0.072457433 1.2199101 4818898
0.19088182 -0.07160414 1.2231208 12896707
0.043989636 -0.066893578 1.2193898 6331369
0.053306624 -0.066750534 1.2193754 5805025
0.06029436 -0.06664326 1.2193646 5213658
0.0712777 -0.065439209 1.2193542 5213658
0.079612821 -0.065414771 1.2193407 5082070
-0.025270561 -0.12014157 1.2281748 4160192
-0.018458838 -0.12050636 1.2281615 4159936
-0.0088098533 -0.12223575 1.228135 4225472
0.0021519596 -0.12284975 1.2281133 4225471
-0.025974153 -0.11252494 1.228223 4160194
-0.018339397 -0.11299445 1.2282076 4291265
-0.008953847 -0.11285037 1.2281932 4422851
0.0016097669 -0.11287229 1.2300957 4685254
0.012109643 -0.10900665 1.2281824 4882628
0.017975612 -0.1089166 1.2281734 4817092
0.034400322 -0.10866444 1.2281481 4948684
0.039724693 -0.11151631 1.2281218 4816582
-0.026912278 -0.10236946 1.2282871 4291525
-0.018504003 -0.10245749 1.2285228 4422855
-0.0091253109 -0.10246722 1.2302574 4619977
0.0014529629 -0.10244902 1.2318403 4883149
0.012001645 -0.10196762 1.2282259 5146063
0.021387195 -0.10182352 1.2282115 5211603
0.030772746 -0.10167944 1.2281971 5145806
0.0389851 -0.10155336 1.2281845 5014214
-0.034860663 -0.091656633 1.2283661 4555210
-0.028030941 -0.093194611 1.2283455 4686540
-0.018992556 -0.093699999 1.230042 4883407
-0.0092649087 -0.094409518 1.2323074 5014738
0.0013281154 -0.094246894 1.2322911 5541336
0.011872074 -0.092683092 1.2295334 5672923
0.021247225 -0.092458203 1.2285196 5935587
0.030628748 -0.092294052 1.2282552 6132702
0.038841102 -0.092167974 1.2282425 7120103
0.04817266 -0.088504374 1.2282499 8699647
-0.035160102 -0.087436818 1.2283927 4818381
-0.028120941 -0.087328747 1.2283819 4752589
-0.019126458 -0.087190665 1.228368 5081042
-0.012111289 -0.085518368 1.2283669 6462440
-0.0023466777 -0.084586158 1.2283566 6857199
0.011749649 -0.085543193 1.2283276 6396899
0.021520264 -0.085002042 1.2283151 6199269
0.030502751 -0.084081843 1.2283061 5804767
0.039757945 -0.083939753 1.2282917 5410263
0.048100658 -0.083811671 1.228279 5541596
0.19350471 -0.076885596 1.228084 12831428
