# .PCD v0.7 - Point Cloud Data file format
VERSION 0.7
FIELDS x y z rgba
SIZE 4 4 4 4
TYPE F F F U
COUNT 1 1 1 1
WIDTH 1128
HEIGHT 1
VIEWPOINT 0 0 0 1 0 0 0
POINTS 1128
DATA ascii
0.15142293 -0.13207355 1.1213233 3237547
-0.12549701 -0.12536038 1.1220351 2973083
-0.12269314 -0.12583558 1.1263912 3038877
0.15439728 -0.12235352 1.1225309 3827369
0.15695336 -0.12120929 1.1163189 3564710
-0.12667538 -0.11541632 1.1233807 3039391
-0.12395296 -0.11732042 1.1271372 3170977
0.15452269 -0.11226113 1.1224192 3565735
0.15683402 -0.11265417 1.1163816 3500198
-0.12688442 -0.10724224 1.1255852 3170977
0.15465468 -0.10323501 1.121815 3631790
0.15580082 -0.10491731 1.1244531 3434923
-0.12720123 -0.09668503 1.124665 3302823
0.15416124 -0.09178964 1.1220706 3566513
-0.12732933 -0.086674519 1.1234047 3368614
0.15312794 -0.082547225 1.12219 3632560
-0.12691356 -0.078971617 1.1247871 3565995
0.15176922 -0.072387673 1.1210104 3895728
-0.12416506 -0.063894592 1.1264546 3697842
0.14927065 -0.062453602 1.1196512 4158132
-0.12263727 -0.055559207 1.1252551 3502262
0.14800864 -0.051810805 1.1209457 4027837
-0.12013337 -0.046004325 1.1247005 3698611
0.14305328 -0.040463276 1.1250999 4619197
0.1488201 -0.043441582 1.1194549 4946612
-0.12653644 -0.03962604 1.1210617 7180220
-0.11888616 -0.036572844 1.1281722 4815032
0.14286801 -0.033978619 1.1244822 5209534
0.14745991 -0.032107487 1.1170938 8425655
0.017128762 0.088606246 1.1198676 9474444
-0.057335477 -0.2219616 1.1337475 8300241
-0.075715676 -0.21399763 1.1304373 7642055
-0.068183452 -0.21456487 1.1324593 4815810
-0.061355319 -0.2179303 1.1338353 5210825
-0.0850247 -0.20221117 1.1302943 932767
-0.07798335 -0.20556882 1.1318514 2382238
-0.069290176 -0.20850363 1.134019 2251168
0.11415194 -0.20267347 1.1313682 6518691
0.11995311 -0.20155524 1.1298622 11319227
-0.086818725 -0.19550802 1.1322353 2447513
-0.081345677 -0.19891807 1.1342642 2513045
0.12168786 -0.19331051 1.1302716 4617903
0.12868781 -0.19320676 1.1272218 10929103
-0.096433997 -0.18461227 1.1320421 2971544
-0.090462342 -0.18829784 1.1324736 2774929
0.12362184 -0.18401028 1.1296953 2909086
0.12847964 -0.18297622 1.1272978 3105187
-0.10417268 -0.17151809 1.1307943 2709911
-0.099446878 -0.17652902 1.1330423 2644371
0.1298701 -0.17314485 1.1279629 3368356
-0.10656887 -0.16494957 1.1326947 2775444
-0.10153009 -0.1690089 1.1334404 2709910
0.13416597 -0.16322467 1.1289554 3368613
0.13830712 -0.16018918 1.1273161 3499683
-0.10990608 -0.15642336 1.1324862 2841497
0.13589607 -0.15576066 1.1313835 3237027
0.14054769 -0.15296599 1.1286682 3302821
-0.11601132 -0.14491072 1.1317292 2645144
-0.11246546 -0.14660594 1.1342051 2775964
0.14354078 -0.14299515 1.129544 3237542
0.14756599 -0.1393524 1.1286623 3106215
-0.11794586 -0.13654478 1.1327006 2907291
0.14478789 -0.1334281 1.1300788 3499683
0.14783931 -0.13139321 1.1285245 3303338
-0.11905576 -0.12664071 1.133733 3039134
0.1493393 -0.12288212 1.1288322 3499947
-0.12443717 -0.11239867 1.1315134 3236770
-0.12216951 -0.11668171 1.1347833 3236770
0.15092999 -0.11235447 1.1292903 3500458
-0.12452754 -0.10591947 1.1315609 3237027
-0.12273844 -0.10628559 1.1355325 3302821
0.153156 -0.10177698 1.1298008 3632048
-0.12466311 -0.096200682 1.1316322 3302824
-0.12286691 -0.09707436 1.1356001 3302569
0.15130304 -0.09291257 1.1297872 3632047
-0.12522158 -0.087135881 1.131705 3434408
-0.12241942 -0.084758207 1.1356813 3434665
0.14775144 -0.081912108 1.1295542 4026292
-0.12493426 -0.076763093 1.1317748 3631531
-0.12316169 -0.075942703 1.1357551 3631531
0.14772689 -0.073923469 1.1282376 4157366
-0.12502465 -0.070283905 1.1318223 4025255
-0.1219127 -0.06513384 1.1340994 3632304
0.14701934 -0.062139675 1.1278875 4289211
-0.11858656 -0.056090131 1.1335435 3568048
0.14372337 -0.051421858 1.128679 4094399
0.14613506 -0.055785369 1.1299461 4224702
-0.11738743 -0.050015099 1.1318548 3764911
-0.11397114 -0.045670349 1.134336 3895729
0.14106128 -0.043043103 1.129566 4487616
-0.11880998 -0.031950086 1.1350049 6458567
-0.11383136 -0.035648741 1.1343054 3895996
0.14082156 -0.032000512 1.1285934 5735616
0.14763214 -0.028648652 1.1281174 9477559
-0.11839376 -0.029268533 1.136018 6852289
-0.11514302 -0.029222839 1.1359706 5933254
0.050070699 0.074747525 1.1302868 9474701
-0.020256784 -0.23198038 1.1451335 7248329
0.012594941 -0.2331045 1.1438432 5801654
0.020592829 -0.23185867 1.1432014 5210039
0.033414163 -0.23232129 1.1443434 6328255
0.041079257 -0.23221356 1.1442316 7379645
0.052636042 -0.23192942 1.1440641 8430007
0.060502496 -0.23001581 1.1399616 8625323
-0.058386419 -0.22433135 1.1377467 9678537
-0.047467161 -0.22422755 1.1441143 4422071
-0.038099889 -0.224783 1.1454468 2778029
-0.028313305 -0.22646055 1.1452911 2513574
-0.020662524 -0.22906521 1.1451603 2315684
0.0092780311 -0.22937459 1.1447186 2120102
0.021323182 -0.22920528 1.1445431 2185635
0.034448072 -0.22792548 1.1443595 2186146
0.039938413 -0.22894362 1.1442717 2316696
0.055238057 -0.22653791 1.1440643 4486314
0.062762275 -0.22602254 1.1419572 5997746
0.073880866 -0.2229127 1.1426735 6063288
0.082546189 -0.2213347 1.1437006 6589614
0.090652332 -0.22143981 1.1435808 8757678
-0.063990265 -0.21244544 1.1379137 1855898
-0.057187419 -0.21488252 1.141035 2249885
-0.049413916 -0.21711314 1.1449401 2381985
-0.041245356 -0.21913159 1.1455332 3039902
0.076445699 -0.21583433 1.1438293 2841504
0.082460627 -0.21520212 1.1437455 3302564
0.091974303 -0.2128029 1.1422895 4420011
0.1016998 -0.21180084 1.1377723 6984117
0.11106534 -0.20889711 1.1353697 6254993
-0.075270012 -0.2020891 1.1389532 2710418
-0.067446992 -0.20526968 1.142397 2775447
-0.060652148 -0.20742431 1.1451014 2906776
0.094325602 -0.20488311 1.143245 3171492
0.10277486 -0.20336998 1.1403313 3237285
0.11103146 -0.20200852 1.1359907 3629215
-0.078195259 -0.19521011 1.1430457 2775191
-0.069974169 -0.19860521 1.1454345 2906012
0.10462628 -0.19414921 1.1419035 3040421
0.11149594 -0.19234467 1.138429 3105703
0.11736217 -0.19249314 1.1353942 2777257
-0.09378989 -0.18132108 1.1385731 2710677
-0.086918443 -0.18513548 1.1419748 2709909
-0.080615222 -0.18867379 1.144328 2709910
0.11258325 -0.1839757 1.1420523 3368100
0.12007461 -0.18200301 1.1375628 3302561
-0.095063612 -0.17481701 1.1417496 2710421
-0.090179488 -0.17763072 1.1457473 2644886
0.11455433 -0.17619586 1.1435527 3040936
0.12252221 -0.17296936 1.1413715 3237031
0.12884289 -0.16995789 1.1383867 3368615
-0.1049369 -0.16189922 1.1388751 2776209
-0.099373668 -0.16633764 1.1435125 2841240
0.12446687 -0.16447051 1.1434909 3237287
0.13081588 -0.16211686 1.1382709 3302822
-0.10596359 -0.155294 1.1434712 2710683
-0.10118166 -0.15854001 1.1461784 2841499
0.13299842 -0.153687 1.1408539 3237541
0.137876 -0.15087529 1.1369901 3237798
-0.10820243 -0.14677361 1.1441745 2907293
0.13459879 -0.14491664 1.1434816 3237797
0.13922299 -0.14227143 1.1384319 3303334
-0.1147313 -0.13513777 1.1403527 2907805
-0.11242105 -0.1367861 1.146365 2907805
0.1409702 -0.13290173 1.141029 3434407
-0.11533774 -0.12584947 1.1419519 3039392
-0.11262469 -0.127033 1.1472378 3039391
0.14277822 -0.12330194 1.1409439 3500202
0.14680807 -0.12029123 1.1354769 3631274
-0.11858737 -0.11674052 1.1439315 3170979
0.14461793 -0.11302349 1.1431175 3631791
0.14791706 -0.11236579 1.1372952 3566510
-0.11911848 -0.10640587 1.1451942 3105957
0.14362279 -0.10191353 1.141989 3632305
0.14878803 -0.10289381 1.1359054 3501227
-0.11967327 -0.096370332 1.1429878 3237546
0.14302593 -0.092843562 1.1411835 3698099
0.14757358 -0.093122222 1.1360595 3698094
-0.11918271 -0.086616181 1.1432884 3434923
0.14414075 -0.083557248 1.1417788 3895479
0.14632265 -0.085491747 1.1357323 3895477
-0.11894055 -0.076159149 1.1439785 3566256
0.14426152 -0.072261825 1.1431912 4027579
0.14669804 -0.0716272 1.1398262 4157882
-0.11808132 -0.06723091 1.1432731 3567024
0.14208163 -0.062750146 1.1427811 4159422
0.14634746 -0.06280452 1.138294 4289724
-0.11593644 -0.057346884 1.1411158 3567791
-0.11278228 -0.055407569 1.1464174 3764403
0.14021033 -0.052727185 1.1413897 4356797
-0.11125523 -0.046405144 1.1403631 3830196
0.13740076 -0.043176282 1.1405656 4619718
-0.10990024 -0.035500892 1.142759 3896507
0.13315196 -0.031345882 1.1412013 4817095
0.13763949 -0.031836443 1.1379093 4948420
-0.11761907 -0.02644299 1.1440278 6916535
-0.11012843 -0.026865765 1.1436073 5210049
0.1322474 -0.024982296 1.1433713 5013440
0.13666737 -0.024485879 1.1409764 5998788
0.03084854 0.047704063 1.1412346 5859448
0.039016351 0.047909908 1.1392589 6122362
0.044617437 0.048095204 1.1421783 6319482
0.055768579 0.049489371 1.1460252 5330522
0.031345978 0.052169807 1.1397351 5792108
0.039150536 0.053128697 1.139094 5527648
0.044556551 0.05246038 1.1422104 5067354
-0.014470104 -0.23189357 1.1480495 4354997
-0.007068336 -0.23283178 1.1499345 4684224
0.0028017163 -0.23238787 1.1483259 4289976
0.013738964 -0.22992823 1.1476495 2054307
0.024176387 -0.23033062 1.1474935 2777510
0.029681057 -0.23135141 1.1474054 4026798
0.046149105 -0.23111993 1.1471653 5604271
0.049968675 -0.22941896 1.1471213 4881326
-0.033591978 -0.22180814 1.1484021 3039902
-0.025623705 -0.22261772 1.1487794 2710943
-0.017088655 -0.22442751 1.151446 2645152
-0.0071230959 -0.2271705 1.1546429 2514339
0.0028071189 -0.22692338 1.1539656 2514851
0.012665921 -0.22426772 1.1523063 2842787
0.022511527 -0.22368944 1.1499655 2908579
0.032182924 -0.2231621 1.1503164 3039651
0.042401515 -0.22372973 1.1512736 2908578
0.051734231 -0.22272477 1.1508937 2778020
0.061707243 -0.22090591 1.1484386 2646433
0.071298018 -0.22344527 1.1468509 5012145
0.082843512 -0.22456416 1.1466734 8955830
-0.046734247 -0.21357504 1.1489395 2841242
-0.036834005 -0.21552387 1.1508281 2775960
-0.027780782 -0.21668616 1.1526206 2841500
-0.018289559 -0.21875247 1.1562004 2907551
0.013390805 -0.21756998 1.1557438 3105184
0.022598062 -0.21707198 1.1556122 3170722
0.032547452 -0.2169321 1.1554672 3302053
0.042673379 -0.21623689 1.1553235 3170723
0.053162657 -0.21516794 1.1551772 3105188
0.062456895 -0.21423116 1.1533329 3170467
0.072002128 -0.21385881 1.1493093 3236258
0.082069203 -0.21026048 1.1472313 3171236
-0.063510165 -0.20246153 1.1489792 2906776
-0.056932662 -0.20461395 1.1500103 2907033
-0.048416246 -0.20550649 1.1535699 2841497
-0.039058987 -0.20946087 1.1565715 2775704
0.063393146 -0.20875797 1.1550728 3105443
0.072237045 -0.20863366 1.1549438 3105443
0.082959577 -0.20475554 1.1535509 3105956
0.091232747 -0.20174214 1.1499135 3105956
-0.074642017 -0.19163623 1.1492198 2644884
-0.067480162 -0.19512625 1.1520902 2775705
-0.059031237 -0.19789983 1.1546135 2841497
0.086454168 -0.19737589 1.1548154 3172006
0.09406279 -0.1948792 1.1537215 3040421
0.099855453 -0.19242935 1.1511536 2974628
-0.083547503 -0.18297604 1.1494123 2645144
-0.076836303 -0.18467256 1.1523609 2710425
-0.071473852 -0.18732999 1.153776 2776216
0.10320565 -0.18374358 1.1514164 3171493
0.10810651 -0.1814208 1.1482106 3237026
-0.08665961 -0.17502062 1.1521033 2710424
-0.080202401 -0.17716849 1.1559509 2710937
0.10607535 -0.1771958 1.1546714 3302823
0.11230226 -0.17299949 1.1514516 3172005
0.11804099 -0.1697717 1.1505482 3172006
-0.095528692 -0.16374338 1.1497253 2841498
-0.091027126 -0.16623697 1.1545652 2907290
0.11476503 -0.16601573 1.1546236 3303592
0.12094548 -0.16253659 1.1532242 3237544
0.12693724 -0.15805393 1.1465007 3303337
-0.09738636 -0.15532386 1.1515272 2973342
-0.092660412 -0.15842628 1.1577222 3038879
0.12447807 -0.15472746 1.1538948 3237544
0.12872942 -0.15160482 1.1493207 3303336
-0.1055824 -0.1438798 1.1510147 2973342
-0.099407867 -0.1469909 1.1554024 2973600
0.13202854 -0.14244096 1.1505378 3368872
-0.10725026 -0.13604958 1.1524482 3039392
-0.10172829 -0.1368328 1.1580093 3236259
0.13322325 -0.1329961 1.1523379 3500460
0.13753305 -0.13045064 1.1465421 3434923
-0.10847683 -0.12642705 1.1530708 3170978
0.13415381 -0.12405993 1.1533048 3500719
0.13876382 -0.12147002 1.1499218 3500718
-0.11523744 -0.11533469 1.1503599 3237029
-0.11131828 -0.1166942 1.1562934 3237286
0.13901874 -0.11262912 1.1527534 3697329
-0.11535996 -0.10655101 1.1504242 3237543
-0.11269745 -0.10613336 1.1578892 3172263
0.14010231 -0.10349806 1.1522973 3697843
-0.11575316 -0.096940726 1.153499 3303340
-0.11361994 -0.095874965 1.158476 3303852
0.13973677 -0.093059577 1.1527772 3764149
-0.11599651 -0.087158881 1.1505719 3500716
-0.11318114 -0.085811339 1.1585413 3501229
0.14251111 -0.08257255 1.1513824 3764661
-0.11574286 -0.079102039 1.1506257 3566512
-0.11255597 -0.075666934 1.1549677 3632306
0.13938618 -0.072406448 1.1514 3896764
-0.11208853 -0.066038907 1.1550294 3698357
0.13329464 -0.062466942 1.1537567 4291265
0.13706292 -0.063542321 1.1481692 4225217
-0.11060876 -0.057006933 1.1547085 3764408
0.13393331 -0.052849215 1.1531491 4554434
0.13644564 -0.052495569 1.1471139 4488640
-0.10779129 -0.046260096 1.1555438 3895997
-0.10366865 -0.043025587 1.1587068 4027323
0.13337643 -0.042051066 1.1522342 4817354
-0.1064323 -0.036680885 1.1521251 3962044
-0.10238737 -0.035461731 1.1579418 4093118
0.123923 -0.02987437 1.1554602 5014224
0.12929519 -0.032501936 1.1513621 4751563
-0.10549933 -0.026245706 1.1508523 4290235
-0.10055381 -0.026081249 1.1553148 4158908
-0.094355077 -0.023727588 1.1587077 4028609
0.12213518 -0.022847511 1.1537585 4817874
0.12873735 -0.022431456 1.1484417 5145287
-0.098294199 -0.019385353 1.1531959 4487616
-0.092889398 -0.016677335 1.157403 4356800
0.113105 -0.010457017 1.1537572 5276623
0.11943279 -0.013352983 1.1499289 5604813
0.12883145 -0.014428057 1.1483862 6720449
-0.090865463 -0.0096718147 1.1587569 5671109
0.1111894 -0.004928574 1.1552535 5802961
0.11750628 -0.0055787191 1.1510603 6787017
0.034913376 0.0097888708 1.1570495 12972031
-0.020496245 0.018938728 1.1559278 5869264
0.01197924 0.015732661 1.1574285 7515376
0.019477131 0.015469447 1.1573166 8764660
0.029088762 0.015162252 1.1571733 10146554
0.035736077 0.014223598 1.1570691 10870005
-0.07841666 0.026481278 1.1508309 8028800
-0.073298365 0.026919268 1.1507589 7305855
-0.016093273 0.020129845 1.1578718 5671370
-0.012776813 0.020176463 1.1578236 5869265
0.010438427 0.020502783 1.1574851 6988787
0.014860378 0.020564936 1.1574206 7185904
0.10096504 0.030621611 1.1562287 6314850
-0.072148293 0.031938218 1.1507778 8028802
0.097820327 0.034115948 1.1562997 6117979
0.073601812 0.044358574 1.1487272 5593178
0.075797558 0.044389434 1.1486951 5658970
-0.012715379 -0.22166941 1.1600983 2973083
-0.0071534216 -0.22270083 1.1600094 2973595
0.0022774758 -0.22214282 1.1605417 2973598
-0.032837465 -0.21085621 1.1604708 2842012
-0.026439663 -0.2121533 1.1603676 2776219
-0.017043296 -0.21451308 1.161737 2907806
-0.0074069425 -0.21576902 1.1632208 2907807
0.0031594234 -0.2161624 1.1632384 2973599
0.011966476 -0.21367952 1.1604599 3039136
0.022704056 -0.21254325 1.1609771 3170723
0.032669295 -0.21227892 1.1601659 3236770
0.042450219 -0.21167576 1.1593599 3170979
0.051492278 -0.21133527 1.1592296 3170980
0.058124844 -0.20957762 1.1591449 3171236
-0.044054233 -0.20213704 1.1606976 2842012
-0.037293483 -0.20431846 1.1620376 2842011
-0.027634833 -0.2064492 1.1628877 2842012
-0.019305583 -0.20779301 1.1642945 2907805
0.027185967 -0.20853126 1.1636069 3302309
0.033164077 -0.20728205 1.1623851 3302308
0.041794401 -0.20702966 1.1609029 3171236
0.052547414 -0.20743681 1.159242 3171236
0.063176721 -0.20592606 1.1607636 3105443
0.072960854 -0.20386067 1.159968 3171492
0.079468071 -0.20188025 1.1588864 3040420
-0.065285608 -0.19133945 1.1610863 2841497
-0.056464937 -0.1939688 1.1614715 2907291
-0.047971349 -0.19651026 1.1626779 2907549
-0.041250117 -0.19761682 1.1646892 2907551
0.076007307 -0.19671088 1.1629746 3040420
0.082969218 -0.19475749 1.1609914 3106213
0.090721697 -0.19203153 1.1587915 3106214
-0.066850007 -0.18488884 1.1631554 2907290
-0.060202029 -0.18768603 1.1645381 2973340
0.087014124 -0.18764886 1.1628777 3302823
0.09299013 -0.18516214 1.1604074 3237030
0.099084064 -0.18167074 1.1605207 3237031
-0.084422201 -0.17163557 1.1615077 2841497
-0.075970247 -0.1750007 1.161893 2842012
-0.069784045 -0.17716819 1.1642537 2907547
0.10414876 -0.17390814 1.159647 3368361
0.10917324 -0.17057875 1.1586738 3237285
-0.085983798 -0.16573964 1.1615727 2973085
-0.079160988 -0.16588867 1.1642087 3039135
0.10634583 -0.16673487 1.1587427 3368615
0.11283338 -0.1633184 1.1593992 3237799
0.11734594 -0.15992264 1.1586298 3303337
-0.093559667 -0.15290076 1.1617754 2973857
-0.088059604 -0.15636516 1.1632258 3039137
-0.082079381 -0.15718 1.1655768 3104930
0.11473618 -0.15580037 1.1606977 3172264
0.12089804 -0.1528132 1.1592951 3238059
-0.09485057 -0.14472327 1.1628528 3039650
-0.090776071 -0.1482836 1.1657679 3105700
0.12402216 -0.14303578 1.1608063 3369132
0.12820677 -0.14312592 1.1585902 3434410
-0.097715288 -0.13620496 1.1636699 3171236
0.12581559 -0.13489535 1.1618843 3500719
0.12913747 -0.13253556 1.1606523 3435183
-0.10505497 -0.12421264 1.1621487 3302823
-0.10033789 -0.12614566 1.1647327 3171495
0.1297558 -0.12242726 1.1605334 3566514
-0.10690054 -0.11561322 1.1636919 3368873
-0.10317987 -0.11675037 1.1653749 3368875
0.13232781 -0.11318976 1.1595433 3697588
-0.10791314 -0.10656936 1.1649835 3303850
0.13379987 -0.10358786 1.162219 3763892
0.13696466 -0.10283518 1.158749 3698099
-0.10941456 -0.096376158 1.1640115 3435181
-0.10351813 -0.096800312 1.1663221 3435438
0.13468638 -0.093452059 1.1628498 3829942
0.13748302 -0.092842907 1.1599556 3764149
-0.10850774 -0.086692192 1.1644672 3501229
0.13450004 -0.080093712 1.1629479 3896505
0.13890335 -0.082898617 1.1606811 3830455
-0.10805391 -0.076820545 1.1640694 3632563
-0.10384421 -0.073423222 1.1664937 3567542
0.13200362 -0.07295078 1.1604637 4027837
0.13726194 -0.076422438 1.158933 3896505
-0.10743834 -0.066750944 1.1639271 3829940
-0.10393739 -0.066744052 1.1665426 3699127
0.1303864 -0.063368171 1.1617941 4291009
-0.10716911 -0.056601267 1.163462 3895737
-0.10345438 -0.055762187 1.1666139 4027576
0.13053271 -0.053321451 1.1611968 4422849
-0.10609181 -0.049883775 1.1626941 4158911
-0.10162717 -0.046136189 1.1646556 4093372
0.13033327 -0.043575365 1.1607691 4817355
-0.098017275 -0.036682166 1.1642084 4093630
-0.093272179 -0.033191741 1.1666255 4094397
0.12274259 -0.032938622 1.1616788 5080014
0.12726808 -0.036062375 1.1593676 4883149
-0.096027255 -0.029029697 1.1626951 4028348
-0.091535941 -0.02641993 1.164148 4028864
0.11811019 -0.023355976 1.1613706 4949202
-0.088102981 -0.016780436 1.1644845 4029123
-0.08388406 -0.01450289 1.166621 3963586
0.11190161 -0.01358407 1.1624204 5146069
0.11536513 -0.017921232 1.1596717 5080276
-0.087431431 -0.0089360029 1.1627122 5342665
-0.08028163 -0.0067154542 1.1666236 4882633
-0.016887184 -0.0020558909 1.1657264 6070261
-0.010208551 -0.001962021 1.165629 6528744
-0.0035299193 -0.0018681437 1.1655316 8827627
0.012053551 -0.0016490966 1.1653045 10340848
0.02080825 -0.0021622702 1.1651723 8895736
0.02832352 -0.0027564839 1.1650578 6266608
0.1026752 -0.00092466176 1.1629795 5475287
0.10718095 -0.0043672994 1.161222 5475028
-0.07692191 -0.00066206604 1.1646173 5999306
-0.070277795 0.0005409345 1.1645283 5540557
-0.061767276 0.0040006116 1.1637614 5803727
-0.049037199 0.0059046596 1.166255 4950220
-0.040060461 0.0049062073 1.1661161 5016280
-0.03033391 0.0044346973 1.16557 5411294
-0.020314515 0.0045754761 1.1635838 5806569
-0.010303609 0.0047169551 1.165078 7120874
-0.00071816705 0.0055941343 1.1655437 12379901
0.0098449551 0.0052368343 1.1628594 13891069
0.01965243 0.0051409602 1.1620411 12969723
0.029615546 0.0055115819 1.1627817 9946095
0.039694905 0.005418703 1.163036 10013177
0.04940005 0.007437624 1.162667 7449069
0.056061793 0.009361349 1.1647371 5411552
0.09968859 0.0029336885 1.1615506 6526426
-0.047127362 0.010880001 1.1662625 6264275
-0.039581813 0.011808045 1.163658 5803990
-0.030036878 0.012583338 1.1620233 5345755
-0.020049062 0.013985634 1.1618867 5412839
-0.010461174 0.014709875 1.1622512 5676266
-0.0013775583 0.013898849 1.1644696 7253489
0.0084286295 0.013868794 1.1624681 8436213
0.018423032 0.01178503 1.1613064 12051453
0.032781981 0.016425282 1.1611288 10082302
0.040631332 0.015795887 1.1610091 10607102
0.049126599 0.015069887 1.1608791 7515119
0.056192193 0.014545657 1.1621052 6068200
-0.0083238836 0.020285897 1.1617596 6001365
-0.0038866978 0.020348266 1.1616949 6396124
0.10851549 0.027698167 1.1600976 6447199
-0.0039040819 -0.21194071 1.1680394 3039391
0.0036519775 -0.21127331 1.1694335 3039135
0.015083455 -0.21167381 1.1677628 3104930
-0.033099659 -0.20117888 1.1685448 2776478
-0.026682213 -0.20199913 1.170445 2842271
-0.016726002 -0.20351478 1.1724701 2907807
-0.0074668508 -0.20524794 1.1728358 2908063
0.002578374 -0.20596468 1.1737877 2973600
0.01287723 -0.20483392 1.173178 3105187
0.022785638 -0.2043367 1.1721164 3236773
0.032460622 -0.20285621 1.1713043 3237029
0.043408647 -0.20278844 1.1712108 3171237
0.053038359 -0.20358601 1.1687635 3171236
0.062527247 -0.20188865 1.1680593 3105444
0.071339585 -0.20026946 1.1670184 3171493
-0.045368586 -0.19250368 1.1719872 2841758
-0.037226114 -0.19470271 1.172652 2907551
-0.028260261 -0.19570413 1.1753372 2842271
-0.017542098 -0.19675094 1.176349 2908064
-0.010779221 -0.19778073 1.1762425 2973857
0.010586876 -0.19748041 1.175931 3105444
0.02344257 -0.19629985 1.1757507 3237030
0.033485338 -0.19656864 1.1748013 3302823
0.043132883 -0.19565064 1.1745431 3171495
0.052466944 -0.19410649 1.1739489 3105703
0.062176004 -0.19422716 1.1735967 3105703
0.071946748 -0.19357756 1.1715578 3105702
0.080203757 -0.19093642 1.1686693 3105958
-0.056776274 -0.18495381 1.1706553 2973598
-0.048694212 -0.18659326 1.1748785 2907551
-0.038748648 -0.18833151 1.1767204 2908065
0.073660858 -0.18517235 1.1750931 3237288
0.082434088 -0.18431729 1.1725255 3302823
0.091024488 -0.18213162 1.1694305 3237287
-0.066318855 -0.17382734 1.1720849 3105183
-0.058762003 -0.17711961 1.1752114 2974112
-0.050404508 -0.1792154 1.1769565 2842786
0.083867684 -0.177553 1.1749976 3171750
0.092426255 -0.17381245 1.1735651 3172008
0.10040334 -0.17191285 1.1691276 3303081
-0.074609861 -0.1642442 1.1700842 3104930
-0.068263739 -0.16652048 1.1759757 3170978
0.094817743 -0.16544361 1.1749232 3303337
0.10254046 -0.16379857 1.1725713 3368873
0.10941598 -0.16237172 1.1692755 3237543
-0.08459115 -0.15161002 1.1723211 3040164
-0.077800289 -0.15528005 1.1733181 3105701
-0.071298078 -0.15963686 1.1774027 3302822
0.10402042 -0.15477286 1.1748643 3303597
0.11132465 -0.15221046 1.1704111 3238059
0.11833039 -0.1490414 1.1686943 3303852
-0.087104499 -0.14531823 1.1735141 3106213
-0.079249948 -0.14728162 1.1776077 3172007
0.11215922 -0.14315884 1.1746277 3369387
0.12003733 -0.14278078 1.1707141 3435181
-0.094435453 -0.13516471 1.1712494 3237030
-0.08779034 -0.13577697 1.1754813 3237800
-0.081331611 -0.13915578 1.1776961 3303594
0.11389646 -0.1370865 1.1748455 3500972
0.12219714 -0.13266712 1.1715047 3500976
0.12676989 -0.12966385 1.1667084 3500977
-0.095677719 -0.12593699 1.1731114 3237545
-0.090933055 -0.12756516 1.1770307 3303852
0.12389979 -0.12314782 1.174798 3566772
0.12716754 -0.12340334 1.1707476 3566515
-0.098323002 -0.11626463 1.1733581 3369389
0.1246236 -0.11360326 1.1748555 3763639
0.12790187 -0.11258552 1.1699251 3763639
-0.1053277 -0.10251038 1.1716421 3435181
-0.099857241 -0.10614513 1.1747744 3435438
0.12511155 -0.10250867 1.1749275 3895737
0.13001776 -0.10228166 1.1696799 3764149
-0.10490215 -0.096035056 1.1727488 3435438
-0.099463135 -0.096619926 1.1767269 3501231
0.12503311 -0.096885562 1.1749687 3961530
0.13027966 -0.092792921 1.1697438 3961528
0.13737811 -0.089294709 1.1668406 3895735
-0.10474102 -0.08678481 1.1734126 3501489
-0.10043466 -0.086523317 1.1762339 3501490
0.1247821 -0.078891605 1.1751007 4159679
0.13048802 -0.083453499 1.1702565 3962041
0.13734695 -0.087060705 1.166857 3895735
-0.10532704 -0.079443753 1.1724733 3501747
-0.10052466 -0.076205432 1.1750931 3567541
0.12394352 -0.072529279 1.1751584 4225473
0.1275847 -0.072951004 1.1711013 4159424
-0.098908141 -0.066022217 1.1740751 3764919
0.12356988 -0.063660771 1.1752272 4422597
0.12744398 -0.062863678 1.1711754 4357059
-0.098554417 -0.056242682 1.1739682 3896505
-0.093737826 -0.056091785 1.1784706 3962298
0.12329675 -0.053041097 1.1753069 4685767
0.12730329 -0.052776366 1.1712494 4422851
-0.097247601 -0.047084179 1.1721855 4027836
-0.092181176 -0.04528736 1.1774337 4028094
0.1212433 -0.042459883 1.1732945 4948684
0.12709594 -0.044238083 1.168313 4751818
-0.095687896 -0.038944028 1.1706204 4093632
-0.09007965 -0.035458021 1.17641 4094399
0.11438251 -0.032169327 1.1755866 5080784
0.11863895 -0.033141524 1.1707165 5211343
-0.086971283 -0.026960194 1.1749423 4094402
-0.080448195 -0.023823753 1.1775056 4226244
-0.073966891 -0.022068597 1.1784232 4620744
-0.020005066 -0.020185255 1.1776445 5412064
0.0024855668 -0.019869119 1.1773167 6463211
0.010609255 -0.023592651 1.1771709 6397929
0.020285912 -0.022815831 1.1770344 6397929
0.02949225 -0.020775042 1.1769139 6003432
0.11121292 -0.022915788 1.1731987 5081042
0.11638552 -0.025908068 1.1676008 5081041
-0.079272792 -0.015956976 1.1724104 4160963
-0.071133196 -0.014944956 1.1775751 4752075
-0.056115571 -0.011694096 1.1782351 4949201
-0.049360532 -0.01216156 1.1781327 5016022
-0.039775237 -0.013141707 1.1773182 5213659
-0.029942192 -0.013903566 1.1766043 5411552
-0.020080857 -0.014550135 1.1768857 5740773
-0.0099627227 -0.014419883 1.1775383 6003172
0.00015100837 -0.014271751 1.1769909 6331366
0.010208713 -0.014085747 1.1742442 6989552
0.020314667 -0.013950832 1.1744968 6792432
0.030389428 -0.013796918 1.1737 5937640
0.03889605 -0.012778893 1.1758327 5806054
0.049606074 -0.011332892 1.1766859 5674725
0.056337573 -0.010113426 1.1765958 5674983
0.10219753 -0.011999704 1.1759093 5146841
0.10815939 -0.013936177 1.1700929 5080789
-0.076019734 -0.0073853135 1.1705569 4554184
-0.072541028 -0.0065319389 1.1735122 4751049
-0.057250757 -0.0060711578 1.1762916 4818129
-0.049821202 -0.005958572 1.1753832 5015507
-0.040332679 -0.0057865307 1.1718447 5147609
-0.030245889 -0.0056307465 1.1703976 5346018
-0.020563368 -0.0058960989 1.172865 5937898
-0.010102527 -0.0064972043 1.1729295 6462952
0.00032836478 -0.0055962726 1.1718938 8303605
0.0096871229 -0.0055602938 1.1707407 8501495
0.019544384 -0.0063938349 1.1697768 7252467
0.030855954 -0.0056982189 1.170455 6069484
0.040000059 -0.0044882968 1.1711907 6135528
0.050161134 -0.0047519431 1.1741362 5741031
0.059569474 -0.0044354871 1.1755887 5543655
0.06904339 -0.0030127093 1.17646 5477092
0.079088017 -0.001544781 1.1763231 5739747
0.090461746 -0.0016348884 1.1761554 5280481
0.09966284 -0.0041039214 1.17231 5015513
0.10514443 -0.0059821606 1.1699082 4949463
-0.069411725 -0.00058908761 1.1705084 4818122
-0.059993859 0.00053635985 1.1703782 5147606
-0.051317144 0.001403138 1.170257 4818639
-0.042605802 -0.00021229684 1.1701176 5344472
0.0020629717 0.00097419322 1.1694704 12971007
0.0065384191 0.00047847629 1.1694013 12905215
0.031110521 0.0008238703 1.1690431 5807584
0.044513494 0.0010122657 1.1688477 6004710
0.050563384 0.0020549297 1.1687663 5807083
0.059350375 0.0046389401 1.1707894 5477863
0.067896008 0.0043050125 1.1731952 5542628
0.079795852 0.0014647394 1.1763341 5673698
0.090313405 0.0035825372 1.1746947 5804766
0.095891535 0.001734443 1.1680987 5147865
0.0622283 0.012433499 1.1686691 5412324
-0.0039554555 -0.20063436 1.1801225 3039650
0.0025011944 -0.20118853 1.1800238 3039650
-0.024375763 -0.19302085 1.1804764 2842271
-0.017605726 -0.19292569 1.1803777 2973857
-0.007248763 -0.19388092 1.1814823 2973857
0.0025444003 -0.19550551 1.1825902 3039395
0.013164215 -0.193416 1.1817007 3171237
0.022438567 -0.19186209 1.1808645 3237030
0.032781497 -0.19116968 1.1811894 3302569
0.041117892 -0.19119218 1.1808617 3237546
-0.044187292 -0.18281898 1.18084 2908065
-0.0365978 -0.18367971 1.1807225 2973857
-0.027878173 -0.18532847 1.1815828 2973857
-0.018090736 -0.18710038 1.1825444 2973858
-0.0097605307 -0.18782629 1.1842995 3105444
0.021939639 -0.1873807 1.1838374 3237030
0.033617452 -0.1857066 1.1836779 3302825
0.042536527 -0.1851238 1.1832434 3171754
0.052374333 -0.18549146 1.1814039 3171752
0.062701434 -0.18491846 1.1806681 3171753
0.071088009 -0.18167958 1.1801564 3237546
0.079258382 -0.17914896 1.1790544 3303592
-0.055495147 -0.17351872 1.1810724 2908579
-0.047243398 -0.17558756 1.1829367 2908579
-0.03737681 -0.17692566 1.1836915 3105444
-0.028686866 -0.17857964 1.1846433 3105443
0.06596709 -0.17770216 1.1832602 3303339
0.073947668 -0.17530654 1.1818267 3303082
0.082282633 -0.1730653 1.1796248 3237545
0.088159174 -0.16999462 1.1789889 3303850
-0.06467928 -0.16236129 1.1812867 3302822
-0.057975058 -0.16658947 1.1834084 3040165
-0.050770584 -0.17028333 1.1850265 3040167
0.077162221 -0.16848508 1.1831616 3303598
0.083154202 -0.16439849 1.1821616 3238061
0.091659859 -0.162202 1.1801044 3303596
0.099300906 -0.15968013 1.178899 3369131
-0.074605137 -0.15196672 1.1815065 3171751
-0.068109408 -0.1555192 1.1827978 3368615
-0.061117869 -0.15910415 1.1852582 3171751
0.10104559 -0.15309091 1.1804206 3369134
-0.076678112 -0.14494178 1.181587 3369130
-0.070489034 -0.14683703 1.1844831 3434922
0.10205917 -0.14342177 1.1820225 3435183
-0.078503445 -0.13637799 1.1830084 3434923
0.10471417 -0.13629004 1.1821867 3501232
0.11142071 -0.13305856 1.1814996 3435694
0.11808917 -0.13119972 1.1788263 3501232
-0.086884782 -0.12534872 1.1828767 3369646
-0.081090555 -0.12903389 1.1844323 3435182
0.11503932 -0.12378664 1.1829245 3567282
0.11910447 -0.12317882 1.1806871 3567027
-0.095466197 -0.11275712 1.1820923 3501231
-0.090786949 -0.11664251 1.1847463 3435439
0.11492878 -0.11586096 1.1829827 3829686
0.11996695 -0.11296409 1.1811514 3829431
-0.095513418 -0.10937182 1.1821172 3501231
-0.091148376 -0.10608214 1.1837435 3567024
0.12214968 -0.10355578 1.181631 3830201
-0.095710173 -0.095266432 1.1822207 3632818
-0.092441902 -0.095955692 1.184168 3698612
0.12410913 -0.092911802 1.1810113 3896507
-0.095843971 -0.085674763 1.182291 3633333
-0.09195599 -0.085836478 1.1850332 3764919
0.12379496 -0.08270324 1.1805887 4093886
-0.096418083 -0.076879345 1.1823622 3633334
-0.092347071 -0.075912006 1.1855097 3830201
0.12066817 -0.073126934 1.1814252 4291523
-0.092089981 -0.065594211 1.184046 3896506
0.12002324 -0.062646016 1.1808871 4619975
-0.088942945 -0.055998553 1.1841159 4028348
0.11402851 -0.051323261 1.1834562 5146320
0.11847249 -0.053474572 1.1823754 4883148
-0.087377772 -0.046550151 1.1827316 3962814
-0.082379326 -0.045139618 1.18524 3963072
0.11289144 -0.042500228 1.1820356 5146577
0.11664729 -0.044055264 1.1799692 5080527
-0.086133793 -0.037457671 1.1824924 4028607
-0.079949319 -0.035639472 1.1845483 4291526
-0.030038677 -0.032963984 1.1857016 5147865
-0.022569656 -0.032632507 1.1855943 5344731
-0.0062793493 -0.031497553 1.1853634 5345501
0.00051354524 -0.031402074 1.1852643 5739743
0.010703018 -0.033480972 1.1837665 5936862
0.019761408 -0.033364348 1.1839677 5871068
0.029965207 -0.032120548 1.184827 5739228
0.048063796 -0.030733697 1.1845711 5213656
0.11089005 -0.033645026 1.1820281 4949970
-0.078307286 -0.028149143 1.182444 4422856
-0.069916263 -0.023281708 1.1841739 4686797
-0.059561331 -0.022009179 1.1842128 4884690
-0.04912496 -0.023311935 1.1855506 4950486
-0.038673177 -0.023918033 1.1845593 5213659
-0.030116271 -0.02495569 1.1825595 5279707
-0.019935668 -0.025952935 1.182803 5345244
-0.0097965524 -0.024177343 1.182578 5411808
7.3505566e-005 -0.025151014 1.1822242 5806052
0.0094382092 -0.028138481 1.1811562 6068964
0.021479083 -0.028345443 1.1809779 6068963
0.031494439 -0.025830537 1.1817721 6003173
0.039938435 -0.023999654 1.1825383 5608417
0.050145771 -0.023869872 1.1829894 5411038
0.057026222 -0.023812935 1.184489 5279709
0.10167132 -0.021421716 1.1829276 5212630
0.10734077 -0.024920247 1.1810757 5015248
-0.066323236 -0.017540656 1.1823437 4949712
-0.059553195 -0.017445497 1.182245 4949713
-0.049398135 -0.017302759 1.182097 5016279
-0.039990056 -0.017546728 1.1819571 5213659
-0.03132895 -0.018177412 1.1818255 5345501
0.041441116 -0.016590223 1.1807688 5871590
0.049895801 -0.015907057 1.1806495 5871847
0.060149178 -0.01354479 1.1825162 5543139
0.067421719 -0.01231546 1.182704 5280225
0.0919649 -0.011997215 1.1840605 5411294
0.09780778 -0.013310008 1.1814196 5279196
0.069523692 -0.0071662664 1.1804239 5411556
0.079090983 -0.0053388104 1.1802964 5412066
0.09037438 -0.0051802099 1.1801319 5477344
0.097175896 -0.0073419139 1.1800168 5213404
0.0035548061 -0.19094458 1.1880825 3105189
-0.016915452 -0.18277341 1.1894412 3039906
-0.0071803238 -0.18477441 1.1897128 3039908
0.0023965044 -0.18581492 1.1914698 3105447
0.012954896 -0.18487072 1.1887379 3105702
0.022008415 -0.1834888 1.1878648 3171750
0.030987047 -0.18294941 1.1877367 3237289
0.042423956 -0.1809293 1.1875833 3237548
0.052647576 -0.1807856 1.1874343 3171752
0.061735239 -0.18065786 1.1873019 3171752
-0.044736184 -0.17170073 1.1889285 3039909
-0.036864903 -0.17232794 1.1896974 3105701
-0.028648827 -0.17487463 1.1912154 3105443
-0.018954821 -0.18014319 1.1924903 3040163
0.011806149 -0.17879874 1.1920484 3105960
0.023188265 -0.177524 1.1918905 3105958
0.032251485 -0.17587918 1.1909691 3237545
0.042616826 -0.17466438 1.1897308 3237547
0.052646179 -0.17420676 1.1890814 3237544
0.062706463 -0.17383872 1.1890206 3237545
0.071314663 -0.17172191 1.1878917 3303339
-0.056113701 -0.1624296 1.1891615 3172009
-0.047613326 -0.16549224 1.1914152 3105961
-0.038224787 -0.16758814 1.1928627 3171752
0.045852855 -0.16783142 1.1916269 3303337
0.052691456 -0.16773531 1.1915272 3303593
0.0627729 -0.16661638 1.1913873 3303594
0.071923822 -0.16386363 1.1900225 3303596
0.078683332 -0.16223925 1.1871845 3238062
-0.063616276 -0.15401302 1.1893317 3434409
-0.057809804 -0.15571523 1.1920582 3237547
-0.049421933 -0.1579771 1.1930956 3237805
0.072802037 -0.1565585 1.1913118 3238318
0.082039937 -0.15348727 1.1900779 3238572
0.09213458 -0.15311855 1.1882522 3434926
0.098607987 -0.15241453 1.1869621 3369134
-0.066064656 -0.14502366 1.1906626 3435179
-0.060060013 -0.14696693 1.1928858 3369388
0.086598247 -0.14673722 1.1911793 3500977
0.092154965 -0.14311247 1.1901236 3435186
0.097568214 -0.14303595 1.1870443 3500720
-0.074731857 -0.13440041 1.1906348 3566511
-0.068965882 -0.13721088 1.1921971 3566767
-0.061698582 -0.13970104 1.1934061 3500977
0.093519568 -0.13546331 1.1906581 3501234
0.10133272 -0.13289134 1.1878114 3501490
-0.084523082 -0.121355 1.1898714 3566770
-0.077661902 -0.12586139 1.1923389 3632306
-0.070943922 -0.13071033 1.1936059 3632563
0.10304029 -0.12421593 1.1896867 3699127
0.11043364 -0.12280922 1.1874703 3633076
-0.085794672 -0.11579125 1.1909299 3566770
-0.079734161 -0.11662673 1.1938354 3763892
0.10382736 -0.11514278 1.1911517 3633335
0.11043683 -0.11283734 1.1886265 3764407
-0.086040646 -0.1057268 1.1928055 3698868
-0.081671208 -0.10628603 1.1939375 3699126
0.1042303 -0.10316625 1.1912313 3962811
0.1107529 -0.10315444 1.1899688 3830969
0.11843826 -0.10324363 1.1870217 3830714
-0.087380424 -0.095775045 1.1910191 3699126
-0.082064062 -0.096284173 1.1940147 3830712
0.11132145 -0.093209475 1.1905981 4028606
0.11943386 -0.093165502 1.187079 3962300
-0.086922631 -0.086287275 1.191757 3830970
-0.081991583 -0.085913837 1.1940876 3962813
0.1114756 -0.084152475 1.1912606 4291522
0.11929682 -0.083603121 1.1875129 4094399
-0.087362856 -0.076224521 1.1919495 3962044
-0.082448959 -0.076473877 1.1941617 4093630
0.11290552 -0.073384993 1.1910497 4554438
0.11770621 -0.074035481 1.1872408 4357059
-0.086884841 -0.066170521 1.1916332 4093886
-0.082277775 -0.065396383 1.1942381 4291009
0.11091709 -0.062862962 1.1905316 4686026
0.11690088 -0.062846407 1.1873324 4685769
-0.085394666 -0.05887229 1.1903299 4159935
-0.080386296 -0.056354094 1.1931318 4225985
0.10353069 -0.053012487 1.1915992 5015248
0.10959549 -0.054182153 1.1888349 5014991
-0.077518567 -0.046489339 1.1924205 4292037
-0.072088733 -0.048640545 1.194208 4619977
-0.049388807 -0.041480981 1.193926 5279449
-0.041410442 -0.041368835 1.1938096 5016538
-0.028857112 -0.042332463 1.1936185 4950743
-0.019313321 -0.043874912 1.1934675 4950488
-0.01021973 -0.043590605 1.193336 5147351
0.00021488033 -0.042493865 1.1931907 5278422
0.010800999 -0.044653259 1.1921309 5212886
0.020129107 -0.04385313 1.1911385 5278423
0.030095818 -0.042879265 1.1914992 5147094
0.041019268 -0.04314182 1.1925871 4885460
0.050472867 -0.041499436 1.1917328 4950741
0.059585575 -0.040861282 1.192331 5016279
0.10188311 -0.043171152 1.1902934 5212370
0.10925567 -0.044205379 1.1875776 5212369
-0.075535938 -0.039492711 1.1923237 4423370
-0.073513463 -0.036266074 1.1919169 4554187
-0.048996206 -0.036450543 1.1936893 5147610
-0.039175265 -0.03557042 1.191818 5081818
-0.03003921 -0.037716933 1.1916685 5016538
-0.018908534 -0.036124706 1.1916499 5278938
-0.0098125692 -0.035390347 1.1915216 5344730
0.00065210834 -0.036113948 1.1902961 5673948
0.010892331 -0.038202226 1.1890641 5805277
0.019979991 -0.038074486 1.1889316 5541848
0.030187763 -0.036794715 1.1887909 5475544
0.040379681 -0.034378923 1.1886586 5213397
0.051051516 -0.034857176 1.1892045 5082070
0.060754627 -0.033951469 1.1907629 5016536
0.069684625 -0.031663798 1.1922483 5213915
0.080417365 -0.030535743 1.1920989 5279453
0.091365471 -0.030837879 1.191936 5213659
0.10081813 -0.033613279 1.1901772 5212628
0.10740119 -0.033436857 1.1876816 5146833
-0.07329531 -0.030295409 1.1903561 4554443
-0.048102412 -0.028123252 1.1900018 5016281
-0.0408196 -0.028929897 1.1898892 5147611
-0.009681683 -0.029401243 1.1894288 5411294
0.061062954 -0.023861758 1.1884301 5148123
0.069786757 -0.023745179 1.1885028 5213915
0.079846606 -0.023844875 1.1898937 5213917
0.090608507 -0.023631983 1.1903141 5213659
0.09860763 -0.025237851 1.1882025 5212887
0.091260076 -0.01661966 1.1880385 5279708
0.095803902 -0.016555794 1.1879722 5411037
-0.013238907 -0.18084243 1.1974021 3106213
-0.0075162686 -0.18076199 1.1973187 3105959
0.0037746225 -0.1812575 1.1971494 3105706
0.014229749 -0.18045634 1.1970017 3105960
-0.024207719 -0.17412755 1.197611 3105700
-0.016751263 -0.17527881 1.1982434 3105957
-0.0075902864 -0.17515004 1.1981099 3106216
0.0027324306 -0.17513216 1.1988087 3106217
0.013362393 -0.17446607 1.198486 3171752
0.021246888 -0.17385858 1.1980368 3303337
0.032414451 -0.17104197 1.1968019 3369130
0.039281614 -0.17094544 1.1967018 3369132
-0.036959175 -0.16309541 1.1982102 3171753
-0.027217627 -0.16539192 1.2004378 3171752
-0.016892388 -0.16554543 1.2023655 3172010
-0.0076771341 -0.16670308 1.2031721 3172012
0.0023648702 -0.16615269 1.2038242 3237802
0.013013177 -0.16529657 1.2031285 3303338
0.022218809 -0.16519684 1.2031941 3369133
0.032503366 -0.16480437 1.2013258 3369388
0.042621851 -0.16432072 1.20049 3303853
0.051859498 -0.16299902 1.1983242 3369643
0.06193193 -0.16203973 1.1966683 3303851
-0.054857019 -0.15166149 1.1982211 3303598
-0.046684679 -0.15438879 1.1997962 3303341
-0.03804715 -0.15603797 1.2030867 3303340
-0.028641954 -0.15737118 1.2057966 3369132
-0.020445898 -0.15914182 1.2056637 3303600
0.012966302 -0.15867217 1.2051767 3303598
0.025639895 -0.15849403 1.2049919 3435186
0.033128835 -0.15838876 1.2048827 3369391
0.042922065 -0.15825111 1.20474 3369392
0.052683536 -0.15519284 1.2040031 3369390
0.062182888 -0.15395842 1.2002875 3435184
0.071489111 -0.15217523 1.196363 3369392
-0.055895161 -0.14467764 1.1990862 3369646
-0.048662271 -0.14693937 1.2037646 3303853
-0.041313086 -0.15021542 1.2060337 3173034
0.054519642 -0.14702444 1.2046498 3566773
0.062675938 -0.14559433 1.2038736 3566516
0.072416231 -0.14354852 1.2008115 3500977
0.082300663 -0.14403863 1.1979468 3500975
-0.066239879 -0.13284978 1.1985223 3632562
-0.057276066 -0.13582556 1.2013699 3501236
-0.049693901 -0.13593741 1.205814 3501494
0.074568614 -0.13446888 1.2044451 3698612
0.082103923 -0.13468102 1.2019691 3567283
0.090890616 -0.13209124 1.1991552 3567283
0.098222241 -0.12890258 1.1961366 3501747
-0.073568627 -0.12330339 1.1986979 3895478
-0.067915231 -0.12578484 1.2010976 3698613
-0.058953498 -0.12665203 1.2051271 3633080
0.075916365 -0.12782328 1.2044728 3699128
0.082430229 -0.12454028 1.2044005 3830713
0.091886297 -0.12400916 1.2030654 3699126
0.098590642 -0.12248626 1.1961769 3633333
-0.074988425 -0.11530944 1.1987758 3961271
-0.068162799 -0.11571422 1.2036735 3896247
-0.061349589 -0.11822808 1.2065558 3764921
0.082226932 -0.11759289 1.2044531 3962300
0.093046188 -0.11492446 1.2038426 3896506
0.10047901 -0.11287811 1.1982181 3764920
-0.076458752 -0.10602235 1.2003639 3830712
-0.069531292 -0.10554318 1.2054329 4093627
0.095866233 -0.10403259 1.2043496 4028352
0.10117213 -0.10330855 1.1989429 3962812
-0.076995283 -0.095716357 1.2009453 3962556
-0.070462659 -0.096804701 1.2063979 4028606
0.095194429 -0.093636937 1.2044337 4357317
0.10154904 -0.093705013 1.2003393 4225985
0.10683559 -0.089856796 1.1962886 4225985
-0.076629356 -0.086701863 1.2010043 4028606
-0.07177417 -0.086873934 1.2069325 4094655
0.095609069 -0.085596792 1.2044849 4554695
0.10134602 -0.083321482 1.1998163 4554182
0.10748151 -0.081452191 1.1963391 4619462
-0.077482745 -0.076048329 1.1995631 4159424
-0.069430858 -0.074998245 1.2057519 4160448
-0.063128576 -0.073307008 1.2069024 4554440
0.095883474 -0.072224356 1.2045763 4620747
0.10143541 -0.073146552 1.2022378 4686026
0.10775658 -0.073816031 1.1963896 4619977
-0.077004492 -0.066373676 1.1991544 4291265
-0.068865269 -0.066309333 1.2042861 4357573
-0.063225016 -0.066393569 1.206953 4751563
0.010858798 -0.062663153 1.2058923 4818903
0.018529048 -0.061787024 1.205786 4819160
0.09392111 -0.063723706 1.2046657 4752590
0.10130468 -0.063945815 1.2023054 4817869
0.10650028 -0.065819785 1.196465 4752076
-0.075150996 -0.056761127 1.1991957 4291778
-0.069116354 -0.056001786 1.202692 4554440
-0.06333752 -0.058327906 1.2070123 4883149
-0.044908229 -0.050964717 1.2027938 5674209
-0.039166547 -0.050884012 1.2027102 5082331
-0.027737945 -0.053576633 1.20439 4950745
-0.018432345 -0.055163726 1.2017752 4884953
-0.0092494842 -0.055024039 1.2014414 4753366
0.0010798527 -0.053790815 1.2024987 4884692
0.011675268 -0.055258527 1.2014881 4884692
0.020433255 -0.054417834 1.2020206 4884692
0.030648246 -0.05310173 1.2043366 4950484
0.041572426 -0.053885471 1.2023927 4950488
0.050361473 -0.053509254 1.2032599 4950489
0.060961775 -0.051920373 1.2041668 5411037
0.069954924 -0.051556341 1.2051042 5542623
0.084040567 -0.049341545 1.2049133 5213404
0.091857731 -0.052112829 1.2047788 5081558
0.10016087 -0.054219227 1.2022415 5015248
-0.070064843 -0.046222486 1.1991963 4685772
-0.047832664 -0.045454036 1.1999665 5542365
-0.038860869 -0.045508705 1.1998864 4951002
-0.030100066 -0.046404134 1.1986084 4884951
-0.02081367 -0.048146989 1.1984596 4753366
-0.007095309 -0.046809319 1.1982678 4950484
0.0017787665 -0.046970788 1.1981364 5015763
0.031834584 -0.047406953 1.1976923 5015764
0.038701747 -0.047310427 1.1975921 4885461
0.050623849 -0.046161551 1.1974254 4884950
0.061423432 -0.044959608 1.1991218 5082072
0.070825458 -0.043710135 1.201947 5542624
0.080455184 -0.044750307 1.2041985 5279197
0.090546593 -0.043339066 1.2012601 5213144
0.097825021 -0.045716144 1.1967357 5212627
0.064898148 -0.037783448 1.1972755 5016538
0.070596829 -0.035986088 1.1972047 5213917
0.080099955 -0.033372007 1.197084 5345245
0.090490326 -0.035540864 1.1975827 5213917
0.18181215 -0.036442608 1.2035702 13158081
-0.0077084005 -0.16182283 1.2094582 3303598
0.0050070873 -0.1616441 1.2092729 3303850
-0.03629322 -0.15158689 1.2099508 3303853
-0.026497133 -0.15304807 1.2101538 3304111
-0.01687324 -0.15504469 1.2117467 3303857
-0.00778291 -0.15524644 1.2122567 3303856
0.002647629 -0.15513307 1.2123543 3369903
0.01298588 -0.15343802 1.2092143 3435441
0.022063721 -0.15422326 1.2090755 3435187
0.03253084 -0.15343858 1.2089274 3500978
0.043040674 -0.15301555 1.2087762 3369649
0.049722627 -0.15130286 1.2086904 3435441
-0.044566244 -0.14422596 1.2101247 3370159
-0.038005088 -0.14490458 1.2100236 3370416
-0.027614806 -0.14503792 1.2121204 3436469
-0.017197315 -0.14523454 1.2147164 3502005
-0.0079115946 -0.14510402 1.2145811 3501749
0.0025834115 -0.1484396 1.2144033 3501493
0.012950118 -0.14465159 1.213028 3567542
0.022257708 -0.14464015 1.213829 3567541
0.032648921 -0.1443443 1.212491 3633333
0.042957269 -0.14388058 1.2097802 3567541
0.051528174 -0.14302348 1.2087229 3633079
0.061532903 -0.14069736 1.2085927 3632566
-0.045069817 -0.13575369 1.2101926 3501750
-0.038173974 -0.13594596 1.2125903 3567798
-0.029733825 -0.1363904 1.2149636 3633848
-0.016117565 -0.13941419 1.2147422 3633591
-0.0091532711 -0.13931629 1.2146406 3699128
0.012884112 -0.13784549 1.2143277 3830714
0.023330543 -0.13769867 1.2141753 3764921
0.032814052 -0.13661541 1.214044 3830712
0.043350153 -0.13555001 1.2135397 3830713
0.052050263 -0.13512528 1.2131054 3830458
0.062344648 -0.13469994 1.2109922 3764409
0.070419572 -0.13303742 1.2090725 3764407
-0.054237839 -0.12501359 1.2104037 3698874
-0.047581207 -0.12562096 1.212552 3764923
-0.038974226 -0.12621281 1.2151718 3765435
-0.032497101 -0.13035613 1.2150471 3699641
0.061133873 -0.12904003 1.2136823 3896252
0.071160004 -0.1244109 1.2109488 3831226
0.078472078 -0.12361069 1.2084659 3830458
-0.056998011 -0.1156124 1.2113008 3896508
-0.047796894 -0.11547773 1.2153778 4028352
-0.03989432 -0.11606327 1.2152576 4094143
0.072278619 -0.11448126 1.2100507 4159936
0.081562549 -0.11308371 1.2084956 4028352
0.089577347 -0.11160279 1.2083886 3962559
-0.065140292 -0.10597269 1.2106996 4093628
-0.058226969 -0.10594531 1.2113483 4028352
-0.04791769 -0.10616324 1.2151335 4094401
-0.041216955 -0.1044715 1.2153598 4225986
0.073648617 -0.10530281 1.2123041 4357317
0.081892475 -0.10416233 1.2113672 4225732
0.09067902 -0.1035512 1.2084298 4159938
-0.066267043 -0.096242793 1.2107855 4028609
-0.058067415 -0.096210115 1.2120292 3963330
-0.048680957 -0.096162312 1.2155286 4160708
-0.042220011 -0.099144831 1.2154125 4292035
0.0760919 -0.09167663 1.2137293 4620236
0.081560567 -0.094321303 1.2122411 4488649
0.089987874 -0.094808817 1.2085023 4357318
-0.067565829 -0.086019769 1.2108774 4160449
-0.0589091 -0.086102679 1.2144459 4160708
-0.049601045 -0.086012773 1.2156144 4489161
0.082544774 -0.08503256 1.2126104 4555212
0.090748429 -0.083662324 1.2085706 4620489
-0.15975983 -0.078737319 1.2172832 14082013
-0.066292584 -0.078623742 1.2109115 4226242
-0.058185693 -0.076238453 1.2133099 4620234
-0.051082756 -0.07411363 1.2157211 5079759
-0.017040525 -0.073248111 1.2152276 6791922
-0.0089317188 -0.0719731 1.2151177 5608162
0.0015147114 -0.071826257 1.2149655 5016279
0.011642538 -0.07370694 1.2134396 5608413
0.02009424 -0.072145618 1.2146904 4950485
0.027050432 -0.071467325 1.2145932 5016277
0.08513473 -0.074133985 1.2137216 4752847
0.090989843 -0.074038982 1.2104007 4620747
-0.059005592 -0.067329504 1.2118852 4948687
-0.048428398 -0.070206195 1.21571 5408980
-0.026939247 -0.06675677 1.2134959 6134248
-0.01829638 -0.066155009 1.2127963 5344990
-0.0093552247 -0.066216521 1.2130219 4884696
0.0018129405 -0.066103585 1.2129427 4818902
0.01224526 -0.067190424 1.2098403 4818646
0.02136771 -0.065983653 1.2104294 4818646
0.031484231 -0.065409303 1.2113209 4884696
0.041562594 -0.064773709 1.2112132 5344733
0.050806079 -0.064622119 1.2107214 5936870
0.060562309 -0.063982673 1.2133212 5608416
0.069654621 -0.062973425 1.2140285 5082072
0.082418576 -0.063546523 1.2108366 5016278
0.088753268 -0.064958736 1.2087333 4884178
-0.027622748 -0.060350664 1.2104743 5082331
0.0012760889 -0.059944458 1.210053 4687574
0.02439516 -0.05961949 1.209716 4687574
0.032312483 -0.058847468 1.2096053 4819159
0.039422557 -0.059408262 1.209497 4950233
0.052138045 -0.05922953 1.2093116 5542369
0.060854003 -0.057822268 1.2091937 5805540
0.073667467 -0.055458084 1.2090225 5213659
0.080988511 -0.055355184 1.2089157 5147866
0.089877695 -0.057157353 1.2087724 5081557
0.0025838269 -0.1442896 1.2184334 3633335
-0.025088962 -0.13408905 1.2189122 3699641
-0.017560001 -0.13443173 1.2187994 3765177
-0.0078183003 -0.1344817 1.2203033 3830714
0.0025004409 -0.13530219 1.2213792 3962299
0.01291728 -0.13257062 1.219032 4028092
0.021739751 -0.13323595 1.2185168 3962300
0.031253193 -0.13274327 1.2188224 3962299
