# .PCD v0.7 - Point Cloud Data file format
VERSION 0.7
FIELDS x y z rgba
SIZE 4 4 4 4
TYPE F F F U
COUNT 1 1 1 1
WIDTH 174
HEIGHT 1
VIEWPOINT 0 0 0 1 0 0 0
POINTS 174
DATA ascii
-0.40498251 0.075845115 1.0995554 5134174
-0.39809129 0.075108916 1.0994462 5134176
-0.40606052 0.080424301 1.0995206 4871515
-0.41073719 0.057397768 1.1068698 4936281
-0.40006024 0.056199774 1.1067014 5199967
-0.39522019 0.056817196 1.1066115 5397348
-0.41974598 0.063021973 1.1066582 4673880
-0.41204271 0.063456774 1.1046038 4870232
-0.40255868 0.064749599 1.1051443 5068382
-0.3928645 0.066368848 1.1055053 5068384
-0.38527504 0.068904288 1.1063008 4476504
-0.42136398 0.072336905 1.1052105 4607822
-0.41437212 0.07323651 1.103747 4673623
-0.40337458 0.073883772 1.1035515 5134174
-0.393139 0.076091617 1.103351 4739419
-0.38535598 0.076853834 1.104495 4081746
-0.42258051 0.080642156 1.1068017 4410445
-0.41448253 0.082729913 1.1036384 4213839
-0.40431586 0.084543355 1.1034436 4345429
-0.39426777 0.085408755 1.1032618 4016211
-0.38612583 0.086109206 1.1042687 3621193
-0.4145624 0.08820574 1.1035761 3884109
-0.40537161 0.090367988 1.1033939 3752784
-0.39502028 0.091620207 1.1032025 3621192
-0.38764891 0.091461517 1.1030784 3686459
-0.41734809 0.044373505 1.1175652 4673626
-0.40922108 0.044463642 1.1145842 4870741
-0.39998323 0.044467196 1.1146109 5265754
-0.3900761 0.046452127 1.1146859 5397604
-0.38189927 0.050282918 1.1174623 4608350
-0.41953743 0.053146437 1.113571 4673629
-0.41107577 0.052652583 1.1112651 4870744
-0.40250048 0.052162185 1.1107908 5134174
-0.39049542 0.055712655 1.1111968 5397606
-0.38230103 0.057588756 1.1152018 4476760
-0.37656152 0.06241814 1.1172298 4015442
-0.42739135 0.060524538 1.1181204 3883351
-0.4240272 0.060917832 1.1128571 4475995
-0.39040941 0.062293313 1.1104664 5068641
-0.38168168 0.066639587 1.1123197 4082513
-0.37583604 0.068579845 1.1166457 3752531
-0.42650384 0.070666537 1.1115857 4079443
-0.3808639 0.075920731 1.111645 3621705
-0.37602654 0.074176945 1.1146834 3751503
-0.38343182 0.083222821 1.1101036 3490378
-0.40343234 0.02782177 1.1290938 5002588
-0.40025601 0.028206015 1.1290351 5528419
-0.41517451 0.036070853 1.1291984 4739163
-0.40767959 0.034055419 1.1261488 5002333
-0.39821514 0.034891672 1.1259218 5397092
-0.38929167 0.03802783 1.1270902 5332066
-0.3834115 0.039913274 1.1286111 4740695
-0.41715896 0.039789401 1.123938 4082256
-0.41014832 0.039459057 1.1220717 5068120
-0.38743395 0.042760506 1.1236455 5200736
-0.37964779 0.047109522 1.1255988 4345175
-0.37279683 0.049905449 1.1277418 4278096
-0.37817979 0.056811906 1.1221809 4147028
-0.3732712 0.0569712 1.1261801 3819087
-0.3744297 0.064376123 1.1223717 3687502
-0.39467478 0.016973821 1.1400728 5528423
-0.39046291 0.018025817 1.1399885 5397348
-0.40595084 0.023482984 1.1348553 4804702
-0.39652121 0.024411732 1.1341035 5462626
-0.38721699 0.026207285 1.1365039 5003105
-0.37959647 0.030716525 1.1372547 4804440
-0.41623694 0.032390885 1.136261 3817824
-0.40993139 0.02934544 1.1321878 4673622
-0.3940073 0.0312718 1.1318933 5660265
-0.38685969 0.033703402 1.1317428 5069150
-0.37819448 0.037605017 1.1335498 4475986
-0.37330693 0.04251688 1.1334093 4014924
-0.3761847 0.044200554 1.1314384 4606547
-0.37077552 0.047310427 1.1318098 3620428
-0.4002341 0.0094907042 1.1472563 4079956
-0.39359945 0.009278724 1.1448592 5266270
-0.38779742 0.010449357 1.1470326 5002845
-0.40386662 0.015246833 1.145251 4079963
-0.39603123 0.013559701 1.1431364 5330781
-0.38582149 0.017048651 1.1445687 5002331
-0.3832967 0.023367686 1.1428046 5001816
-0.37947443 0.026713638 1.1439006 4540755
-0.37588966 0.034054153 1.1425537 4213074
-0.39277512 -0.00022460893 1.1592445 5265766
-0.39464751 0.0040315464 1.1563692 5068639
-0.38621289 0.0067157578 1.1557176 4214103
-0.40360734 0.0092206672 1.151318 1580089
-0.38278383 0.013589842 1.1515782 4145996
-0.38077253 0.019651527 1.1508064 4212054
-0.39897445 -0.0020058583 1.1623718 3618132
-0.39339256 -0.0024366621 1.1622814 5199718
-0.38698483 -0.00055545382 1.16215 4214875
-0.38104871 -0.060009629 1.1787438 528927
-0.37588495 -0.060057811 1.1786561 1517876
-0.37536508 -0.069852427 1.1907638 4419983
-0.39123371 -0.064916998 1.1889771 1651559
-0.38597253 -0.063536614 1.1857276 1782104
-0.37368816 -0.064601399 1.1834226 4154236
-0.36891341 -0.060556188 1.1871161 3028033
-0.38382214 -0.05614765 1.1907489 2369321
-0.37610954 -0.055351339 1.1870071 2040105
-0.38611224 -0.037134394 1.1865659 4146252
-0.39017269 -0.069654383 1.1990162 5077683
-0.38311869 -0.071413778 1.1975825 4617364
-0.37371674 -0.070656598 1.1974131 4549258
-0.36915213 -0.064699747 1.1945986 6582660
-0.39264223 -0.058447406 1.1949272 7695014
-0.38544068 -0.053803705 1.1954169 2040625
-0.37755641 -0.051620759 1.19459 2172202
-0.37023795 -0.055737123 1.1945128 2760198
-0.38313711 -0.080562353 1.2070246 4683677
-0.37747931 -0.07987792 1.20692 3831442
-0.39155737 -0.074650824 1.2059566 3299734
-0.38431868 -0.076012425 1.2044458 4683420
-0.37573323 -0.075469993 1.2052386 3960460
-0.38100109 -0.15353964 1.22084 3829135
-0.37298971 -0.15208511 1.2206862 4223637
-0.36675596 -0.15178323 1.2205762 3960467
-0.38293847 -0.14432748 1.2207659 3498881
-0.37463674 -0.14286594 1.220207 3895695
-0.36699578 -0.14059688 1.2204502 3631246
-0.38422328 -0.13324343 1.2176583 3499128
-0.37693381 -0.1331695 1.2175329 4025235
-0.36827844 -0.13114303 1.219219 3499655
-0.3847824 -0.12388223 1.2155585 3826560
-0.3780793 -0.12311215 1.2159351 4156303
-0.37006268 -0.12267215 1.2182935 3630985
-0.38563633 -0.11437266 1.2184631 3893387
-0.379152 -0.11328655 1.2167838 4157333
-0.37188002 -0.11187926 1.2186991 3762828
-0.38493627 -0.10572933 1.220351 3762325
-0.37965146 -0.10253887 1.2165562 4420507
-0.37342098 -0.10193167 1.2187765 3828877
-0.38774318 -0.092140123 1.2202408 4222878
-0.38045958 -0.093145631 1.2163939 4552347
-0.37421301 -0.092781052 1.2192169 3631755
-0.39052731 -0.084559634 1.214599 3627913
-0.3817749 -0.085247204 1.2123903 4683676
-0.37477112 -0.083074942 1.2151854 3892613
-0.37483266 -0.075166292 1.211821 3563127
-0.38132107 -0.16343883 1.2263905 3033484
-0.37289131 -0.16339506 1.2286414 2897991
-0.36299726 -0.16139421 1.2279588 3891064
-0.35556757 -0.15971996 1.2294793 2638186
-0.38643739 -0.15491357 1.2249498 666715
-0.37534675 -0.15583451 1.224771 4813457
-0.36221668 -0.1512765 1.2244936 3499654
-0.35504711 -0.15025666 1.2280443 3561592
-0.3884638 -0.14367941 1.2248538 6722
-0.36349425 -0.14182337 1.2244055 3694979
-0.35696983 -0.14076114 1.2262821 3233144
-0.36318073 -0.13130434 1.2242777 3104639
-0.35847986 -0.13069458 1.2273728 2640231
-0.36503729 -0.12174656 1.2241982 2907007
-0.36061841 -0.1212944 1.2286639 3099492
-0.3887752 -0.11227376 1.2244936 4089741
-0.36657965 -0.11227527 1.2244716 3496061
-0.36235446 -0.11059244 1.2290237 4278874
-0.38745329 -0.10396187 1.2243743 2972810
-0.36846331 -0.10206861 1.2253917 3757171
-0.36448419 -0.10266452 1.2289678 3748927
-0.38700089 -0.098084308 1.2242982 3630740
-0.36877787 -0.094715275 1.2239476 3953004
-0.37268564 -0.16960926 1.2338877 984897
-0.36274734 -0.16449636 1.2336584 4350584
-0.35540038 -0.13942282 1.2339079 4674411
-0.35644668 -0.13094614 1.2361611 6974583
-0.35952049 -0.12014574 1.2360879 3815753
-0.39240709 -0.11333496 1.2335699 5799072
-0.3598952 -0.11057515 1.2329823 5064001
-0.35435882 -0.14520058 1.2462933 7039097
-0.35530967 -0.13947935 1.2472433 7565430
-0.35704607 -0.13096122 1.2468404 8223350
-0.35839984 -0.12284308 1.2421014 9076613
