# .PCD v0.7 - Point Cloud Data file format
VERSION 0.7
FIELDS x y z rgba
SIZE 4 4 4 4
TYPE F F F U
COUNT 1 1 1 1
WIDTH 174
HEIGHT 1
VIEWPOINT 0 0 0 1 0 0 0
POINTS 174
DATA ascii
-0.39635772 0.074488901 1.1032635 5134174
-0.38949445 0.074063398 1.1041338 5134176
-0.3976416 0.079014301 1.103196 4871515
-0.40219522 0.05556868 1.1091686 4936281
-0.39155886 0.05485215 1.1105162 5199967
-0.38679191 0.055686489 1.111145 5397348
-0.41134399 0.060791381 1.1078058 4673880
-0.40345618 0.061636567 1.1069012 4870232
-0.3942222 0.063330173 1.1088442 5068382
-0.38477066 0.065365091 1.1106489 5068384
-0.37750655 0.068206713 1.1126032 4476504
-0.41319007 0.070068747 1.10639 4607822
-0.40611285 0.071326554 1.1059792 4673623
-0.39524579 0.072467543 1.1073962 5134174
-0.38520727 0.075133055 1.1087397 4739419
-0.37771532 0.076201089 1.1110191 4081746
-0.41502586 0.078253575 1.1080109 4410445
-0.4066695 0.080803975 1.1061112 4213839
-0.39668068 0.083072439 1.1074398 4345429
-0.38676468 0.084388629 1.1087385 4016211
-0.37889528 0.085415527 1.1109325 3621193
-0.40700662 0.086269848 1.1061851 3884109
-0.39800119 0.088842832 1.1073942 3752784
-0.38780296 0.090559028 1.1087378 3621192
-0.38049111 0.090731971 1.1096784 3686459
-0.40962845 0.041911386 1.1184397 4673626
-0.4011721 0.042462409 1.1166707 4870741
-0.39204487 0.042875126 1.1180352 5265754
-0.38235965 0.045294218 1.1195977 5397604
-0.37486222 0.049388617 1.1236311 4608350
-0.41164759 0.050707899 1.1144079 4673629
-0.4029288 0.050667971 1.1133393 4870744
-0.39436054 0.050574943 1.1140991 5134174
-0.38272542 0.054639131 1.1163348 5397606
-0.3752915 0.056741334 1.1215335 4476760
-0.3701447 0.061749764 1.1245006 4015442
-0.42042324 0.057572879 1.1179684 3883351
-0.41636226 0.058291934 1.1132604 4475995
-0.38285664 0.061237961 1.1158018 5068641
-0.37470743 0.065902568 1.1190159 4082513
-0.36964431 0.067953758 1.1241935 3752531
-0.41910344 0.067958347 1.1119063 4079443
-0.37425503 0.075228296 1.1187166 3621705
-0.3698242 0.073599726 1.1223755 3751503
-0.37692839 0.082456917 1.1170163 3490378
-0.3967194 0.025615217 1.131413 5002588
-0.39359003 0.026141835 1.1318253 5528419
-0.40874344 0.033326752 1.1300375 4739163
-0.4007993 0.031749733 1.1280526 5002333
-0.39145234 0.033012442 1.1292213 5397092
-0.38295239 0.036500521 1.1317538 5332066
-0.37745017 0.038592897 1.1341604 4740695
-0.41013193 0.037128411 1.124647 4082256
-0.4029184 0.037172556 1.1238077 5068120
-0.38085294 0.041424192 1.1287431 5200736
-0.37364888 0.046046376 1.1319196 4345175
-0.36732075 0.049069963 1.1351068 4278096
-0.37218088 0.055913843 1.1290125 4147028
-0.36791027 0.05615624 1.1336833 3819087
-0.36887041 0.063626356 1.1299478 3687502
-0.38910842 0.014803508 1.143249 5528423
-0.38498434 0.016043661 1.1438041 5397348
-0.39982352 0.020977559 1.1366302 4804702
-0.39044023 0.022348722 1.1372774 5462626
-0.38167518 0.02447374 1.1410475 5003105
-0.37447026 0.029288987 1.1430151 4804440
-0.41062701 0.029367758 1.1367702 3817824
-0.40366149 0.026743954 1.1335729 4673622
-0.38797292 0.029384086 1.1356398 5660265
-0.38100484 0.032134242 1.1365917 5069150
-0.3728891 0.036353655 1.1397389 4475986
-0.36827737 0.041479565 1.1404397 4014924
-0.37092137 0.043099195 1.1381189 4606547
-0.36577961 0.046431847 1.1393534 3620428
-0.39526883 0.0068435725 1.1493478 4079956
-0.38835663 0.0070070662 1.1479321 5266270
-0.38299036 0.0083603095 1.1509537 5002845
-0.39885259 0.012496991 1.1469929 4079963
-0.39072204 0.011231409 1.1459908 5330781
-0.38100576 0.015119957 1.1489801 5002331
-0.37856531 0.021600598 1.1477709 5001816
-0.37510756 0.025074156 1.1494986 4540755
-0.37172902 0.032607704 1.1488829 4213074
-0.38914138 -0.002928853 1.1620244 5265766
-0.39078739 0.0013343059 1.1590236 5068639
-0.3824876 0.0044106767 1.159673 4214103
-0.39917251 0.0062875841 1.1528693 1580089
-0.37883973 0.011565553 1.1562601 4145996
-0.37703666 0.017733069 1.1559511 4212054
-0.39563081 -0.0050877221 1.1641716 3618132
-0.39007938 -0.0052670427 1.1648791 5199718
-0.38381851 -0.0030999072 1.1657279 4214875
-0.3774308 -0.062756531 1.181402 528927
-0.37231171 -0.062572472 1.1820618 1517876
-0.37305656 -0.072736114 1.1938494 4419983
-0.38872656 -0.068452634 1.1899165 1651559
-0.38312736 -0.066731542 1.1875015 1782104
-0.37060225 -0.067171842 1.1869723 4154236
-0.36660966 -0.063045219 1.1914259 3028033
-0.38208237 -0.059427507 1.1929781 2369321
-0.37396097 -0.058164202 1.1904156 2040105
-0.38467351 -0.0404047 1.1890203 4146252
-0.38888651 -0.073473282 1.1998723 5077683
-0.38162249 -0.074868605 1.1994287 4617364
-0.37234166 -0.073689558 1.2006432 4549258
-0.36771664 -0.06744466 1.1986806 6582660
-0.39128774 -0.06225577 1.1957716 7695014
-0.38446605 -0.057316087 1.1974238 2040625
-0.37666065 -0.054758735 1.1978066 2172202
-0.36921477 -0.058541253 1.1986796 2760198
-0.38254866 -0.084321432 1.2085191 4683677
-0.37697452 -0.083383396 1.2092534 3831442
-0.39100689 -0.078756914 1.2064021 3299734
-0.38356867 -0.079744264 1.2059197 4683420
-0.37522244 -0.078848243 1.2079618 3960460
-0.37885907 -0.15755539 1.2205311 3829135
-0.37098905 -0.15574233 1.2215785 4223637
-0.3648262 -0.1551605 1.2223806 3960467
-0.38121283 -0.14844102 1.2204249 3498881
-0.37299803 -0.14659445 1.2211138 3895695
-0.36559081 -0.14399792 1.2225219 3631246
-0.38257778 -0.13732667 1.2174631 3499128
-0.37535805 -0.13692509 1.2183968 4025235
-0.36714321 -0.13457428 1.2213726 3499655
-0.38328591 -0.12793419 1.2155569 3826560
-0.37675169 -0.12688042 1.216921 4156303
-0.36918733 -0.1261646 1.2204267 3630985
-0.38501039 -0.118575 1.2185618 3893387
-0.37841302 -0.11714625 1.2178692 4157333
-0.37156829 -0.11548278 1.2208548 3762828
-0.38501075 -0.10997751 1.2207628 3762325
-0.37939832 -0.10642976 1.2178607 4420507
-0.37358779 -0.10562163 1.2209754 3828877
-0.38843229 -0.096530288 1.2206128 4222878
-0.38063198 -0.09708152 1.2178358 4552347
-0.37488019 -0.096535191 1.2215425 3631755
-0.39074492 -0.088895358 1.214833 3627913
-0.38174319 -0.089119047 1.2138976 4683676
-0.37532708 -0.086733304 1.2177351 3892613
-0.37529114 -0.078726485 1.2146111 3563127
-0.37948859 -0.16764012 1.2257085 3033484
-0.37148106 -0.16729797 1.229157 2897991
-0.36170089 -0.16483808 1.2299687 3891064
-0.3546567 -0.16288777 1.2325938 2638186
-0.38475507 -0.15930675 1.2237717 666715
-0.37372184 -0.15972795 1.2251765 4813457
-0.36092585 -0.15458485 1.2269264 3499654
-0.35439801 -0.15336779 1.2315042 3561592
-0.38729227 -0.14817674 1.2236853 6722
-0.36263713 -0.14520013 1.2269083 3694979
-0.35650897 -0.14391309 1.229738 3233144
-0.362822 -0.13467921 1.2271103 3104639
-0.35864902 -0.13396588 1.2308688 2640231
-0.36511195 -0.12521602 1.2270197 2907007
-0.36140656 -0.12471864 1.2320888 3099492
-0.38908032 -0.11682155 1.2241284 4089741
-0.36713767 -0.1158371 1.2273213 3496061
-0.36369619 -0.11412245 1.2324809 4278874
-0.38816196 -0.10845987 1.2244253 2972810
-0.36962941 -0.10576084 1.228233 3757171
-0.36618003 -0.1062995 1.2323303 3748927
-0.38799053 -0.1025688 1.2245735 3630740
-0.37009192 -0.098384306 1.2269567 3953004
-0.37172711 -0.17366989 1.2342088 984897
-0.36211997 -0.16811605 1.2355589 4350584
-0.35611659 -0.1427637 1.2375439 4674411
-0.35788745 -0.13442244 1.2398489 6974583
-0.36144212 -0.12377277 1.2396216 3815753
-0.39392024 -0.11834764 1.232551 5799072
-0.3618339 -0.11412919 1.236753 5064001
-0.35658157 -0.14890291 1.2497897 7039097
-0.35793674 -0.14326474 1.2507454 7565430
-0.36001083 -0.13482335 1.2503245 8223350
-0.36106527 -0.12661847 1.2456594 9076613
