# .PCD v0.7 - Point Cloud Data file format
VERSION 0.7
FIELDS x y z rgba
SIZE 4 4 4 4
TYPE F F F U
COUNT 1 1 1 1
WIDTH 1130
HEIGHT 1
VIEWPOINT 0 0 0 1 0 0 0
POINTS 1130
DATA ascii
0.16873918 -0.12593099 1.0902439 13029078
-0.13618153 -0.11060527 1.0890236 3104917
-0.13431428 -0.10775661 1.0912964 3170462
0.16200046 -0.11544436 1.0917373 3040417
0.17164823 -0.11899716 1.0902884 13422807
0.17464271 -0.11593995 1.0903194 13619661
-0.13796626 -0.09803579 1.0890574 3104162
0.16096562 -0.10720143 1.0911175 2973607
-0.13710183 -0.089730002 1.0893433 3169952
0.16161034 -0.097114496 1.0933014 2843043
-0.13866098 -0.080008745 1.0885261 3301299
-0.12825516 -0.15841319 1.1001529 4750553
-0.1246791 -0.16073357 1.1021682 1196192
-0.13007334 -0.15108989 1.0969672 3036848
-0.12626496 -0.15347596 1.1021841 1789334
0.15790726 -0.15628278 1.1015619 12898004
-0.12877034 -0.14022937 1.0984377 2776475
0.15863188 -0.14719433 1.1004997 9087435
0.16457446 -0.14268266 1.0971555 13488846
-0.13075687 -0.12943926 1.0982414 3038106
0.15874869 -0.13653998 1.0995393 4354994
0.16665523 -0.13475423 1.0971981 13752800
-0.13240595 -0.11969288 1.0997103 2973083
0.1589503 -0.12677364 1.1004838 2121388
-0.13688585 -0.10601401 1.0952858 3301280
-0.13364841 -0.1110592 1.0989254 3039132
0.159887 -0.11872421 1.0983782 2646946
0.17622727 -0.11387742 1.1003377 13817039
-0.13673413 -0.099718742 1.0953096 3366820
-0.13423365 -0.10026485 1.1003244 3105183
0.15853086 -0.1064532 1.1019472 3631271
0.17733005 -0.11179867 1.1003526 13817037
-0.13646437 -0.088527158 1.0953521 3499424
-0.13382302 -0.089624897 1.0991658 3302563
0.15844852 -0.096193694 1.1012251 3369127
-0.13355553 -0.080125518 1.0989021 3434147
0.16058777 -0.086661614 1.1022419 2908578
0.16641678 -0.084165692 1.1003805 8233160
-0.13790162 -0.068853781 1.0962712 3365295
-0.13263121 -0.070204303 1.0992905 3499689
0.16161193 -0.077104457 1.1020215 4024485
0.16661964 -0.075749144 1.1004125 11192030
-0.13616852 -0.06002203 1.0984577 2181536
-0.13094701 -0.060010619 1.0996926 3433908
0.16095519 -0.071660817 1.1043899 2708114
-0.13438037 -0.051857069 1.1024995 8233201
-0.13057019 -0.05306172 1.1008061 3564980
0.016059835 0.11646362 1.1001107 9935247
0.021792712 0.11722757 1.1001515 9934992
-0.11933406 -0.16981113 1.1108633 929696
-0.11517502 -0.17027375 1.113197 1984411
0.14724581 -0.17233759 1.1149331 13424882
-0.1201006 -0.16021819 1.1086007 2512540
-0.11554678 -0.16223967 1.1118903 2906513
0.14872815 -0.16643921 1.1125199 8955594
0.15443763 -0.1652196 1.1090066 14080986
-0.12691678 -0.14596845 1.1092073 2381461
-0.12394176 -0.15123047 1.1111454 2776212
0.14918722 -0.1568417 1.1113223 3697834
-0.12722649 -0.14004119 1.11006 2841752
-0.12522149 -0.14442408 1.1132241 2906774
0.15127662 -0.14697419 1.111852 2646183
-0.12886727 -0.12944077 1.1111115 2907034
-0.12496448 -0.13376059 1.1132646 2775704
0.15205669 -0.13825998 1.1129888 3696546
0.15422368 -0.13377243 1.112453 3761571
-0.12964867 -0.11996205 1.109728 2973083
0.15605332 -0.12771201 1.1118205 3368880
-0.13049296 -0.10972829 1.1092151 3039134
0.15663192 -0.11611275 1.1114725 3500454
-0.13041624 -0.099276133 1.1089536 3171232
0.15575732 -0.10765436 1.1125104 3631529
-0.13075745 -0.090493612 1.1082833 3302564
0.1545306 -0.097212084 1.1082544 3697839
0.15492161 -0.097484395 1.1112561 3763633
-0.13060136 -0.079942562 1.1091226 3368355
0.15576056 -0.086244851 1.1110168 3436468
0.17015551 -0.082967743 1.11141 10992842
-0.12801185 -0.069584556 1.1091775 3697068
0.15390146 -0.073269993 1.1153374 3765679
0.1570733 -0.075828873 1.1105309 3830452
0.16990378 -0.078709029 1.1114239 11387079
-0.12671191 -0.061829556 1.1070143 3631022
-0.12445575 -0.058671664 1.1065407 3500456
0.15345134 -0.066329598 1.1124706 3830449
0.1601705 -0.066975802 1.1100334 5207985
0.1666387 -0.068158656 1.1141073 10334913
-0.12667353 -0.049811117 1.1091297 3434161
0.15280837 -0.057379305 1.112245 3893939
0.15989454 -0.058031246 1.1114881 8428221
-0.12671131 -0.03979085 1.1127374 6194370
-0.1221181 -0.037802014 1.1136323 4421311
0.15094031 -0.045512784 1.1143277 5734064
0.15714559 -0.049341455 1.1154459 10203587
-0.12062453 -0.031169496 1.1136663 6852289
0.14961234 -0.039549395 1.1122314 8955077
0.022409577 0.093148962 1.1150686 9737616
-0.089732677 -0.20732069 1.121565 7635861
-0.086378552 -0.20790458 1.1242518 8100012
-0.099767208 -0.1971662 1.124202 10535920
-0.092790581 -0.20000306 1.1218849 5996227
-0.086292036 -0.20431517 1.1242656 6394567
-0.10945453 -0.18586373 1.1161784 8431615
-0.10253446 -0.18848586 1.1189842 1526185
-0.096437924 -0.1910422 1.1231035 1262491
0.1272963 -0.19366606 1.1257234 11717846
-0.11780189 -0.1771037 1.1161548 7571711
-0.11088495 -0.17954624 1.1177475 1917611
-0.10399474 -0.18224862 1.1215614 2379673
-0.097328089 -0.1853731 1.124261 2644619
0.12905148 -0.18683326 1.1257598 5010097
0.13644631 -0.18403402 1.1226763 10599906
0.14358222 -0.18299213 1.1218703 14081762
-0.11075513 -0.17072624 1.1204355 2709143
0.13034953 -0.1762611 1.1258069 2909858
0.137035 -0.17593269 1.1220343 4026283
0.14465037 -0.17629485 1.1184016 12307424
-0.11731224 -0.1567888 1.1162319 2775446
-0.11305144 -0.16111761 1.1191536 2775442
0.13849588 -0.16702078 1.1228945 3105445
0.14349271 -0.166291 1.1179303 2578854
-0.1191851 -0.14955026 1.1183996 2775449
-0.11505759 -0.1520735 1.1229309 2906778
0.14105231 -0.15728432 1.124347 3564451
0.14445493 -0.15637307 1.1203728 3433893
-0.12283561 -0.14078581 1.1195476 2840984
0.14273517 -0.14914487 1.1259878 3565217
0.14660251 -0.14710051 1.1206874 3499430
-0.1273341 -0.12873147 1.1162672 2841497
-0.12443431 -0.13060282 1.1222799 2907290
0.14911862 -0.13654436 1.123076 3237547
-0.12729663 -0.11927921 1.1179019 2973083
-0.12460518 -0.11984326 1.1223179 3038877
0.15243594 -0.12693995 1.1243148 3827369
0.15516393 -0.12591915 1.1181545 3564710
-0.12812243 -0.10929208 1.11919 3039391
-0.12555432 -0.11128332 1.1230094 3170977
0.15294898 -0.1168602 1.1241729 3565735
0.1553701 -0.11736551 1.118187 3500198
-0.12806545 -0.10110711 1.1213629 3170977
0.15343826 -0.10784819 1.1235423 3631790
0.15446357 -0.10956226 1.1262096 3434923
-0.12795947 -0.090549305 1.120402 3302823
0.15337703 -0.096391395 1.1237502 3566513
-0.12767862 -0.080546379 1.1191069 3368614
0.15269513 -0.087115899 1.1238178 3632560
-0.12699817 -0.072859377 1.1204727 3565995
0.15175052 -0.076916814 1.1225767 3895728
-0.12371157 -0.057891428 1.122149 3697842
0.14966227 -0.06690032 1.1211326 4158132
-0.12184167 -0.049625255 1.120955 3502262
0.14878069 -0.056212001 1.1223656 4027837
-0.1189636 -0.040175065 1.1204226 3698611
0.14417598 -0.044667114 1.1263771 4619197
0.14994237 -0.047885891 1.1208651 4946612
-0.12504046 -0.033572175 1.1166283 7180220
-0.11743042 -0.030783989 1.1238892 4815032
0.14425154 -0.038182661 1.1257344 5209534
0.14906596 -0.03651784 1.118439 8425655
0.023410365 0.089085653 1.1180605 9474444
-0.06313543 -0.21835978 1.1313685 8300241
-0.081124365 -0.20971455 1.1276439 7642055
-0.07366351 -0.21056026 1.1298269 4815810
-0.066999339 -0.21417788 1.131358 5210825
-0.089971423 -0.19758254 1.1272657 932767
-0.083097748 -0.20119978 1.1289824 2382238
-0.074570514 -0.20445497 1.131343 2251168
0.10897558 -0.20563123 1.1325583 6518691
0.11484563 -0.20474103 1.1311719 11319227
-0.091548584 -0.19080809 1.1291465 2447513
-0.08625365 -0.19441602 1.1313019 2513045
0.11688497 -0.19656682 1.1315912 4617903
0.12394638 -0.19674227 1.1286901 10929103
-0.10073455 -0.17955467 1.1287142 2971544
-0.0949184 -0.18346339 1.1292841 2774929
0.1191844 -0.18734947 1.1310259 2909086
0.12412751 -0.18651101 1.1287285 3105187
-0.10793956 -0.16618022 1.1272603 2709911
-0.10345691 -0.17135848 1.1296244 2644371
0.1258781 -0.17673717 1.129391 3368356
-0.1101226 -0.15951751 1.1290883 2775444
-0.10525932 -0.16376287 1.1299536 2709910
0.13052787 -0.16698398 1.130442 3368613
0.1348155 -0.16411519 1.1288809 3499683
-0.11312664 -0.15087122 1.1287816 2841497
0.13249028 -0.15958156 1.132882 3237027
0.13730133 -0.15697722 1.1302567 3302821
-0.11877048 -0.13913742 1.1278582 2645144
-0.11534484 -0.14095651 1.130414 2775964
0.14065394 -0.14712423 1.1311632 3237542
0.14483297 -0.14364114 1.1303552 3106215
-0.12040414 -0.13069995 1.1287611 2907291
0.14225395 -0.13760957 1.1316934 3499683
0.14541289 -0.13569877 1.1301974 3303338
-0.12115648 -0.12075668 1.1297377 3039134
0.14723001 -0.12724987 1.1305091 3499947
-0.12594219 -0.106329 1.1273583 3236770
-0.12390903 -0.11068208 1.1306894 3236770
0.1492116 -0.11678872 1.1309668 3500458
-0.12578605 -0.09985093 1.1273829 3237027
-0.12409614 -0.10026888 1.1313926 3302821
0.15182868 -0.10630176 1.1314898 3632048
-0.12555183 -0.090133823 1.1274197 3302824
-0.12387416 -0.091059238 1.1314275 3302569
0.15031631 -0.097373299 1.1314082 3632047
-0.12576512 -0.081054099 1.1274513 3434408
-0.12295845 -0.078768864 1.1314783 3434665
0.1471931 -0.086246505 1.1310643 4026292
-0.12508342 -0.070699602 1.1274935 3631531
-0.12336491 -0.069931246 1.1315078 3631531
0.14750133 -0.078268133 1.1297216 4157366
-0.12492727 -0.064221531 1.1275181 4025255
-0.12166952 -0.059184629 1.1298437 3632304
0.14725184 -0.066467449 1.1293184 4289211
-0.11798945 -0.050276589 1.1293292 3568048
0.14435166 -0.055628683 1.1300051 4094399
0.14656779 -0.060075767 1.131337 4224702
-0.11652395 -0.044258561 1.1276464 3764911
-0.11299717 -0.040037155 1.1301852 3895729
0.14199342 -0.047151033 1.1308082 4487616
-0.11732151 -0.02613984 1.130707 6458567
-0.11247416 -0.030028373 1.130125 3895996
0.14219609 -0.036111362 1.1297951 5735616
0.14913823 -0.033023462 1.1294525 9477559
-0.1168246 -0.023472011 1.1317201 6852289
-0.11357419 -0.023550436 1.1317414 5933254
0.055572543 0.074023843 1.1292198 9474701
-0.02671412 -0.22973824 1.1435696 7248329
0.0060905833 -0.23211879 1.1429789 5801654
0.014141947 -0.23118131 1.1425024 5210039
0.026909396 -0.23212761 1.1439172 6328255
0.034573667 -0.23231253 1.1439674 7379645
0.046133839 -0.23246974 1.1440437 8430007
0.054152194 -0.23087396 1.1401026 8625323
-0.06436 -0.2206715 1.1353521 9678537
-0.053581104 -0.22095816 1.1419492 4422071
-0.044271979 -0.22186483 1.1434815 2778029
-0.034555499 -0.22391476 1.1435386 2513574
-0.027008712 -0.22680964 1.1435783 2315684
0.0029008547 -0.22826166 1.1437718 2120102
0.014944711 -0.22855227 1.1438507 2185635
0.028109856 -0.22777437 1.143941 2186146
0.033557944 -0.22900136 1.1439728 2316696
0.048939273 -0.22718138 1.1440816 4486314
0.05652035 -0.22696166 1.1421326 5997746
0.067732058 -0.22427498 1.143074 6063288
0.076427802 -0.2230242 1.1442794 6589614
0.084524728 -0.22343868 1.1443316 8757678
-0.069508113 -0.20858011 1.1353619 1855898
-0.062870465 -0.21126202 1.1386344 2249885
-0.055271685 -0.21377145 1.1427106 2381985
-0.047200453 -0.21609733 1.143483 3039902
0.070540458 -0.21729487 1.144261 2841504
0.076575577 -0.21689272 1.1443026 3302564
0.08620245 -0.21486375 1.1430405 4420011
0.096051984 -0.21425137 1.1387271 6984117
0.10557007 -0.21171647 1.1365138 6254993
-0.080403499 -0.19779725 1.1361287 2710418
-0.072781824 -0.2012597 1.1397479 2775447
-0.066132627 -0.20366077 1.1426024 2906776
0.088833861 -0.20703551 1.1440198 3171492
0.097394176 -0.20585731 1.1412809 3237285
0.10578622 -0.20482911 1.1371117 3629215
-0.083149351 -0.19079527 1.140136 2775191
-0.075115986 -0.19449151 1.1427094 2906012
0.099562898 -0.19670752 1.142862 3040421
0.10656802 -0.19518021 1.1395279 3105703
0.11248685 -0.19556442 1.1366185 2777257
-0.098104656 -0.17634022 1.1352891 2710677
-0.091456972 -0.18039992 1.1388479 2709909
-0.085344367 -0.18416633 1.1413456 2709910
0.10789769 -0.18684414 1.1431462 3368100
0.1155517 -0.18517658 1.1388099 3302561
-0.0991956 -0.16977951 1.1384168 2710421
-0.094507679 -0.17276108 1.1425261 2644886
0.11013243 -0.17913905 1.1446627 3040936
0.11826184 -0.17622742 1.1426404 3237031
0.12475429 -0.17347115 1.1397803 3368615
-0.10850571 -0.15650655 1.1352921 2776209
-0.10321481 -0.16113494 1.1400604 2841240
0.12048464 -0.16780034 1.1447728 3237287
0.1270273 -0.16571155 1.1396807 3302822
-0.10937586 -0.14984843 1.1398439 2710683
-0.10477938 -0.15326333 1.1426622 2841499
0.12947537 -0.15736061 1.1422821 3237541
0.13453697 -0.15475251 1.1385133 3237798
-0.11130199 -0.14124613 1.1404719 2907293
0.13135387 -0.14864704 1.1449146 3237797
0.13618092 -0.14620048 1.1399554 3303334
-0.11729987 -0.12938549 1.1364751 2907805
-0.11518124 -0.1310963 1.1425402 2907805
0.13822965 -0.13689372 1.1425585 3434407
-0.11758468 -0.12007443 1.1380308 3039392
-0.11503057 -0.12133906 1.1433767 3039391
0.14040434 -0.12737024 1.1424805 3500202
0.14466035 -0.12453748 1.1370903 3631274
-0.12052499 -0.11084031 1.1399115 3170979
0.14258912 -0.11716065 1.1446592 3631791
0.14603272 -0.11665276 1.138906 3566510
-0.12068748 -0.10048789 1.1411291 3105957
0.14204293 -0.10602549 1.1434737 3632305
0.14729382 -0.10722657 1.1375041 3501227
-0.12081207 -0.090447508 1.1388789 3237546
0.14180997 -0.096942708 1.1426264 3698099
0.14645046 -0.097415246 1.1376008 3698094
-0.11995579 -0.080718003 1.1391581 3434923
0.14326584 -0.087703295 1.1432151 3895479
0.14549898 -0.089744024 1.1372224 3895477
-0.11932905 -0.070275091 1.1398194 3566256
0.14378814 -0.076415047 1.144593 4027579
0.14631738 -0.075887382 1.1412783 4157882
-0.11811481 -0.061389014 1.1391034 3567024
0.14198221 -0.066828951 1.144106 4159422
0.14633629 -0.067064032 1.1397104 4289724
-0.11554915 -0.05160274 1.1369598 3567791
-0.11243543 -0.049763583 1.1423208 3764403
0.14052472 -0.05674766 1.1426427 4356797
-0.1104387 -0.040850498 1.136271 3830196
0.13809992 -0.047100037 1.1417283 4619718
-0.10871895 -0.029996194 1.1386595 3896507
0.13429357 -0.035113819 1.1422355 4817095
0.13882737 -0.035788395 1.1390408 4948420
-0.11611122 -0.020645618 1.1397353 6916535
-0.10863501 -0.021355279 1.1394747 5210049
0.13358726 -0.028711647 1.1443652 5013440
0.13807236 -0.028393745 1.1420628 5998788
0.03510559 0.047777206 1.1398458 5859448
0.043315057 0.047663599 1.1380428 6122362
0.048856482 0.047647119 1.1410797 6319482
0.05996934 0.048630819 1.1451572 5330522
0.035804644 0.052214622 1.1383429 5792108
0.043651883 0.052872747 1.137864 5527648
0.048961677 0.052011535 1.1410962 5067354
-0.020990968 -0.22986019 1.1466072 4354997
-0.013671718 -0.23107216 1.1486515 4684224
-0.0037602624 -0.2310113 1.1472508 4289976
0.0072747478 -0.22897303 1.1467981 2054307
0.017690163 -0.22977354 1.1468645 2777510
0.023152467 -0.23100375 1.1468964 4026798
0.039618742 -0.23140104 1.1470042 5604271
0.043500565 -0.22984709 1.1470357 4881326
-0.039716922 -0.21905196 1.146522 3039902
-0.031795084 -0.22016311 1.1470706 2710943
-0.023393355 -0.22228608 1.1499232 2645152
-0.013609272 -0.22539389 1.1533393 2514339
-0.0036648149 -0.22552817 1.1528716 2514851
0.0063209347 -0.22325692 1.1514128 2842787
0.016228503 -0.2230638 1.1492792 2908579
0.025903467 -0.22290401 1.149833 3039651
0.036070526 -0.22385682 1.1510082 2908578
0.045440737 -0.2232098 1.1508229 2778020
0.05552537 -0.22178234 1.1485735 2646433
0.065043442 -0.22469178 1.1471976 5012145
0.076538973 -0.22625062 1.1472683 8955830
-0.052543588 -0.21032187 1.1467543 2841242
-0.04276691 -0.21263891 1.1488584 2775960
-0.033804387 -0.21413815 1.150846 2841500
-0.024476402 -0.21655017 1.1546326 2907551
0.0072285989 -0.2165778 1.1548432 3105184
0.016448887 -0.2164316 1.154905 3170722
0.026397208 -0.21667162 1.1549702 3302053
0.036543075 -0.21636343 1.1550387 3170723
0.047066286 -0.21569562 1.1551111 3105188
0.056426253 -0.21512122 1.153461 3170467
0.066061273 -0.21512926 1.1496392 3236258
0.076299913 -0.21192566 1.1477633 3171236
-0.068879955 -0.19857699 1.1464026 2906776
-0.062412605 -0.20097433 1.1475798 2907033
-0.05401326 -0.20217636 1.1513219 2841497
-0.044879053 -0.20647231 1.1545336 2775704
0.057534035 -0.20968068 1.1552025 3105443
0.066376992 -0.20989406 1.1552604 3105443
0.077266723 -0.2064331 1.1540822 3105956
0.085723624 -0.20375195 1.1506113 3105956
-0.079592884 -0.18733442 1.1463723 2644884
-0.072631486 -0.19108319 1.1494051 2775705
-0.064349607 -0.19416651 1.1521156 2841497
0.081013218 -0.19918692 1.1553966 3172006
0.088732965 -0.19698648 1.1544559 3040421
0.094667695 -0.19476962 1.1520033 2974628
-0.088163219 -0.17834039 1.1463481 2645144
-0.081585221 -0.18027952 1.1494436 2710425
-0.07635913 -0.18313363 1.1509807 2776216
0.098340876 -0.18621685 1.1523088 3171493
0.10339322 -0.18409553 1.1492 3237026
-0.091025166 -0.17026131 1.1489468 2710424
-0.084737062 -0.1726381 1.1529372 2710937
0.10138944 -0.17977005 1.1556026 3302823
0.10783841 -0.17582721 1.1525018 3172005
0.11371396 -0.17282414 1.1517097 3172006
-0.099405117 -0.15866396 1.1463449 2841498
-0.095104873 -0.16130768 1.1512871 2907290
0.11049882 -0.16892956 1.1557025 3303592
0.11683569 -0.16569421 1.154423 3237544
0.12313439 -0.16147044 1.1478133 3303337
-0.10097739 -0.15017253 1.1480796 2973342
-0.096504733 -0.15342771 1.1543834 3038879
0.12064904 -0.15802273 1.1551429 3237544
0.12511183 -0.15508294 1.1506498 3303336
-0.10871781 -0.13842659 1.1473566 2973342
-0.10276027 -0.14175294 1.1518842 2973600
0.12873216 -0.14604664 1.1519067 3368872
-0.11011522 -0.13053274 1.148729 3039392
-0.10474539 -0.13150333 1.1544083 3236259
0.13024856 -0.13664694 1.1537011 3500460
0.1347734 -0.1342911 1.1479895 3434923
-0.11098625 -0.12086802 1.1492943 3170978
0.13149917 -0.12774889 1.1546583 3500719
0.13627486 -0.1253503 1.1513654 3500718
-0.11725977 -0.10953712 1.1464047 3237029
-0.11352108 -0.11102097 1.1524245 3237286
0.13680762 -0.11651413 1.154173 3697329
-0.1170481 -0.10075498 1.1464381 3237543
-0.11452921 -0.10040885 1.1539563 3172263
0.13824844 -0.10743293 1.1537104 3697843
-0.11713858 -0.091124304 1.1494726 3303340
-0.11507139 -0.090120465 1.1544901 3303852
0.13827181 -0.096986234 1.1541485 3764149
-0.11694658 -0.081352234 1.1465093 3500716
-0.11425006 -0.080080688 1.1545321 3501229
0.14147332 -0.086618297 1.1527789 3764661
-0.11638661 -0.073310763 1.1465422 3566512
-0.11316289 -0.069982052 1.1509396 3632306
0.13873923 -0.076340497 1.1526972 3896764
-0.11232951 -0.060378648 1.15098 3698357
0.13298351 -0.06616658 1.1548921 4291265
0.13682468 -0.067407429 1.149389 4225217
-0.11049949 -0.051411018 1.1506611 3764408
0.13400163 -0.056582723 1.154267 4554434
0.13665204 -0.056349538 1.1482852 4488640
-0.10729185 -0.040776066 1.1515211 3895997
-0.10311615 -0.037688244 1.1547601 4027323
0.13387692 -0.045774993 1.1533054 4817354
-0.10549642 -0.031269535 1.1481009 3962044
-0.10153113 -0.030181885 1.1539979 4093118
0.12482963 -0.033233881 1.1562909 5014224
0.13018258 -0.036080875 1.152316 4751563
-0.10413904 -0.020882741 1.1468142 4290235
-0.099285819 -0.020888813 1.1513799 4158908
-0.093074463 -0.018759377 1.1548957 4028609
0.12334765 -0.026150949 1.154529 4817874
0.13007128 -0.02600836 1.1493518 5145287
-0.096728064 -0.014292538 1.1492875 4487616
-0.091313496 -0.011775456 1.1535994 4356800
0.11479926 -0.013425387 1.1542962 5276623
0.12109099 -0.016575918 1.1506121 5604813
0.13047211 -0.018014655 1.1492724 6720449
-0.089052424 -0.0048467293 1.1549729 5671109
0.11306514 -0.0078219399 1.1557337 5802961
0.11943941 -0.0087293535 1.1516774 6787017
0.037385918 0.0097990111 1.1558663 12972031
-0.017597992 0.021049395 1.1535418 5869264
0.014692609 0.01661405 1.1557403 7515376
0.022175672 0.016064808 1.1557879 8764660
0.031769443 0.015390933 1.1558493 10146554
0.038376786 0.014199212 1.1558889 10870005
-0.075068064 0.030773237 1.1471951 8028800
-0.069936402 0.031015545 1.14723 7305855
-0.013194616 0.022079699 1.1555748 5671370
-0.0098785097 0.021999694 1.1555966 5869265
0.013334238 0.021439619 1.1557487 6988787
0.017755713 0.021332934 1.1557778 7185904
0.10418763 0.028095737 1.1563766 6314850
-0.068596132 0.035987064 1.147257 8028802
0.10117786 0.031707659 1.1563698 6117979
0.077532828 0.042835101 1.1482528 5593178
0.079728335 0.042782128 1.1482673 5658970
-0.019100919 -0.21966161 1.1586572 2973083
-0.013581763 -0.22090462 1.1586894 2973595
-0.0041497229 -0.22070429 1.1594194 2973598
-0.038798764 -0.20808795 1.1585684 2842012
-0.032454412 -0.20962834 1.158605 2776219
-0.023185894 -0.21233895 1.1601804 2907806
-0.013637881 -0.21395521 1.1618721 2907807
-0.0030969558 -0.21475095 1.1621147 2973599
0.0058549913 -0.21261682 1.1595153 3039136
0.016614875 -0.21188852 1.1602561 3170723
0.026597794 -0.21200746 1.1596553 3236770
0.036409412 -0.21178079 1.1590546 3170979
0.045458611 -0.21178569 1.1591148 3170980
0.052153774 -0.21028247 1.1591648 3171236
-0.049676649 -0.19894677 1.1585293 2842012
-0.043033827 -0.20137885 1.1600192 2842011
-0.03348361 -0.20387267 1.1610806 2842012
-0.025243197 -0.20552725 1.1626679 2907805
0.021190416 -0.20803964 1.1629672 3302309
0.027236249 -0.20702413 1.1618682 3302308
0.035899188 -0.20710686 1.1605684 3171236
0.046661362 -0.20793027 1.1591368 3171236
0.057306256 -0.20681953 1.1608783 3105443
0.067176692 -0.2051318 1.1602833 3171492
0.073776104 -0.20340523 1.1593333 3040420
-0.07048367 -0.18734637 1.1584332 2841497
-0.061779894 -0.19030839 1.1590136 2907291
-0.053416826 -0.19316682 1.1604079 2907549
-0.046786547 -0.19452056 1.1625646 2907551
0.07043004 -0.19809119 1.1633306 3040420
0.077501662 -0.19641262 1.1614889 3106213
0.085397139 -0.19399303 1.1594448 3106214
-0.071843758 -0.18083251 1.160448 2907290
-0.065338016 -0.18387538 1.1619802 2973340
0.081774518 -0.18945572 1.1634374 3302823
0.087891757 -0.18720859 1.1610861 3237030
0.094110854 -0.18395156 1.161317 3237031
-0.088858448 -0.16692592 1.1583854 2841497
-0.08055114 -0.17060912 1.1589605 2842012
-0.074503273 -0.17300123 1.1614587 2907547
0.099485561 -0.17639123 1.1605254 3368361
0.10465289 -0.17325972 1.1596482 3237285
-0.090194762 -0.16097453 1.1583982 2973085
-0.083439566 -0.1613728 1.1611785 3039135
0.10197352 -0.16931064 1.1596447 3368615
0.10857157 -0.16614127 1.1604273 3237799
0.1132257 -0.1629231 1.1597426 3303337
-0.097277373 -0.14785554 1.1583987 2973857
-0.091945373 -0.15152113 1.1599764 3039137
-0.086051397 -0.15255377 1.1624563 3104930
0.11073235 -0.15869601 1.1617415 3172264
0.11703192 -0.15595154 1.16046 3238059
-0.098277427 -0.13963048 1.159422 3039650
-0.094404101 -0.14333168 1.1624343 3105700
0.12049466 -0.14629427 1.1620053 3369132
0.12471849 -0.14655282 1.1598785 3434410
-0.1008313 -0.13100594 1.1601506 3171236
0.1225746 -0.13822383 1.1630946 3500719
0.12600937 -0.13599735 1.1619254 3435183
-0.10767404 -0.11874887 1.1584355 3302823
-0.10308961 -0.12084977 1.1611249 3171495
0.12701562 -0.12592052 1.1617869 3566514
-0.10922191 -0.11007918 1.1599113 3368873
-0.1055836 -0.11135047 1.1616763 3368875
0.12995879 -0.11679184 1.1608216 3697588
-0.10991532 -0.10099813 1.1611518 3303850
0.13173985 -0.10724226 1.1634966 3763892
0.13500339 -0.1066248 1.160092 3698099
-0.11100563 -0.090759136 1.160115 3435181
-0.10517957 -0.091398351 1.1625515 3435438
0.13299935 -0.097145133 1.1641132 3829942
0.13587748 -0.096654743 1.1612769 3764149
-0.10973941 -0.081115 1.1605585 3501229
0.13332127 -0.08378911 1.1641638 3896505
0.13766095 -0.086768955 1.1619999 3830455
-0.10890064 -0.071269512 1.1601384 3632563
-0.10461621 -0.068025306 1.1626402 3567542
0.13115226 -0.076566346 1.1616042 4027837
0.1363052 -0.080242053 1.1601965 3896505
-0.10789812 -0.061231345 1.1599764 3829940
-0.10445525 -0.061347291 1.1626655 3699127
0.12987454 -0.066923745 1.1628689 4291009
-0.10723175 -0.051101275 1.1594843 3895737
-0.10355481 -0.050391614 1.1627113 4027576
0.13041696 -0.056892402 1.1622423 4422849
-0.10588279 -0.044432886 1.1587174 4158911
-0.10132054 -0.040850267 1.1607608 4093372
0.1305989 -0.047147613 1.1617789 4817355
-0.097343624 -0.031542584 1.1603595 4093630
-0.09252058 -0.028225772 1.1628652 4094397
0.12340251 -0.036225699 1.162493 5080014
0.12785302 -0.039529003 1.1602883 4883149
-0.095031418 -0.023977712 1.1588639 4028348
-0.090475284 -0.021535151 1.160403 4028864
0.11914696 -0.026474789 1.1620557 4949202
-0.08668454 -0.012032203 1.1607809 4029123
-0.082427591 -0.009908475 1.1629988 3963586
0.11329538 -0.016469188 1.1629421 5146069
0.11664778 -0.020946302 1.1602814 5080276
-0.085676759 -0.0042263195 1.1589978 5342665
-0.078531235 -0.0022640526 1.1630524 4882633
-0.015000257 -2.7649105e-005 1.1634828 6070261
-0.0083223423 -0.00018877536 1.1635265 6528744
-0.0016444279 -0.00034990162 1.1635703 8827627
0.01393737 -0.00072585791 1.1636724 10340848
0.022666927 -0.0015728548 1.1637274 8895736
0.030154768 -0.0024535283 1.1637739 6266608
0.10454942 -0.0034651831 1.1632645 5475287
0.1089564 -0.0070841238 1.1616141 5475028
-0.074901327 0.0036487207 1.161098 5999306
-0.06821572 0.0045972541 1.1611459 5540557
-0.059565045 0.0077269375 1.1605481 5803727
-0.04682681 0.009154506 1.1633047 4950220
-0.037893824 0.0078140944 1.1633592 5016280
-0.028183036 0.0069700181 1.1630206 5411294
-0.018126011 0.0067207888 1.1612464 5806569
-0.0081506493 0.0064866766 1.1629519 7120874
0.001449381 0.0069997832 1.1636176 12379901
0.012045278 0.006229274 1.1611588 13891069
0.021856982 0.0057563782 1.1605486 12969723
0.031809196 0.0057500005 1.1614989 9946095
0.041870072 0.0052740872 1.1619668 10013177
0.051650856 0.0069201365 1.1617969 7449069
0.058336183 0.0085969493 1.1640013 5411552
0.10174306 0.00049836934 1.1617603 6526426
-0.044728946 0.014053434 1.1633364 6264275
-0.037100345 0.014682658 1.1608893 5803990
-0.027500488 0.015086979 1.1594546 5345755
-0.017465744 0.01610703 1.1595249 5412839
-0.0078669814 0.016466804 1.16009 5676266
0.0011303611 0.015319169 1.1625028 7253489
0.010968182 0.014907293 1.1607095 8436213
0.020897942 0.012439437 1.1597666 12051453
0.035424184 0.016528308 1.1598779 10082302
0.043244548 0.015599728 1.1599265 10607102
0.051706742 0.014549963 1.1599789 7515119
0.058719806 0.013761811 1.161356 6068200
-0.0055084312 0.021955281 1.1596256 6001365
-0.001071725 0.021848232 1.1596547 6396124
0.11153787 0.024902359 1.1604141 6447199
-0.010093517 -0.2102437 1.1667515 3039391
-0.0025484813 -0.20985913 1.1683031 3039135
0.0088919802 -0.21070178 1.166876 3104930
-0.038860973 -0.19837502 1.1666036 2776478
-0.032520927 -0.19943154 1.1686418 2842271
-0.022674672 -0.20131736 1.1708823 2907807
-0.013498201 -0.20340063 1.1714495 2908063
-0.0035099266 -0.20449582 1.1726164 2973600
0.0068351468 -0.20376091 1.1722211 3105187
0.016775452 -0.20364597 1.1713679 3236773
0.026514858 -0.20253858 1.1707562 3237029
0.03745703 -0.20288852 1.1708943 3171237
0.047098607 -0.20406243 1.1686541 3171236
0.056658104 -0.20273082 1.1681454 3105444
0.065545805 -0.20145287 1.167286 3171493
-0.050859347 -0.18922466 1.1697571 2841758
-0.042822588 -0.19172969 1.1706015 2907551
-0.033959989 -0.19306123 1.1734791 2842271
-0.023313284 -0.19451165 1.1747211 2908064
-0.016593918 -0.19579887 1.1747611 2973857
0.0047698831 -0.19631433 1.1749011 3105444
0.017662229 -0.19562533 1.1749893 3237030
0.027705157 -0.19628052 1.1742536 3302823
0.037384015 -0.19573194 1.1741968 3171495
0.046780668 -0.19454707 1.1737953 3105703
0.056483295 -0.19503911 1.1736493 3105703
0.066312447 -0.19477065 1.1718155 3105702
0.074723244 -0.19245785 1.1690941 3105958
-0.061939843 -0.18125096 1.1681595 2973598
-0.054016925 -0.18318012 1.1725582 2907551
-0.044185948 -0.18528867 1.174616 2908065
0.068271548 -0.18642262 1.175359 3237288
0.077123098 -0.18591297 1.1729752 3302823
0.085853912 -0.18406883 1.1700556 3237287
-0.071078524 -0.16976318 1.1693506 3105183
-0.063720353 -0.17332837 1.1726472 2974112
-0.055487558 -0.17573407 1.1745756 2842786
0.078761652 -0.17919827 1.175455 3171750
0.087485075 -0.17579246 1.174192 3172008
0.095620468 -0.17421624 1.1699183 3303081
-0.078953579 -0.15987921 1.1671437 3104930
-0.072824351 -0.16237181 1.1731756 3170978
0.090165317 -0.1675154 1.1755732 3303337
0.097992994 -0.16617543 1.17338 3368873
0.10498578 -0.16502503 1.170226 3237543
-0.08848995 -0.14686482 1.1691277 3040164
-0.081866659 -0.15078695 1.1702803 3105701
-0.075622946 -0.1553718 1.1745158 3302822
0.099767983 -0.15720347 1.1756746 3303597
0.10725682 -0.15493937 1.1713687 3238059
0.11441303 -0.15204659 1.1697904 3303852
-0.090785727 -0.14047703 1.1702468 3106213
-0.08309973 -0.14272176 1.174512 3172007
0.10834756 -0.14590912 1.1755725 3369387
0.11631495 -0.14584744 1.1718255 3435181
-0.09767431 -0.13006076 1.1677943 3237030
-0.091147907 -0.13090867 1.1721681 3237800
-0.084870964 -0.13452217 1.1745301 3303594
0.11031046 -0.13990657 1.1758075 3500972
0.1188423 -0.13582033 1.1726289 3500976
0.12362629 -0.13301298 1.1679207 3500977
-0.098602161 -0.12078492 1.1695998 3237545
-0.094006628 -0.12257685 1.1736239 3303852
0.12083759 -0.12635957 1.1759266 3566772
0.12417768 -0.12675586 1.1719471 3566515
-0.10088073 -0.11101786 1.169759 3369389
0.12192401 -0.11684938 1.1759684 3763639
0.12534176 -0.1159773 1.1711051 3763639
-0.10731741 -0.09701369 1.1678504 3435181
-0.10205685 -0.10084157 1.1711097 3435438
0.12283367 -0.10578124 1.1760147 3895737
0.12785427 -0.10576264 1.1708715 3764149
-0.10666827 -0.090554863 1.1689448 3435438
-0.10134044 -0.091330476 1.1730391 3501231
0.12296918 -0.1001591 1.176036 3961530
0.12847695 -0.096290603 1.17091 3961528
0.13576333 -0.093077257 1.1681465 3895735
-0.10616799 -0.081314869 1.1695818 3501489
-0.10191508 -0.081206255 1.1724929 3501490
0.12340282 -0.082168266 1.1761043 4159679
0.129031 -0.086963907 1.1713967 3962041
0.13581717 -0.090843648 1.168155 3895735
-0.10645334 -0.073960677 1.1686066 3501747
-0.10158697 -0.070897147 1.1713169 3567541
0.12280679 -0.075778425 1.1761235 4225473
0.12651375 -0.076355055 1.1721458 4159424
-0.099561676 -0.060787145 1.1703004 3764919
0.12277073 -0.066901907 1.1761556 4422597
0.12675685 -0.06626948 1.1721841 4357059
-0.09883257 -0.05102871 1.1701692 3896505
-0.094109505 -0.051043253 1.1747721 3962298
0.12290175 -0.056279309 1.176195 4685767
0.12699994 -0.056183912 1.1722224 4422851
-0.097139731 -0.041933972 1.1683849 4027836
-0.092119902 -0.040310293 1.1737334 4028094
0.12129667 -0.045635756 1.1741053 4948684
0.12718064 -0.047655895 1.1692545 4751818
-0.095237724 -0.033865578 1.1668268 4093632
-0.089623474 -0.030572422 1.1727225 4094399
0.11478718 -0.035082005 1.1762182 5080784
0.11910489 -0.036235437 1.1714425 5211343
-0.086162664 -0.022205256 1.1712933 4094402
-0.07957992 -0.019309342 1.1739839 4226244
-0.073057048 -0.017798781 1.1750329 4620744
-0.019058231 -0.017976575 1.175391 5412064
0.0034299828 -0.018519163 1.1755384 6463211
0.011406816 -0.022550166 1.1755768 6397929
0.021106808 -0.022143275 1.1756427 6397929
0.030384865 -0.020455346 1.1757104 6003432
0.11202423 -0.025724128 1.1737337 5081042
0.11719539 -0.028934024 1.1682563 5081041
-0.077998027 -0.011513792 1.1688893 4160963
-0.069936164 -0.010791801 1.1742219 4752075
-0.054822557 -0.0081130043 1.1751891 4949201
-0.048089646 -0.0088379979 1.1752313 5016022
-0.038533751 -0.010186031 1.1746231 5213659
-0.028724134 -0.011324979 1.1741201 5411552
-0.01890279 -0.012345776 1.1746124 5740773
-0.0088030258 -0.012598611 1.1754787 6003172
0.001318261 -0.012838252 1.175145 6331366
0.011431284 -0.013046846 1.1726114 6989552
0.021527465 -0.013296157 1.1730776 6792432
0.031615287 -0.013529554 1.1724937 5937640
0.040107835 -0.012827858 1.1748028 5806054
0.050844941 -0.011787646 1.1758779 5674725
0.057618506 -0.010825984 1.1759264 5674983
0.10337727 -0.014461495 1.1762173 5146841
0.10938185 -0.016647324 1.1705347 5080789
-0.074381709 -0.0030799061 1.1670773 4554184
-0.070935905 -0.0023477748 1.1701028 4751049
-0.05570104 -0.0024588108 1.1732038 4818129
-0.048255153 -0.0026331395 1.1724526 5015507
-0.038694639 -0.002837196 1.1691153 5147609
-0.028581046 -0.0030718148 1.1678816 5346018
-0.018969771 -0.003696017 1.1705544 5937898
-0.0085431868 -0.0046950877 1.1708423 6462952
0.0019339789 -0.0041965693 1.1700248 8303605
0.011309469 -0.004521966 1.16907 8501495
0.021145802 -0.0057344884 1.1683178 7252467
0.032458913 -0.0054677352 1.1692331 6069484
0.041625049 -0.0046042278 1.1701584 6135528
0.051704444 -0.0052430183 1.1733191 5741031
0.061085358 -0.0052794665 1.1749696 5543655
0.070586272 -0.0042152852 1.1760366 5477092
0.080680288 -0.0031318143 1.1761076 5739747
0.092043288 -0.0036560148 1.1761812 5280481
0.10122224 -0.0064894855 1.1725395 5015513
0.10667741 -0.0085849985 1.1702603 4949463
-0.067519434 0.0034592897 1.1671467 4818122
-0.058064803 0.0042244419 1.1672122 5147606
-0.049360678 0.0047594011 1.167272 4818639
-0.040716387 0.0028125867 1.1673224 5344472
0.0039688358 0.0022931397 1.1676174 12971007
0.0084225535 0.0016269535 1.1676446 12905215
0.032992017 0.0010341406 1.1678057 5807584
0.046393547 0.00071078539 1.1678935 6004710
0.052479215 0.0015217736 1.1679369 5807083
0.061313976 0.003777191 1.1701372 5477863
0.069788128 0.0031275526 1.1727245 5542628
0.081502154 -0.0001514405 1.176124 5673698
0.092125073 0.0015573129 1.1747006 5804766
0.097766064 -0.00052873045 1.1682304 5147865
0.064531438 0.011447757 1.168053 5412324
-0.0099672424 -0.19889477 1.1787939 3039650
-0.0035358174 -0.19969502 1.1788337 3039650
-0.030084826 -0.19050713 1.1786908 2842271
-0.023315515 -0.19067046 1.1787351 2973857
-0.013028114 -0.19201525 1.1800618 2973857
-0.0033296114 -0.1940074 1.1813822 3039395
0.0073786159 -0.19232777 1.1807108 3171237
0.016721083 -0.19113186 1.1800661 3237030
0.027073788 -0.19083282 1.1806078 3302569
0.035408288 -0.19117436 1.1804569 3237546
-0.049495555 -0.17955622 1.1786015 2908065
-0.041943684 -0.18070605 1.1786475 2973857
-0.033313412 -0.18268244 1.1796978 2973857
-0.023623172 -0.18482217 1.180872 2973858
-0.015365531 -0.18585792 1.1828055 3105444
0.016331231 -0.18662271 1.1830133 3237030
0.028065227 -0.18539554 1.1830957 3302825
0.037007216 -0.18515486 1.1828483 3171754
0.046860326 -0.18590464 1.1812187 3171752
0.057214964 -0.18572864 1.1806999 3171753
0.065728024 -0.18281382 1.1803553 3237546
0.074010447 -0.18060094 1.1794184 3303592
-0.060442381 -0.16983089 1.1785642 2908579
-0.052316703 -0.17220517 1.1806096 2908579
-0.042526472 -0.17391524 1.1815774 3105444
-0.033927981 -0.17589535 1.1827184 3105443
0.060698573 -0.17863157 1.1833372 3303339
0.068793207 -0.17654769 1.1820651 3303082
0.077252157 -0.1746347 1.1800331 3237545
0.083253749 -0.17179283 1.1795118 3303850
-0.069196202 -0.15833077 1.1785477 3302822
-0.062704444 -0.16280276 1.1808248 3040165
-0.055681929 -0.16676192 1.1826071 3040167
0.072237134 -0.16984835 1.1834457 3303598
0.078400508 -0.16599719 1.1825595 3238061
0.08702524 -0.16413482 1.1806759 3303596
0.094780691 -0.16191091 1.1796243 3369131
-0.078720279 -0.14756465 1.1785237 3171751
-0.072393551 -0.15135685 1.1799637 3368615
-0.065597326 -0.15519565 1.1825832 3171751
0.096743345 -0.15538685 1.181161 3369134
-0.080524698 -0.14046553 1.1785375 3369130
-0.074474804 -0.14258352 1.1815701 3434922
0.098091528 -0.14575696 1.1827527 3435183
-0.082051151 -0.1318327 1.1798921 3434923
0.10101289 -0.13873099 1.18295 3501232
0.10785092 -0.13576026 1.1823945 3435694
0.11464027 -0.13416778 1.1798571 3501232
-0.090000547 -0.12049263 1.1795471 3369646
-0.084385283 -0.12438963 1.181237 3435182
0.11179021 -0.1266273 1.1838657 3567282
0.11592177 -0.12618393 1.1817129 3567027
-0.098076433 -0.10758641 1.1785403 3501231
-0.093605831 -0.11163653 1.1813054 3435439
0.11198122 -0.11870299 1.1838957 3829686
0.11716376 -0.11600769 1.1821622 3829431
-0.097994849 -0.1042017 1.1785532 3501231
-0.093542539 -0.1010742 1.1802608 3567024
0.11969361 -0.10668755 1.1826572 3830201
-0.097654924 -0.090098754 1.1786066 3632818
-0.094457053 -0.090904184 1.1806251 3698612
0.12207072 -0.096128568 1.1820447 3896507
-0.097423777 -0.080508754 1.1786431 3633333
-0.09360335 -0.080807418 1.1814674 3764919
0.12215561 -0.085917249 1.1815825 4093886
-0.097662948 -0.071697623 1.1786735 3633334
-0.093625069 -0.070873395 1.1819034 3830201
0.11937989 -0.076225415 1.1823214 4291523
-0.0929434 -0.060578912 1.1804119 3896506
0.11914716 -0.065729804 1.1817358 4619975
-0.089434393 -0.051109962 1.1805173 4028348
0.11353651 -0.054176483 1.1841406 5146320
0.11791682 -0.056499962 1.1831613 4883148
-0.087480746 -0.041733764 1.1791358 3962814
-0.082485944 -0.040504608 1.1817449 3963072
0.11276734 -0.045322347 1.1826676 5146577
0.11650369 -0.047027759 1.1806862 5080527
-0.085885689 -0.032696344 1.1788934 4028607
-0.079680905 -0.031106859 1.1810739 4291526
-0.029739808 -0.030330867 1.1832752 5147865
-0.022262972 -0.030284733 1.1833251 5344731
-0.0059399521 -0.029772408 1.1834354 5345501
0.00085221324 -0.029936284 1.1834799 5739743
0.010984115 -0.032408066 1.182205 5936862
0.020034112 -0.032635957 1.1825975 5871068
0.030257635 -0.031778485 1.1836686 5739228
0.048397359 -0.031083457 1.1837916 5213656
0.11110619 -0.036397412 1.1825891 4949970
-0.077710114 -0.023693144 1.1789806 4422856
-0.069177583 -0.019142061 1.180872 4686797
-0.058784708 -0.018264979 1.181126 4884690
-0.048436157 -0.0199591 1.1826887 4950486
-0.037996609 -0.020967104 1.181921 5213659
-0.029445399 -0.022338234 1.1801062 5279707
-0.019317683 -0.023721769 1.1805685 5345244
-0.0091156615 -0.022334822 1.1805524 5411808
0.00071526971 -0.023685373 1.1804107 5806052
0.0099794455 -0.027031884 1.179551 6068964
0.022004716 -0.027698323 1.1796285 6068963
0.032089885 -0.025563754 1.1806264 6003173
0.040579658 -0.024052933 1.1815653 5608417
0.050772753 -0.02431044 1.182232 5411038
0.057617288 -0.024509706 1.1838769 5279709
0.1023441 -0.023828097 1.1832534 5212630
0.1079135 -0.02754762 1.1815332 5015248
-0.065330222 -0.013549596 1.1790997 4949712
-0.058560908 -0.013712928 1.179144 4949713
-0.048406929 -0.013957925 1.1792107 5016279
-0.039014179 -0.014560848 1.1792709 5213659
-0.030382626 -0.015521698 1.1793247 5345501
0.04240109 -0.016713388 1.179804 5871590
0.050876331 -0.016353428 1.1798617 5871847
0.06117091 -0.014376111 1.1819372 5543139
0.068479531 -0.013424106 1.1822749 5280225
0.092982993 -0.014035992 1.1841499 5411294
0.098825738 -0.015581198 1.1816375 5279196
0.070824116 -0.0083680451 1.1800232 5411556
0.080454774 -0.0069070756 1.1800925 5412066
0.091736965 -0.0071792901 1.1801665 5477344
0.098451883 -0.0095990971 1.1802022 5213404
-0.0022615204 -0.18946609 1.1868796 3105189
-0.022428844 -0.18051524 1.1877782 3039906
-0.012785104 -0.18288469 1.1882622 3039908
-0.0032940796 -0.1842823 1.190225 3105447
0.0073477998 -0.18375227 1.1877142 3105702
0.016463853 -0.18271998 1.1870285 3171750
0.025457237 -0.1825237 1.1870891 3237289
0.036963645 -0.18094157 1.1871712 3237548
0.04718617 -0.18118823 1.1872382 3171752
0.056272857 -0.18140745 1.1872978 3171752
-0.049789481 -0.16839245 1.1866404 3039909
-0.041965812 -0.16931607 1.187578 3105701
-0.033886738 -0.17216787 1.1892779 3105443
-0.024429977 -0.17779687 1.1907748 3040163
0.0063623879 -0.17762756 1.1909801 3105960
0.017785687 -0.1767882 1.191059 3105958
0.026922483 -0.17549375 1.1903244 3237545
0.037350412 -0.17467991 1.1893018 3237547
0.047401357 -0.17460749 1.1888636 3237544
0.057467416 -0.17462337 1.1890147 3237545
0.066172019 -0.17284077 1.1880615 3303339
-0.060807019 -0.15869357 1.1866025 3172009
-0.052479088 -0.16206881 1.1890455 3105961
-0.043209981 -0.16451511 1.1906983 3171752
0.040804423 -0.1679676 1.191244 3303337
0.047642287 -0.16813259 1.1912888 3303593
0.057759818 -0.16739929 1.1913587 3303594
0.067035876 -0.16500285 1.190179 3303596
0.073910698 -0.16364881 1.1874796 3238062
-0.067984618 -0.14999655 1.1865864 3434409
-0.062306032 -0.15190774 1.1894407 3237547
-0.054034345 -0.15448344 1.1906629 3237805
0.068165109 -0.15773134 1.191463 3238318
0.077537477 -0.15501943 1.1904151 3238572
0.087675005 -0.15504313 1.1888024 3434926
0.094196282 -0.15459156 1.1876473 3369134
-0.070115373 -0.14091508 1.1878361 3435179
-0.064237423 -0.14307676 1.190192 3369388
0.082326055 -0.14844361 1.1915908 3500977
0.088038117 -0.14503758 1.1906412 3435186
0.093513936 -0.14517991 1.1876769 3500720
-0.078368045 -0.12996943 1.1875902 3566511
-0.07274776 -0.13299125 1.1892833 3566767
-0.06560789 -0.13575166 1.190654 3500977
0.089682318 -0.13744389 1.1911796 3501234
0.097646147 -0.13518313 1.1884907 3501490
-0.087635711 -0.11656353 1.1865773 3566770
-0.081005052 -0.1213181 1.1892041 3632306
-0.074505292 -0.12641439 1.1906288 3632563
0.099643946 -0.12657157 1.1903735 3699127
0.1071306 -0.12545665 1.1883097 3633076
-0.088715889 -0.1109511 1.1875906 3566770
-0.082754157 -0.11200518 1.1906264 3763892
0.10074594 -0.11752914 1.1918256 3633335
0.10749029 -0.11548754 1.1894333 3764407
-0.088616721 -0.10087708 1.1894279 3698868
-0.084296606 -0.10159785 1.1906539 3699126
0.1016042 -0.10557646 1.1918747 3962811
0.1081476 -0.10581835 1.1907506 3830969
0.11588424 -0.10621232 1.1879672 3830714
-0.089537598 -0.090888813 1.1875811 3699126
-0.084308743 -0.09158805 1.1906903 3830712
0.10908218 -0.095899813 1.1913595 4028606
0.11726258 -0.096179314 1.1880128 3962300
-0.088733435 -0.081422478 1.1882977 3830970
-0.08384183 -0.081227802 1.190731 3962813
0.10956811 -0.086852655 1.1919956 4291522
0.11748172 -0.086616978 1.1884127 4094399
-0.088792995 -0.071349546 1.1884483 3962044
-0.083939835 -0.071777038 1.1907647 4093630
0.11141231 -0.076148435 1.1917802 4554438
0.11626372 -0.076996848 1.1880759 4357059
-0.087924823 -0.061322436 1.1881095 4093886
-0.08334738 -0.060713898 1.1908089 4291009
0.10983849 -0.065560453 1.191186 4686026
0.11588453 -0.065784931 1.1881142 4685769
-0.086129941 -0.054091644 1.1868143 4159935
-0.081089102 -0.051754832 1.1897136 4225985
0.10281286 -0.055431381 1.192065 5015248
0.10888536 -0.056842528 1.1894335 5014991
-0.077832408 -0.042009503 1.1890311 4292037
-0.072527498 -0.044358823 1.1909401 4619977
-0.049569793 -0.038070805 1.1911156 5279449
-0.0415923 -0.038263287 1.1911678 5016538
-0.029083688 -0.039705418 1.1912458 4950743
-0.01960469 -0.041611079 1.1913018 4950488
-0.010506126 -0.041674096 1.191362 5147351
-3.6496669e-005 -0.040976435 1.1914341 5278422
0.010479384 -0.043542001 1.1906058 5212886
0.019850057 -0.043101992 1.1898085 5278423
0.029836891 -0.042507235 1.190377 5147094
0.040717039 -0.043181509 1.1916969 4885460
0.050242346 -0.041904084 1.1910375 4950741
0.059358176 -0.041611288 1.1918265 5016279
0.10157015 -0.04553977 1.1906927 5212370
0.10895333 -0.046865225 1.1881368 5212369
-0.075582437 -0.035093963 1.1889535 4423370
-0.073430099 -0.031948425 1.1885792 4554187
-0.048980489 -0.033059984 1.190871 5147610
-0.039095905 -0.032562397 1.1892052 5081818
-0.030047368 -0.035056122 1.1892562 5016538
-0.018866077 -0.033889361 1.1894681 5278938
-0.0097480221 -0.033502728 1.1895301 5344730
0.00070485193 -0.034629598 1.1885288 5673948
0.010881504 -0.03711161 1.1875206 5805277
0.019968187 -0.037330855 1.1875802 5541848
0.030218087 -0.036441639 1.1876516 5475544
0.040495358 -0.034416594 1.1877272 5213397
0.051127296 -0.035299003 1.1885005 5082070
0.060822982 -0.034757465 1.1902611 5016536
0.0698006 -0.032805793 1.1919279 5213915
0.080569372 -0.03208822 1.1920021 5279453
0.091498949 -0.032808051 1.192072 5213659
0.10087363 -0.035948813 1.1905229 5212628
0.10750966 -0.036033526 1.1881666 5146833
-0.072951309 -0.025996789 1.1870041 4554443
-0.04769196 -0.024787828 1.1871762 5016281
-0.040444508 -0.025871895 1.1872205 5147611
-0.0093445173 -0.027531497 1.1874211 5411294
0.061565414 -0.024696372 1.1879026 5148123
0.070283838 -0.024912052 1.1881597 5213915
0.080301054 -0.025389448 1.1897637 5213917
0.091052003 -0.025585175 1.1904111 5213659
0.09902662 -0.027503289 1.1884747 5212887
0.092018627 -0.018612057 1.188127 5279708
0.096561976 -0.018721685 1.1881568 5411037
-0.018849522 -0.17869355 1.1958088 3106213
-0.013127499 -0.17883161 1.1958463 3105959
-0.0018627057 -0.17975774 1.1959177 3105706
0.008616183 -0.17935625 1.1959889 3105960
-0.029555861 -0.1715647 1.1957636 3105700
-0.022163767 -0.17299674 1.1965575 3105957
-0.013003773 -0.17321774 1.1966176 3106216
-0.0027048877 -0.17359045 1.1975347 3106217
0.0079471935 -0.17333131 1.1974349 3171752
0.015856838 -0.17302658 1.1971509 3303337
0.027147327 -0.17064266 1.1961436 3369130
0.034013748 -0.17080833 1.1961887 3369132
-0.041886486 -0.16005225 1.1960568 3171753
-0.032288771 -0.16270933 1.1984977 3171752
-0.022019763 -0.16324843 1.200644 3172010
-0.012874446 -0.16475315 1.2016493 3172012
-0.0028346861 -0.16458327 1.2025121 3237802
0.007850823 -0.16413644 1.2020392 3303338
0.017050132 -0.16438735 1.2022995 3369133
0.027379204 -0.16439471 1.2006481 3369388
0.037524119 -0.16430044 1.2000253 3303853
0.046849012 -0.16334054 1.1980512 3369643
0.056983341 -0.16277255 1.1966058 3303851
-0.059330888 -0.14794457 1.1956515 3303598
-0.05130361 -0.15097493 1.1974082 3303341
-0.042806488 -0.15293877 1.2008862 3303340
-0.033518162 -0.15461847 1.203799 3369132
-0.025394719 -0.15670073 1.2038455 3303600
0.0080138892 -0.15750681 1.2040645 3303598
0.020686122 -0.15781257 1.2041476 3435186
0.028174255 -0.15799324 1.2041967 3369391
0.037966434 -0.1582295 1.2042609 3369392
0.047850922 -0.1555485 1.2037209 3369390
0.057466544 -0.1546921 1.2002033 3435184
0.066914573 -0.15328079 1.196471 3369392
-0.060119539 -0.14092276 1.1964718 3369646
-0.053078316 -0.14343953 1.2013097 3303853
-0.045908958 -0.1469841 1.2037444 3173034
0.049983617 -0.14745346 1.2043799 3566773
0.058203097 -0.1463384 1.2037719 3566516
0.068076678 -0.14467773 1.2009101 3500977
0.077993266 -0.14555581 1.198257 3500975
-0.069990851 -0.12871163 1.1956506 3632562
-0.061209127 -0.1320153 1.1986971 3501236
-0.053731918 -0.13239804 1.2033011 3501494
0.070497319 -0.13567206 1.2045591 3698612
0.078069456 -0.13618127 1.2022438 3567283
0.087005891 -0.13393968 1.1996082 3567283
0.094515808 -0.13104501 1.1967351 3501747
-0.076951757 -0.11889222 1.1956401 3895478
-0.071448989 -0.12157758 1.198167 3698613
-0.062613651 -0.12276936 1.2023882 3633080
0.072097003 -0.12908261 1.2045937 3699128
0.078731567 -0.12605056 1.2046487 3830713
0.088227019 -0.12588565 1.2035124 3699126
0.095128044 -0.12464729 1.1967626 3633333
-0.078066565 -0.11084972 1.1956619 3961271
-0.071365908 -0.1114945 1.2007042 3896247
-0.064715818 -0.1142545 1.2037385 3764921
0.078792684 -0.11910032 1.2046744 3962300
0.089716375 -0.11684868 1.2042845 3896506
0.097338602 -0.11510991 1.198812 3764920
-0.07921423 -0.10150698 1.1971883 3830712
-0.07238169 -0.10127164 1.2024014 4093627
0.092939042 -0.10607023 1.2048157 4028352
0.098381281 -0.10557085 1.1995202 3962812
-0.079368912 -0.091185756 1.1977248 3962556
-0.072998762 -0.092500173 1.203318 4028606
0.092663109 -0.095656268 1.2048517 4357317
0.099095218 -0.095983073 1.2008932 4225985
0.1046089 -0.092355579 1.1969428 4225985
-0.078660309 -0.082191586 1.1977621 4028606
-0.073941015 -0.082524553 1.2037925 4094655
0.093383327 -0.087637626 1.2048857 4554695
0.09929993 -0.085601546 1.2003323 4554182
0.10557412 -0.083981559 1.1969798 4619462
-0.079075724 -0.071519196 1.1962687 4159424
-0.071121573 -0.070751682 1.2026232 4160448
-0.064784899 -0.069297217 1.2039014 4554440
0.094166227 -0.074285097 1.2049394 4620747
0.099726856 -0.075427689 1.2027222 4686026
0.1061395 -0.076361291 1.1970111 4619977
-0.078219838 -0.061871536 1.1958388 4291265
-0.070193864 -0.062096648 1.2011416 4357573
-0.064618289 -0.062384985 1.2039276 4751563
0.0095598549 -0.061485104 1.2044238 4818903
0.017258506 -0.060902383 1.2044771 4819160
0.092528492 -0.065715544 1.2049596 4752590
0.099946201 -0.066228464 1.202757 4817869
0.10518816 -0.068322733 1.197034 4752076
-0.076001883 -0.052336521 1.1958883 4291778
-0.070017554 -0.051793568 1.199509 4554440
-0.064423919 -0.054320719 1.2039582 4883149
-0.045642208 -0.047682412 1.2001071 5674209
-0.039901149 -0.047820933 1.2001448 5082331
-0.028621577 -0.050940339 1.202075 4950745
-0.019330431 -0.052891523 1.1996629 4884953
-0.010143944 -0.053103264 1.1995232 4753366
0.00020042714 -0.052260339 1.2007951 4884692
0.010750974 -0.054134887 1.2000139 4884692
0.019521536 -0.053626437 1.2007289 4884692
0.029728357 -0.052691232 1.2032564 4950484
0.040653113 -0.053898618 1.2015468 4950488
0.049429923 -0.053854134 1.2025987 4950489
0.060061749 -0.052666757 1.2037246 5411037
0.069040529 -0.052641936 1.2048512 5542623
0.083201386 -0.050966375 1.2049513 5213404
0.090908103 -0.054034095 1.2049913 5081558
0.099176265 -0.056465682 1.2026374 5015248
-0.070518121 -0.041999467 1.1959622 4685772
-0.048293941 -0.042075779 1.1972007 5542365
-0.039331079 -0.042472672 1.1973107 4951002
-0.030585915 -0.04370651 1.1962214 4884951
-0.021371778 -0.045802616 1.196275 4753366
