# .PCD v0.7 - Point Cloud Data file format
VERSION 0.7
FIELDS x y z rgba
SIZE 4 4 4 4
TYPE F F F U
COUNT 1 1 1 1
WIDTH 174
HEIGHT 1
VIEWPOINT 0 0 0 1 0 0 0
POINTS 174
DATA ascii
-0.40323812 0.076103605 1.1013225 5134174
-0.39635819 0.075952977 1.1021513 5134176
-0.40469599 0.080575116 1.101211 4871515
-0.40830418 0.057044514 1.1074877 4936281
-0.39763981 0.056753993 1.1087713 5199967
-0.39290467 0.057778612 1.109358 5397348
-0.41765603 0.061894625 1.106126 4673880
-0.40981254 0.063031904 1.1051581 4870232
-0.40063864 0.065102689 1.1070185 5068382
-0.39126137 0.067521222 1.1087352 5068384
-0.38410002 0.070663422 1.1106069 4476504
-0.4198674 0.071076512 1.1046145 4607822
-0.41284671 0.072600767 1.1041411 4673623
-0.40202296 0.074175969 1.1054709 5134174
-0.39208639 0.077241682 1.1067151 4739419
-0.38462695 0.078624368 1.1089311 4081746
-0.42200717 0.079203375 1.1061522 4410445
-0.41376755 0.082050644 1.1041662 4213839
-0.40386543 0.084717542 1.1054003 4345429
-0.39399955 0.08642979 1.1066165 4016211
-0.38616189 0.087784886 1.1087449 3621193
-0.41431472 0.087499991 1.1041785 3884109
-0.40540779 0.090431884 1.1052965 3752784
-0.395275 0.09255521 1.1065507 3621192
-0.38796946 0.093020633 1.1074396 3686459
-0.41514641 0.043222815 1.1169677 4673626
-0.40672898 0.044077747 1.1151352 4870741
-0.397616 0.044857658 1.1164328 5265754
-0.38802159 0.047666177 1.1179011 5397604
-0.38066226 0.052093908 1.1218355 4608350
-0.41752875 0.051886387 1.1128472 4673629
-0.40882182 0.052169293 1.1117201 4870744
-0.40025172 0.05241517 1.1124228 5134174
-0.38876808 0.05695051 1.114532 5397606
-0.38138801 0.059399106 1.1196553 4476760
-0.37641948 0.064636938 1.1225287 4015442
-0.4265399 0.05845052 1.1163868 3883351
-0.42253953 0.05926913 1.1116433 4475995
-0.38915703 0.063532576 1.1139228 5068641
-0.38117361 0.068545356 1.1170269 4082513
-0.37616071 0.070851497 1.1221458 3752531
-0.42565998 0.068806045 1.110195 4079443
-0.38108307 0.07787735 1.1166157 3621705
-0.37656966 0.076464266 1.1202632 3751503
-0.38404393 0.084976934 1.1148493 3490378
-0.4015367 0.027591432 1.1300426 5002588
-0.39842743 0.028242974 1.1304274 5528419
-0.41385764 0.034817547 1.1286588 4739163
-0.40587133 0.033523858 1.1266384 5002333
-0.39657277 0.035159215 1.1277289 5397092
-0.38819784 0.039001793 1.1301628 5332066
-0.38276526 0.04133293 1.1325074 4740695
-0.41542578 0.038498379 1.1232338 4082256
-0.40822479 0.038810097 1.122345 5068120
-0.38630888 0.04396636 1.1270807 5200736
-0.3792685 0.048899934 1.130154 4345175
-0.3730416 0.052202627 1.1332628 4278096
-0.37820053 0.058781214 1.127122 4147028
-0.37391299 0.059243485 1.1317606 3819087
-0.37518409 0.066626027 1.1279448 3687502
-0.39343968 0.017222581 1.141952 5528423
-0.38936311 0.018627068 1.1424645 5397348
-0.40442657 0.0229003 1.1353344 4804702
-0.39509922 0.024639191 1.1359019 5462626
-0.386399 0.02714478 1.1395874 5003105
-0.37937281 0.032256871 1.1414498 4804440
-0.41554451 0.030869571 1.1354498 3817824
-0.40850335 0.028477838 1.1322361 4673622
-0.39291549 0.031744264 1.1341656 5660265
-0.38605276 0.034771718 1.135038 5069150
-0.37808603 0.039337583 1.1380807 4475986
-0.37367105 0.044645183 1.1386904 4014924
-0.37639019 0.046134055 1.1363686 4606547
-0.37137306 0.049676612 1.1375293 3620428
-0.39924985 0.0091047641 1.1481849 4079956
-0.39235818 0.0095172636 1.1467206 5266270
-0.38702908 0.011111973 1.1496897 5002845
-0.40306377 0.014587583 1.1457887 4079963
-0.39489698 0.013623992 1.1447463 5330781
-0.38531917 0.017918976 1.147624 5002331
-0.38313815 0.024473855 1.1463227 5001816
-0.37980604 0.028098272 1.1479862 4540755
-0.37672451 0.035748385 1.1472597 4213074
-0.39267004 -0.00027270801 1.1609329 5265766
-0.39449817 0.0038878508 1.1578939 5068639
-0.38631922 0.0072888918 1.1584508 4214103
-0.40310681 0.0084409937 1.1517391 1580089
-0.38297164 0.014537646 1.1549301 4145996
-0.38140976 0.020765861 1.154537 4212054
-0.39905763 -0.002653962 1.1631492 3618132
-0.39349905 -0.0026110485 1.1638211 5199718
-0.38732117 -0.0001945924 1.1646019 4214875
-0.37853858 -0.059369981 1.1809278 528927
-0.37342635 -0.058981195 1.1815507 1517876
-0.37370411 -0.06902466 1.1934609 4419983
-0.38955218 -0.06539464 1.1895846 1651559
-0.38403895 -0.063488252 1.1871119 1782104
-0.37150976 -0.063452467 1.1865028 4154236
-0.36765116 -0.059122428 1.1908808 3028033
-0.38324177 -0.056084618 1.1924956 2369321
-0.37519148 -0.054540344 1.1898636 2040105
-0.38658953 -0.037224181 1.1883336 4146252
-0.38945541 -0.070298627 1.1995993 5077683
-0.38214594 -0.071418539 1.1991227 4617364
-0.37290999 -0.069868788 1.2002604 4549258
-0.36854172 -0.063474365 1.1981938 6582660
-0.39231336 -0.059231542 1.1953841 7695014
-0.38567689 -0.054013625 1.1969324 2040625
-0.37797368 -0.051153384 1.1972324 2172202
-0.3703821 -0.05463586 1.1980989 2760198
-0.38264936 -0.080790907 1.208329 4683677
-0.37711102 -0.079630353 1.2090145 3831442
-0.39132911 -0.075581692 1.2062045 3299734
-0.38386154 -0.076287724 1.2056832 4683420
-0.3755433 -0.07504686 1.2076581 3960460
-0.37606242 -0.15368013 1.2211698 3829135
-0.36826169 -0.15155317 1.2221425 4223637
-0.36212093 -0.15072507 1.222896 3960467
-0.37876654 -0.14466502 1.2209731 3498881
-0.37062487 -0.14249559 1.2215847 3895695
-0.36331451 -0.13959929 1.2229122 3631246
-0.38057777 -0.13364755 1.2178911 3499128
-0.37337315 -0.13295729 1.2187711 4025235
-0.36523643 -0.13025676 1.2216635 3499655
-0.38165963 -0.12431269 1.2158803 3826560
-0.37516245 -0.12299203 1.2171876 4156303
-0.36760926 -0.12194385 1.2206333 3630985
-0.38372472 -0.11499162 1.2187873 3893387
-0.37719187 -0.1133184 1.2180333 4157333
-0.37039763 -0.11135723 1.2209527 3762828
-0.38404268 -0.10637487 1.2208878 3762325
-0.37858972 -0.10264862 1.2179064 4420507
-0.37279508 -0.10158037 1.2209721 3828877
-0.38798115 -0.093072042 1.2206038 4222878
-0.38018313 -0.093355745 1.2177807 4552347
-0.37443334 -0.092544287 1.2214416 3631755
-0.390623 -0.085601255 1.2147512 3627913
-0.38162544 -0.085489474 1.2137575 4683676
-0.37528196 -0.082812965 1.2175232 3892613
-0.37557459 -0.074848533 1.2143058 3563127
-0.37626979 -0.16371916 1.2264687 3033484
-0.36825976 -0.16302797 1.2298586 2897991
-0.35857677 -0.16018398 1.2305751 3891064
-0.35159656 -0.15793285 1.2331295 2638186
-0.38186586 -0.15561834 1.2244706 666715
-0.37081596 -0.15559781 1.2258053 4813457
-0.358217 -0.14994556 1.2274082 3499654
-0.35171211 -0.14842366 1.231927 3561592
-0.38483089 -0.14459604 1.2242713 6722
-0.36028898 -0.14063455 1.2272922 3694979
-0.35419723 -0.13907894 1.230065 3233144
-0.36087817 -0.13012688 1.2273724 3104639
-0.3567121 -0.12920868 1.2310941 2640231
-0.36353186 -0.12076056 1.2271869 2907007
-0.3598164 -0.12006052 1.2322247 3099492
-0.38782394 -0.11332984 1.2243605 4089741
-0.36591581 -0.11146361 1.2273928 3496061
-0.36251044 -0.10955638 1.2325087 4278874
-0.38722685 -0.10493606 1.2245536 2972810
-0.36878845 -0.10148057 1.2282037 3757171
-0.36529499 -0.10183717 1.2322836 3748927
-0.38728181 -0.099041402 1.2246319 3630740
-0.36954314 -0.09414304 1.2268447 3953004
-0.36822793 -0.16934393 1.2349859 984897
-0.35883379 -0.16340876 1.2362059 4350584
-0.35380009 -0.13782229 1.2378542 4674411
-0.35587668 -0.12952845 1.2400734 6974583
-0.35984075 -0.11902694 1.2397461 3815753
-0.39254799 -0.11494051 1.232833 5799072
-0.36062229 -0.10944048 1.2367678 5064001
-0.35395047 -0.14382835 1.2501737 7039097
-0.35551599 -0.13823551 1.2510725 7565430
-0.35791668 -0.12988582 1.2505672 8223350
-0.35931626 -0.12178382 1.245814 9076613
