# .PCD v0.7 - Point Cloud Data file format
VERSION 0.7
FIELDS x y z rgba
SIZE 4 4 4 4
TYPE F F F U
COUNT 1 1 1 1
WIDTH 174
HEIGHT 1
VIEWPOINT 0 0 0 1 0 0 0
POINTS 174
DATA ascii
-0.34650806 0.099480584 1.0888311 5134174
-0.33985665 0.09860082 1.090571 5134176
-0.34747225 0.10408116 1.0886383 4871515
-0.3542878 0.080988668 1.0937754 4936281
-0.34398338 0.079568274 1.0964704 5199967
-0.33929238 0.080084607 1.0977126 5397348
-0.362822 0.086806677 1.0912949 4673880
-0.35484499 0.087126985 1.0914171 4870232
-0.34584633 0.088204384 1.0945432 5068382
-0.33659214 0.089607909 1.0975633 5068384
-0.32946867 0.091961421 1.1004578 4476504
-0.36385661 0.096186131 1.0897338 4607822
-0.35671809 0.096971884 1.0902454 4673623
-0.34607214 0.097389616 1.0930547 5134174
-0.33613637 0.099383458 1.0956979 4739419
-0.32894588 0.099952154 1.0989289 4081746
-0.36534342 0.10447456 1.0911762 4410445
-0.35666266 0.10646535 1.0903863 4213839
-0.34680027 0.10806632 1.0930049 4345429
-0.33706871 0.10872194 1.0955766 4016211
-0.32949644 0.10922457 1.0987709 3621193
-0.35664636 0.11194155 1.0904634 3884109
-0.3477217 0.11391158 1.09284 3752784
-0.33769029 0.11494762 1.0954957 3621192
-0.33056471 0.11463523 1.0973682 3686459
-0.36373332 0.067853659 1.1018982 4673626
-0.35510194 0.067842841 1.1012337 4870741
-0.34621873 0.067649275 1.1037616 5265754
-0.33667693 0.069420658 1.1065744 5397604
-0.32950756 0.073008552 1.1115716 4608350
-0.36463442 0.076765008 1.0977165 4673629
-0.35587224 0.076147079 1.0977751 4870744
-0.34749767 0.075486004 1.0996271 5134174
-0.33600479 0.078769498 1.1033721 5397606
-0.32917911 0.080373712 1.1094996 4476760
-0.32413849 0.08502958 1.1131455 4015442
-0.37332451 0.084196553 1.1001805 3883351
-0.36865342 0.084645092 1.0960388 4475995
-0.33563221 0.085362546 1.1028835 5068641
-0.32767504 0.089476235 1.1071566 4082513
-0.32319596 0.091186769 1.1129586 3752531
-0.37055615 0.094472103 1.0944275 4079443
-0.3265757 0.098751463 1.1069981 3621705
-0.32276893 0.096832372 1.1111811 3751503
-0.32852709 0.10614159 1.1050311 3490378
-0.35369945 0.050736338 1.11628 5002588
-0.35062128 0.051054243 1.1170949 5528419
-0.36491349 0.059228368 1.1134396 4739163
-0.35690108 0.057128157 1.1124767 5002333
-0.34771937 0.057768162 1.1148459 5397092
-0.33940488 0.060684714 1.1184779 5332066
-0.33413222 0.062407423 1.1215886 4740695
-0.36534426 0.063114136 1.1079483 4082256
-0.35809553 0.062679894 1.1080418 5068120
-0.33661649 0.065458544 1.115804 5200736
-0.32959253 0.06959258 1.1199182 4345175
-0.32354179 0.072189629 1.1239169 4278096
-0.32711726 0.079341203 1.1173085 4147028
-0.32347614 0.07929951 1.1224905 3819087
-0.32345468 0.08681713 1.1187271 3687502
-0.34840122 0.039442819 1.1289012 5528423
-0.34431022 0.040406719 1.1299914 5397348
-0.35774684 0.046314344 1.1210157 4804702
-0.34845501 0.047060188 1.1228732 5462626
-0.34012696 0.048599005 1.1277548 5003105
-0.33293399 0.052925713 1.1306721 4804440
-0.36790341 0.05540248 1.1198405 3817824
-0.36077231 0.052322783 1.117541 4673622
-0.3453404 0.053916574 1.1216264 5660265
-0.33838695 0.05619853 1.1234879 5069150
-0.33048359 0.059870224 1.1276866 4475986
-0.32567328 0.064678982 1.1290175 4014924
-0.32788461 0.066470556 1.1263906 4606547
-0.32273638 0.069454804 1.1283032 3620428
-0.35580471 0.031908464 1.1340904 4079956
-0.34877217 0.031613331 1.1335748 5266270
-0.34376174 0.032607511 1.1372714 5002845
-0.35867631 0.03778727 1.131344 4079963
-0.35058537 0.035985388 1.1313826 5330781
-0.34109971 0.039220825 1.1356272 5002331
-0.33810323 0.045525458 1.1347969 5001816
-0.33467546 0.048761934 1.1369836 4540755
-0.33075783 0.056054909 1.1368713 4213074
-0.35201421 0.02175026 1.1473639 5265766
-0.35297677 0.026113417 1.1442136 5068639
-0.3446452 0.02863257 1.1459489 4214103
-0.36015686 0.031612303 1.1370771 1580089
-0.34012625 0.035530057 1.1430941 4145996
-0.33789682 0.041564446 1.143072 4212054
-0.35885367 0.020026319 1.1486422 3618132
-0.3534632 0.0194792 1.1500546 5199718
-0.34723464 0.02122632 1.1517181 4214875
-0.34685212 -0.038723759 1.1675684 528927
-0.34185949 -0.038879625 1.1688813 1517876
-0.34478065 -0.048972387 1.180388 4419983
-0.35949892 -0.043658901 1.1745141 1651559
-0.35353473 -0.042312715 1.1728524 1782104
-0.34110183 -0.0435826 1.1739308 4154236
-0.33745247 -0.039730161 1.1788951 3028033
-0.3527247 -0.035094474 1.1784804 2369321
-0.34427583 -0.034372322 1.1769921 2040105
-0.35352889 -0.015941411 1.1743866 4146252
-0.3612676 -0.048658647 1.1843234 5077683
-0.35411444 -0.050532565 1.1848035 4617364
-0.3450096 -0.049971659 1.1872089 4549258
-0.33977005 -0.044047058 1.1859099 6582660
-0.36237872 -0.037306275 1.1800451 7695014
-0.35551623 -0.032829966 1.1826015 2040625
-0.34767371 -0.03079588 1.1840045 2172202
-0.34066692 -0.035063904 1.1857932 2760198
-0.35682142 -0.059903849 1.1936183 4683677
-0.35133851 -0.059337582 1.1950699 3831442
-0.36455286 -0.053790525 1.1904815 3299734
-0.35719553 -0.055268925 1.1909491 4683420
-0.34914047 -0.0549285 1.1940528 3960460
-0.35953063 -0.13322219 1.205374 3829135
-0.35175857 -0.13193509 1.2074381 4223637
-0.34572524 -0.13176329 1.2090293 3960467
-0.36124673 -0.1239718 1.2050451 3498881
-0.35308522 -0.1226741 1.2067982 3895695
-0.34576601 -0.12057458 1.2091674 3631246
-0.36148566 -0.11279117 1.2020284 3499128
-0.35443532 -0.1128693 1.2038841 4025235
-0.34653473 -0.11106865 1.2079095 3499655
-0.36132365 -0.10337226 1.200128 3826560
-0.35496411 -0.10275421 1.2023282 4156303
-0.34788278 -0.10254186 1.2067814 3630985
-0.36280107 -0.093919531 1.2029672 3893387
-0.35608986 -0.092931382 1.2031391 4157333
-0.34959146 -0.091725685 1.2069924 3762828
-0.36251915 -0.085341111 1.2052238 3762325
-0.35635909 -0.082173139 1.2030964 4420507
-0.35095689 -0.081752338 1.2069378 3828877
-0.36500132 -0.071696579 1.2047516 4222878
-0.35696197 -0.072763659 1.2029938 4552347
-0.35171118 -0.072600245 1.2074124 3631755
-0.36604443 -0.063924663 1.1987889 3627913
-0.35703152 -0.064744733 1.1990143 4683676
-0.35101929 -0.062789991 1.2036636 3892613
-0.35005552 -0.05480295 1.200639 3563127
-0.36148241 -0.14324337 1.210341 3033484
-0.3539798 -0.14343323 1.2147912 2897991
-0.34424481 -0.14162737 1.2168721 3891064
-0.33748379 -0.1401487 1.220396 2638186
-0.36589667 -0.13457894 1.2078162 666715
-0.35518748 -0.13573098 1.2106214 4813457
-0.3424125 -0.1314479 1.2140428 3499654
-0.33646172 -0.13066675 1.2194306 3561592
-0.36766431 -0.12330518 1.2075007 6722
-0.34348643 -0.12197036 1.213886 3694979
-0.33770177 -0.12109274 1.2174895 3233144
-0.34300351 -0.11146036 1.2141529 3104639
-0.33931074 -0.11102559 1.2184219 2640231
-0.34463558 -0.10186613 1.2138507 2907007
-0.3415882 -0.10161594 1.2193575 3099492
-0.36742887 -0.091900475 1.2079804 4089741
-0.34606215 -0.092373528 1.2139707 3496061
-0.34320751 -0.090891272 1.2195437 4278874
-0.36600849 -0.083618127 1.2084646 2972810
-0.34798247 -0.082154289 1.2146418 3757171
-0.34513155 -0.08292082 1.219143 3748927
-0.36547059 -0.077751398 1.2086843 3630740
-0.34779096 -0.074763224 1.2133802 3953004
-0.35529187 -0.14977518 1.2197146 984897
-0.34559393 -0.14487076 1.2223339 4350584
-0.33824176 -0.11997249 1.2252909 4674411
-0.33974195 -0.11153232 1.2274212 6974583
-0.34252986 -0.10067035 1.2268314 3815753
-0.37340149 -0.093102895 1.215699 5799072
-0.34191456 -0.091021813 1.2240193 5064001
-0.34068024 -0.12606828 1.2373226 7039097
-0.34177339 -0.12035272 1.2381449 7565430
-0.34321654 -0.11179235 1.2375339 8223350
-0.34312052 -0.10353525 1.2328429 9076613
