# .PCD v0.7 - Point Cloud Data file format
VERSION 0.7
FIELDS x y z rgba
SIZE 4 4 4 4
TYPE F F F U
COUNT 1 1 1 1
WIDTH 1129
HEIGHT 1
VIEWPOINT 0 0 0 1 0 0 0
POINTS 1129
DATA ascii
-0.12733094 -0.094549321 1.1185468 3170977
0.15357457 -0.11309455 1.1250803 3631790
0.15448721 -0.11481953 1.1277813 3434923
-0.12676524 -0.084017016 1.1174734 3302823
0.15399393 -0.10164368 1.1251632 3566513
-0.12604335 -0.074050248 1.1160743 3368614
0.15370324 -0.092347555 1.12512 3632560
-0.12505923 -0.066383503 1.117367 3565995
0.1532084 -0.082132667 1.1237544 3895728
-0.12116882 -0.051548745 1.1189309 3697842
0.15156633 -0.072054446 1.1221702 4158132
-0.11893427 -0.043382727 1.1176761 3502262
0.15111862 -0.061325081 1.1232738 4027837
-0.11565234 -0.034068622 1.1170853 3698611
0.14694671 -0.049551595 1.1270896 4619197
0.1526527 -0.053072918 1.1217011 4946612
-0.12138847 -0.027259991 1.1131277 7180220
-0.11377536 -0.024711199 1.1204729 4815032
0.14730538 -0.043083847 1.1263781 5209534
0.1522928 -0.041706625 1.119139 8425655
0.032070283 0.089056246 1.1154892 9474444
-0.067562677 -0.21430586 1.1308079 8300241
-0.085113801 -0.20495521 1.1267167 7642055
-0.077728271 -0.20608878 1.1290219 4815810
-0.071246043 -0.2099656 1.1306933 5210825
-0.093434326 -0.19246711 1.1260725 932767
-0.086745515 -0.19635022 1.1279328 2382238
-0.078399017 -0.19993378 1.130458 2251168
0.10489596 -0.208812 1.1344774 6518691
0.11081814 -0.20818532 1.133171 11319227
-0.094751671 -0.1856112 1.1278558 2447513
-0.089646101 -0.18941364 1.1301304 2513045
0.1131943 -0.20009981 1.1335326 4617903
0.12028401 -0.20060524 1.1307412 10929103
-0.10344706 -0.17398724 1.127162 2971544
-0.097810119 -0.17813021 1.1278626 2774929
0.11588883 -0.19099435 1.1329026 2909086
0.12089626 -0.19039087 1.1306716 3105187
-0.11005889 -0.16033922 1.1254539 2709911
-0.10583415 -0.16567391 1.1279417 2644371
0.1230479 -0.18069233 1.1312548 3368356
-0.11198546 -0.1535701 1.1271763 2775444
-0.107319 -0.15800598 1.1281614 2709910
0.12808922 -0.17113185 1.1322707 3368613
0.13251667 -0.16846395 1.130744 3499683
-0.114617 -0.14480923 1.1267302 2841497
0.13032617 -0.163791 1.13466 3237027
0.13528104 -0.16142151 1.1320801 3302821
-0.1197463 -0.13285986 1.125594 2645144
-0.11643852 -0.13479197 1.1282213 2775964
0.13903283 -0.15170842 1.1329309 3237542
0.14336662 -0.14841363 1.1321487 3106215
-0.1210355 -0.12435138 1.1263807 2907291
0.14102507 -0.14226402 1.1333821 3499683
0.14428353 -0.14050499 1.1319138 3303338
-0.12138173 -0.11437473 1.1272379 3039134
0.14645088 -0.13213694 1.1321616 3499947
-0.12551859 -0.099786825 1.12463 3236770
-0.1237203 -0.10418307 1.1280385 3236770
0.14886531 -0.1217638 1.1325361 3500458
-0.12508951 -0.093321189 1.1245867 3237027
-0.12347804 -0.093763836 1.1286261 3302821
0.15191476 -0.11139084 1.1329852 3632048
-0.12444592 -0.083622731 1.124522 3302824
-0.12286805 -0.084571883 1.1285646 3302569
0.15078197 -0.10240822 1.132784 3632047
-0.12427619 -0.074542306 1.124452 3434408
-0.12143523 -0.072331093 1.1284962 3434665
0.14813662 -0.091164619 1.1322721 4026292
-0.12315871 -0.064225823 1.1243924 3631531
-0.12146866 -0.063484445 1.1284238 3631531
0.14880112 -0.083222173 1.1308479 4157366
-0.12272963 -0.057760194 1.1243491 4025255
-0.1192968 -0.052838393 1.1266695 3632304
0.14905593 -0.071426831 1.1303133 4289211
-0.11523683 -0.044099435 1.1261145 3568048
0.14660604 -0.060468558 1.1308384 4094399
0.14861259 -0.064989328 1.132252 4224702
-0.11349396 -0.038168028 1.1243892 3764911
-0.10982995 -0.034069814 1.1269355 3895729
0.14459616 -0.051890604 1.1315136 4487616
-0.11357105 -0.019997917 1.1272409 6458567
-0.10888408 -0.024093218 1.1267749 3895996
0.14527957 -0.040881556 1.1303843 5735616
0.15235014 -0.038092386 1.1301138 9477559
-0.11297694 -0.017341904 1.1282324 6852289
-0.1097334 -0.017556667 1.128304 5933254
0.063400038 0.072784431 1.127299 9474701
-0.031837925 -0.22706497 1.143684 7248329
0.00084219594 -0.2308293 1.1436181 5801654
0.0089321015 -0.23023665 1.143254 5210039
0.021625983 -0.23170263 1.144873 6328255
0.029274043 -0.23220903 1.1450418 7379645
0.040814895 -0.23285127 1.1452956 8430007
0.048950683 -0.2316393 1.1414598 8625323
-0.068942316 -0.21651827 1.1347972 9678537
-0.058283541 -0.21718222 1.1415602 4422071
-0.049044576 -0.21846187 1.1432437 2778029
-0.039425187 -0.2209177 1.1434708 2513574
-0.03200873 -0.22412667 1.1436565 2315684
-0.002193219 -0.2268326 1.1443205 2120102
0.0098251626 -0.22762841 1.1445858 2185635
0.023008645 -0.22740373 1.1448679 2186146
0.028399024 -0.22885823 1.1449958 2316696
0.043840192 -0.22768542 1.1453189 4486314
0.051451687 -0.22780702 1.1434832 5997746
0.062751718 -0.22558346 1.1445659 6063288
0.071473785 -0.2246857 1.1458896 6589614
0.079544358 -0.22543961 1.1460695 8757678
-0.073575035 -0.20422179 1.1345978 1855898
-0.067105465 -0.20714271 1.1379997 2249885
-0.059680294 -0.20992252 1.1422179 2381985
-0.051726695 -0.2125767 1.1431382 3039902
0.06583444 -0.21871448 1.1457198 2841504
0.071879894 -0.21856597 1.1458488 3302564
0.081601389 -0.21695814 1.1447114 4420011
0.091530502 -0.2168099 1.1405419 6984117
0.10117869 -0.21470293 1.1384463 6254993
-0.084015667 -0.1929823 1.1350819 2710418
-0.076601118 -0.19672042 1.1388538 2775447
-0.070101999 -0.19936606 1.1418351 2906776
0.084546179 -0.20923676 1.1456457 3171492
0.093188018 -0.20845097 1.1430247 3237285
0.10167654 -0.20782436 1.1389728 3629215
-0.086522289 -0.18582559 1.138971 2775191
-0.078690901 -0.18982658 1.1417061 2906012
0.09571749 -0.19938293 1.1445394 3040421
0.10282923 -0.1981898 1.141296 3105703
0.10876881 -0.19885585 1.1384813 2777257
-0.10078103 -0.17081104 1.1337409 2710677
-0.094363816 -0.1751056 1.1374443 2709909
-0.088453121 -0.1790968 1.1400752 2709910
0.1044561 -0.18987608 1.1448436 3368100
0.11223676 -0.18858162 1.1406064 3302561
-0.10164005 -0.16417484 1.1367805 2710421
-0.097143233 -0.16730361 1.1409926 2644886
0.1069915 -0.18225491 1.1463104 3040936
0.11526549 -0.17971101 1.1443805 3237031
0.12190995 -0.17726311 1.1415899 3368615
-0.11033453 -0.15055889 1.1333709 2776209
-0.10531458 -0.15535069 1.1382691 2841240
0.11781035 -0.17136097 1.146455 3237287
0.12450968 -0.16960758 1.1414409 3302822
-0.11098985 -0.14381835 1.1378366 2710683
-0.10658367 -0.14739096 1.1407613 2841499
0.12726946 -0.16133767 1.1439885 3237541
0.13249165 -0.15898806 1.1402692 3237798
-0.1125602 -0.13513602 1.138342 2907293
0.1294751 -0.1526812 1.1465548 3237797
0.1344737 -0.15049675 1.1416434 3303334
-0.11799252 -0.12308028 1.1341262 2907805
-0.11603764 -0.12480905 1.1402411 2907805
0.13687485 -0.14125514 1.1441764 3434407
-0.11790694 -0.11374827 1.1355766 3039392
-0.11548759 -0.11505782 1.140974 3039391
0.13945051 -0.13183303 1.1440284 3500202
0.14390129 -0.12924367 1.1386733 3631274
-0.12048227 -0.10437774 1.1373123 3170979
0.14203194 -0.12170003 1.1461294 3631791
0.14557832 -0.12140334 1.140424 3566510
-0.12022555 -0.094014369 1.1384151 3105957
0.14197379 -0.11056608 1.1448153 3632305
0.14725672 -0.11205518 1.1389395 3501227
-0.11989306 -0.084004082 1.1360548 3237546
0.14213696 -0.10149183 1.1438662 3698099
0.14682692 -0.10221662 1.1389172 3698094
-0.11863104 -0.074316621 1.1362414 3434923
0.14397271 -0.092315659 1.1443769 3895479
0.1462058 -0.094517022 1.1384412 3895477
-0.11757384 -0.063902408 1.136799 3566256
0.14495066 -0.081044309 1.1456403 4027579
0.14754848 -0.080661468 1.1423588 4157882
-0.1159752 -0.055084024 1.1360054 3567024
0.14355834 -0.071396962 1.145022 4159422
0.14796293 -0.071865261 1.1406959 4289724
-0.11296742 -0.045439482 1.1337953 3567791
-0.10985821 -0.043671545 1.1391827 3764403
0.14254941 -0.06128075 1.1434277 4356797
-0.10739805 -0.034920216 1.1330678 3830196
0.14054774 -0.05155082 1.1423721 4619718
-0.10525708 -0.02412115 1.1353647 3896507
0.13724369 -0.03941014 1.1426915 4817095
0.14179155 -0.040311307 1.1395737 4948420
-0.11226313 -0.014456332 1.1362265 6916535
-0.10482049 -0.015482627 1.1360874 5210049
0.13677692 -0.032959945 1.1447408 5013440
0.14130488 -0.032857314 1.1425035 5998788
0.041689035 0.047545008 1.1378961 5859448
0.049912069 0.047065683 1.1362194 6122362
0.055402495 0.046851017 1.1393402 6319482
0.066485658 0.047413327 1.1435754 5330522
0.042596851 0.051931597 1.1363559 5792108
0.050471079 0.052253671 1.1359893 5527648
0.055691566 0.051207058 1.1393111 5067354
-0.026170418 -0.22739264 1.1468095 4354997
-0.018939774 -0.22888777 1.1489779 4684224
-0.0090150172 -0.22925973 1.1477275 4289976
0.0021016635 -0.22769254 1.1474208 2054307
0.012471896 -0.22892943 1.1476541 2777510
0.01787634 -0.23038775 1.1477823 4026798
0.034307785 -0.23147574 1.148145 5604271
0.038250856 -0.23008612 1.1482186 4881326
-0.04442016 -0.21580833 1.1463224 3039902
-0.036561232 -0.21724519 1.1470035 2710943
-0.028299566 -0.21968669 1.1500063 2645152
-0.018706806 -0.22316378 1.1536043 2514339
-0.0087710684 -0.22372139 1.1532893 2514851
0.0013220701 -0.22188886 1.1519581 2842787
0.011259329 -0.22213691 1.1499735 2908579
0.020923199 -0.22237772 1.1506727 3039651
0.031022549 -0.22374362 1.1520126 2908578
0.040413432 -0.22349331 1.1519628 2778020
0.050581392 -0.22251697 1.1498518 2646433
0.059987415 -0.22583959 1.1486523 5012145
0.071404606 -0.22787943 1.1489147 8955830
-0.056868915 -0.20654459 1.146265 2841242
-0.04723084 -0.20924638 1.1485426 2775960
-0.038369857 -0.21109821 1.1506823 2841500
-0.029208831 -0.21385674 1.1546364 2907551
0.0024601938 -0.21521494 1.1553293 3105184
0.01167652 -0.21545583 1.1555299 3170722
0.0216038 -0.21611315 1.155749 3302053
0.031751521 -0.21623102 1.1559684 3170723
0.042291328 -0.21600547 1.1561936 3105188
0.051690508 -0.21584404 1.15468 3170467
0.061371878 -0.21630096 1.1510054 3236258
0.071763158 -0.21355237 1.1492509 3171236
-0.072688006 -0.19412805 1.1455379 2906776
-0.066345669 -0.19678155 1.1468391 2907033
-0.05806062 -0.1982927 1.1507213 2841497
-0.049164224 -0.20293179 1.1541179 2775704
0.053001158 -0.2104353 1.1563791 3105443
0.06182541 -0.21101959 1.1565739 3105443
0.072867714 -0.20803326 1.1555239 3105956
0.081480481 -0.20575002 1.1521531 3105956
-0.082915209 -0.18244609 1.1452228 2644884
-0.076163732 -0.18644923 1.1484015 2775705
-0.068060227 -0.18984677 1.151271 2841497
0.076896951 -0.20093644 1.1568166 3172006
0.084715717 -0.19907343 1.1559696 3040421
0.090774246 -0.1971363 1.1535838 2974628
-0.091096967 -0.17310056 1.1449708 2645144
-0.084653027 -0.17527893 1.1481869 2710425
-0.0795753 -0.17833245 1.149834 2776216
0.094800271 -0.18874259 1.1538525 3171493
0.099982925 -0.18687133 1.1507981 3237026
-0.093653344 -0.16487905 1.147438 2710424
-0.087530665 -0.16747223 1.1515492 2710937
0.098069347 -0.18239236 1.1571223 3302823
0.10472401 -0.1787599 1.1540774 3172005
0.11073212 -0.17601582 1.1533421 3172006
-0.10149702 -0.15297019 1.1445836 2841498
-0.097385526 -0.15573557 1.149619 2907290
0.10762574 -0.17194401 1.1572433 3303592
0.1141117 -0.16899282 1.1560254 3237544
0.12067982 -0.16511363 1.1494669 3303337
-0.10273486 -0.14440086 1.1462022 2973342
-0.098497003 -0.14776874 1.1526082 3038879
0.11823446 -0.1614807 1.15672 3237544
0.12288309 -0.15878284 1.1522638 3303336
-0.10996108 -0.13234892 1.1452343 2973342
-0.10421664 -0.13587071 1.1498878 2973600
0.1268627 -0.14989291 1.1534777 3368872
-0.11104411 -0.1243881 1.1464998 3039392
-0.10580434 -0.12551844 1.1522703 3236259
0.12874791 -0.14054535 1.155193 3500460
0.13345186 -0.13844745 1.1495256 3434923
-0.11151464 -0.11468945 1.146947 3170978
0.13035876 -0.13169736 1.1560729 3500719
0.13527946 -0.12953956 1.152827 3500718
-0.11726104 -0.10313867 1.14384 3237029
-0.11367743 -0.10470931 1.1499314 3237286
0.13614328 -0.12070202 1.1555467 3697329
-0.11667936 -0.094373383 1.1437814 3237543
-0.11425915 -0.09404733 1.1513329 3172263
0.13797282 -0.11169533 1.1550076 3697843
-0.11640793 -0.08471328 1.1467097 3303340
-0.1143744 -0.083739802 1.1517469 3303852
0.13843066 -0.10125452 1.1553329 3764149
-0.11575998 -0.074992523 1.143644 3500716
-0.11313073 -0.073743626 1.1516926 3501229
0.14208679 -0.091046728 1.1538999 3764661
-0.11486162 -0.066981852 1.1435983 3566512
-0.11156543 -0.063741453 1.1480079 3632306
0.13979048 -0.080664679 1.1536654 3896764
-0.1103281 -0.054181751 1.147957 3698357
0.13443761 -0.070233285 1.1556622 4291265
0.13830368 -0.071697518 1.150232 4225217
-0.10811666 -0.045303233 1.1475689 3764408
0.13586847 -0.060708497 1.1549488 4554434
0.13861425 -0.060655527 1.149006 4488640
-0.104476 -0.034803391 1.1483624 3895997
-0.10022189 -0.031856947 1.1516309 4027323
0.13621426 -0.049916811 1.1538686 4817354
-0.10223067 -0.025420584 1.1448671 3962044
-0.098310374 -0.024433084 1.1508117 4093118
0.12766139 -0.036973011 1.1565801 5014224
0.1329474 -0.040087912 1.1527182 4751563
-0.10041725 -0.01511547 1.1434888 4290235
-0.095636442 -0.015273251 1.1481276 4158908
-0.089393251 -0.013366707 1.1517142 4028609
0.12650584 -0.029854693 1.1547194 4817874
0.13330507 -0.030054264 1.1496438 5145287
-0.092771977 -0.008814767 1.146003 4487616
-0.087320127 -0.0064783022 1.1503693 4356800
0.1185066 -0.016784482 1.1542188 5276623
0.12471334 -0.020238765 1.1506652 5604813
0.1340441 -0.022085913 1.1494839 6720449
-0.084789097 0.00036450475 1.1517019 5671109
0.11698955 -0.011096984 1.1555688 5802961
0.12337891 -0.012318008 1.15162 6787017
0.042127848 0.0096906126 1.1543596 12972031
-0.012291922 0.023215406 1.1510774 5869264
0.01974676 0.017451853 1.1538147 7515376
0.027198453 0.016589053 1.1539822 8764660
0.036753282 0.015513167 1.1541966 10146554
0.043303128 0.014045231 1.1543496 10870005
-0.069200508 0.035273544 1.1437525 8028800
-0.064064272 0.035300262 1.1438628 7305855
-0.0078794258 0.024082892 1.1531659 5671370
-0.0045703342 0.023863785 1.153239 5869265
0.018593311 0.022330038 1.1537503 6988787
0.023005437 0.022037886 1.1538477 7185904
0.10962754 0.025167182 1.1556878 6314850
-0.062515892 0.040211014 1.1438563 8028802
0.10677335 0.028902136 1.155596 6117979
0.083741315 0.040920131 1.1470004 5593178
0.085932173 0.040775068 1.1470487 5658970
-0.024029378 -0.21714512 1.1587757 2973083
-0.018568691 -0.21861862 1.1589053 2973595
-0.0091483844 -0.21880668 1.1597764 2973598
-0.043217678 -0.20475531 1.1582619 2842012
-0.036945231 -0.20656054 1.1584116 2776219
-0.027823627 -0.2096402 1.1601573 2907806
-0.018378321 -0.21163699 1.1620114 2907807
-0.0078851031 -0.21287236 1.1624229 2973599
0.0011862898 -0.21114641 1.1599369 3039136
0.011955235 -0.21086273 1.1608334 3170723
0.021932004 -0.21140814 1.1603858 3236770
0.031752229 -0.21160109 1.159932 3170979
0.040791288 -0.21198577 1.1601298 3170980
0.047542471 -0.21076488 1.1602653 3171236
-0.05369826 -0.1951659 1.1579585 2842012
-0.047186695 -0.19785787 1.1595755 2842011
-0.037766941 -0.2007387 1.1608089 2842012
-0.029628009 -0.20271997 1.1625391 2907805
0.016648704 -0.2071788 1.163572 3302309
0.022747558 -0.20643105 1.162554 3302308
0.0314175 -0.20689279 1.161387 3171236
0.042155258 -0.20818433 1.1601284 3171236
0.052810717 -0.20750225 1.1620194 3105443
0.062751293 -0.20623793 1.1615564 3171492
0.069430985 -0.20480135 1.1606883 3040420
-0.073993385 -0.18270281 1.1574203 2841497
-0.0654319 -0.1860213 1.1581651 2907291
-0.057218399 -0.18921265 1.1597172 2907549
-0.050683688 -0.19081916 1.1619891 2907551
0.066253662 -0.19930586 1.1645763 3040420
0.073416218 -0.19794731 1.1628244 3106213
0.081436045 -0.19588542 1.1608746 3106214
-0.075106844 -0.17611486 1.1593434 2907290
-0.068758644 -0.17941082 1.1610072 2973340
0.077949725 -0.19115435 1.1647621 3302823
0.084190369 -0.18919349 1.16248 3237030
0.090537325 -0.18619838 1.1627703 3237031
-0.091487125 -0.16152975 1.1568718 2841497
-0.083352067 -0.16555214 1.1576132 2842012
-0.07744804 -0.16816762 1.1602287 2907547
0.096237451 -0.17888027 1.1619787 3368361
0.10154472 -0.17597905 1.1611462 3237285
-0.092571072 -0.15552771 1.1567998 2973085
-0.085880429 -0.15617773 1.1596867 3039135
0.099034764 -0.1719211 1.1610593 3368615
0.10574847 -0.16902317 1.1619078 3237799
0.11054388 -0.1660116 1.1612592 3303337
-0.099092849 -0.14212337 1.1565506 2973857
-0.093944155 -0.14599158 1.1582489 3039137
-0.088136226 -0.14724262 1.1608292 3104930
0.10820199 -0.16166079 1.1631739 3172264
0.11463001 -0.15919848 1.1619587 3238059
-0.099759802 -0.13385236 1.1574695 3039650
-0.096090972 -0.13767835 1.1605803 3105700
0.11847415 -0.14967826 1.1634519 3369132
0.12271418 -0.15013851 1.1613926 3434410
-0.10195781 -0.12512028 1.1580658 3171236
0.1208766 -0.14169043 1.1644852 3500719
0.12441915 -0.13962388 1.1633445 3435183
-0.10825104 -0.11260681 1.156114 3302823
-0.10379952 -0.11486765 1.1588956 3171495
0.1258518 -0.12960052 1.1631122 3566514
-0.10945316 -0.10386337 1.1574721 3368873
-0.10589816 -0.1052662 1.1593059 3368875
0.12919158 -0.12061532 1.1620928 3697588
-0.10978084 -0.094747581 1.1586035 3303850
0.13133453 -0.11111904 1.1646912 3763892
0.13467103 -0.1106784 1.16133 3698099
-0.11042257 -0.084484354 1.1574396 3435181
-0.10466524 -0.085339986 1.1599711 3435438
0.13300988 -0.1010774 1.1652174 3829942
0.13594763 -0.10074098 1.16242 3764149
-0.10875706 -0.074897528 1.1577978 3501229
0.1338945 -0.087747015 1.1651284 3896505
0.13813595 -0.090931289 1.163063 3830455
-0.10749737 -0.065101475 1.1572838 3632563
-0.10311715 -0.062011823 1.1598153 3567542
0.13207027 -0.080469251 1.1624579 4027837
0.13708365 -0.084374249 1.1611686 3896505
-0.10606974 -0.055116855 1.1570284 3829940
-0.10267484 -0.055346627 1.1597707 3699127
0.13118221 -0.070767596 1.1635985 4291009
-0.10496918 -0.045030061 1.1564368 3895737
-0.10131353 -0.04443869 1.1597116 4027576
0.13215676 -0.060775779 1.1628716 4422849
-0.10332879 -0.038433515 1.1556184 4158911
-0.098649986 -0.035022691 1.1576921 4093372
0.1327567 -0.0510532 1.1623056 4817355
-0.094278254 -0.025895663 1.1572505 4093630
-0.089356959 -0.022756062 1.1597933 4094397
0.126018 -0.039830919 1.1627918 5080014
0.1303571 -0.043343462 1.160691 4883149
-0.091626994 -0.018452331 1.1557084 4028348
-0.086994998 -0.016186006 1.1572902 4028864
0.12218473 -0.029915355 1.1621844 4949202
-0.082812488 -0.0068471357 1.1576228 4029123
-0.078502849 -0.0048789904 1.1598819 3963586
0.11674829 -0.019663088 1.1628731 5146069
0.11994758 -0.024307385 1.1603124 5080276
-0.081449941 0.00088852644 1.1557708 5342665
-0.074288502 0.0025949702 1.1599121 4882633
-0.010732994 0.0021630824 1.1612844 6070261
-0.0040692044 0.0017218515 1.1614314 6528744
0.0025945837 0.0012806132 1.1615785 8827627
0.018143423 0.00025106221 1.1619217 10340848
0.026827686 -0.00096152723 1.1621187 8895736
0.034270179 -0.0021556392 1.1622887 6266608
0.10855525 -0.0063000172 1.1629218 5475287
0.11282937 -0.010119736 1.1613777 5475028
-0.070383832 0.0083271191 1.1579492 5999306
-0.063665576 0.0089942142 1.1580886 5540557
-0.054882627 0.011750348 1.1575885 5803727
-0.042137507 0.012672588 1.1605228 4950220
-0.033270836 0.0109585 1.1607276 5016280
-0.023600399 0.0097030699 1.1605461 5411294
-0.013537797 0.0090109035 1.1589279 5806569
-0.0036074398 0.0083771646 1.1607873 7120874
0.0059948377 0.0084937811 1.1615933 12379901
0.016583856 0.0072503462 1.1593045 13891069
0.026374782 0.0063583702 1.1588488 12969723
0.036302764 0.0059444681 1.1599504 9946095
0.046326596 0.0050513595 1.1605763 10013177
0.056169584 0.0062826723 1.1605374 7449069
0.062886506 0.0077020749 1.162825 5411552
0.10594117 -0.0022394732 1.1613321 6526426
-0.039835416 0.017479032 1.1605334 6264275
-0.032151815 0.017758884 1.158196 5803990
-0.022523347 0.017742753 1.1569031 5345755
-0.012456619 0.018340744 1.1571151 5412839
-0.0028605992 0.018303074 1.1578221 5676266
0.0060437368 0.01680591 1.1603838 7253489
0.015880767 0.015960254 1.1587449 8436213
0.025710324 0.013066448 1.1579798 12051453
0.040392995 0.016541965 1.1582679 10082302
0.048165623 0.015286028 1.1584454 10607102
0.056574274 0.013882078 1.1586379 7515119
0.063526757 0.012815587 1.1601299 6068200
-0.0002658926 0.023681857 1.1573343 6001365
0.0041614305 0.023388706 1.157432 6396124
0.11677613 0.021714076 1.1598709 6447199
-0.014752758 -0.20802209 1.1669036 3039391
-0.0072219064 -0.20793733 1.1685655 3039135
0.0041925814 -0.20927654 1.1673218 3104930
-0.042988274 -0.19495688 1.1661896 2776478
-0.036729213 -0.19625561 1.1683354 2842271
-0.027005427 -0.19852793 1.1707456 2907807
-0.017934434 -0.20098853 1.1714749 2908063
-0.0080195749 -0.20248929 1.1728053 2973600
0.0023520011 -0.20219453 1.1725595 3105187
0.012299791 -0.20250742 1.1718564 3236773
0.022085218 -0.20181757 1.1713809 3237029
0.032999638 -0.20262563 1.1716892 3171237
0.042615041 -0.20422947 1.1696087 3171236
0.052228685 -0.20330688 1.1692312 3105444
0.061174106 -0.20241368 1.1684933 3171493
-0.054634888 -0.18527462 1.1690611 2841758
-0.046724353 -0.18810552 1.1700546 2907551
-0.037969235 -0.18977541 1.1730809 2842271
-0.027412709 -0.19165787 1.1745003 2908064
-0.020754993 -0.19322591 1.1746565 2973857
0.00056362431 -0.19463749 1.175127 3105444
0.013470861 -0.19449016 1.1754038 3237030
0.023486933 -0.19557542 1.1748281 3302823
0.033180106 -0.19543493 1.1749126 3171495
0.042623296 -0.19465089 1.1746413 3105703
0.0522976 -0.19555205 1.1746482 3105703
0.062155288 -0.19571812 1.1729612 3105702
0.070695408 -0.19379231 1.1703432 3105958
-0.065344185 -0.17686093 1.1672088 2973598
-0.057575453 -0.17907098 1.1717482 2907551
-0.047873639 -0.18156727 1.1739779 2908065
0.064412571 -0.18741977 1.1764436 3237288
0.073311917 -0.18731008 1.1741892 3302823
0.082154877 -0.18586823 1.171383 3237287
-0.074006364 -0.16498619 1.1681364 3105183
-0.066854641 -0.16881961 1.1715828 2974112
-0.058760036 -0.17154704 1.1736622 2842786
0.075195715 -0.18064222 1.1766208 3171750
0.084072798 -0.1776209 1.1754538 3172008
0.092329577 -0.1764372 1.1712875 3303081
-0.081423819 -0.15480581 1.1657029 3104930
-0.075494826 -0.15748461 1.171854 3170978
0.087079383 -0.16944855 1.1767859 3303337
0.094988115 -0.16846409 1.1746976 3368873
0.10206896 -0.16764495 1.1716381 3237543
-0.090430528 -0.1413801 1.1674006 3040164
-0.083996415 -0.14556377 1.1686963 3105701
-0.07801491 -0.15035824 1.1730757 3302822
0.097106226 -0.159549 1.1769216 3303597
0.10474661 -0.15765126 1.1727059 3238059
0.11204103 -0.1550802 1.1712054 3303852
-0.092470877 -0.13488904 1.1684155 3106213
-0.084950186 -0.13740589 1.1728213 3172007
0.10615547 -0.14862727 1.1768279 3369387
0.11417272 -0.14894357 1.173202 3435181
-0.098876737 -0.12422113 1.1657459 3237030
-0.092457123 -0.12529251 1.1702273 3237800
-0.086373799 -0.12913942 1.1727235 3303594
0.10836633 -0.14271027 1.1770276 3500972
0.11710896 -0.13902304 1.1739351 3500976
0.12207607 -0.13647345 1.16927 3500977
-0.099438734 -0.11489441 1.1674364 3237545
-0.094982758 -0.11683173 1.1715492 3303852
0.11945299 -0.12961738 1.1771601 3566772
0.12283167 -0.13019931 1.1732365 3566515
-0.1013051 -0.105039 1.1674552 3369389
0.12093914 -0.12016141 1.1771154 3763639
0.12446196 -0.11948959 1.1722957 3763639
-0.10711607 -0.090799384 1.1652974 3435181
-0.10207039 -0.094807453 1.1686776 3435438
0.12231442 -0.10914151 1.1770557 3895737
0.1274066 -0.10939295 1.1719896 3764149
-0.10621107 -0.084361441 1.1663316 3435438
-0.10098167 -0.085313402 1.1705146 3501231
0.12268679 -0.10353016 1.1770182 3961530
0.12842791 -0.099955648 1.171935 3961528
0.13588336 -0.097083375 1.169248 3895735
-0.10533065 -0.075143963 1.166876 3501489
-0.10112034 -0.075180903 1.1698501 3501490
0.1238784 -0.085573867 1.1768982 4159679
0.12936792 -0.090655528 1.1723291 3962041
0.1360313 -0.094854049 1.1692331 3895735
-0.10529093 -0.067795932 1.165817 3501747
-0.10034006 -0.064908862 1.1685675 3567541
0.1235524 -0.079164818 1.1768392 4225473
0.12728995 -0.079942331 1.1729249 4159424
-0.097875051 -0.054905258 1.1674726 3764919
0.12389059 -0.070294857 1.1767746 4422597
0.12795796 -0.069876119 1.1728576 4357059
-0.096732832 -0.045188256 1.1672469 3896505
-0.092082947 -0.045348614 1.171921 3962298
0.1244693 -0.059687395 1.1767011 4685767
0.12862596 -0.059809919 1.1727904 4422851
-0.094631493 -0.036193773 1.1653901 4027836
-0.089626983 -0.034721404 1.1707965 4028094
0.12334588 -0.049010422 1.174472 4948684
0.12921019 -0.051331613 1.1697334 4751818
-0.092367843 -0.028230876 1.1637739 4093632
-0.0867071 -0.025109328 1.1697183 4094399
0.11725725 -0.038168795 1.1763712 5080784
0.12159234 -0.039557394 1.1716745 5211343
-0.082875498 -0.016911991 1.1682513 4094402
-0.07621675 -0.014264755 1.1710104 4226244
-0.069652103 -0.013017856 1.1721419 4620744
-0.015720077 -0.015461706 1.1733232 5412064
0.0067205699 -0.016947582 1.1738185 6463211
0.014518707 -0.021309689 1.1740218 6397929
0.024225201 -0.021310255 1.1742309 6397929
0.033564229 -0.020013243 1.1744215 6003432
0.11492868 -0.028732114 1.1737438 5081042
0.12003992 -0.032219157 1.1683807 5081041
-0.074232295 -0.0066014975 1.1658562 4160963
-0.066226617 -0.0061580464 1.1713027 4752075
-0.051029298 -0.0041061491 1.1724707 4949201
-0.044334356 -0.0051130429 1.172623 5016022
-0.034835957 -0.0068685338 1.1721749 5213659
-0.025076807 -0.0084246024 1.1718335 5411552
-0.01531563 -0.009851709 1.1724862 5740773
-0.0052494137 -0.010519013 1.1735086 6003172
0.0048565548 -0.011187792 1.1733315 6331366
0.014988004 -0.011850417 1.1709543 6989552
0.025056694 -0.012518629 1.1715767 6792432
0.035133183 -0.013182633 1.171149 5937640
0.043612819 -0.01281219 1.1735792 5806054
0.054367252 -0.012212075 1.1748062 5674725
0.06117392 -0.01153557 1.1749474 5674983
0.10672917 -0.01708816 1.1759734 5146841
0.11271925 -0.019589499 1.1704069 5080789
-0.070236884 0.0016515553 1.1640081 4554184
-0.066808209 0.0022727922 1.1670778 4751049
-0.051638994 0.0015568659 1.170411 4818129
-0.044196822 0.0010610297 1.1697751 5015507
-0.034605294 0.00041696429 1.166586 5147609
-0.024493538 -0.00025679171 1.1655089 5346018
-0.014957617 -0.0012538508 1.1683341 5937898
-0.0045878785 -0.0026870593 1.1687914 6462952
0.0059119016 -0.0026388839 1.168128 8303605
0.015278355 -0.0033690929 1.1673195 8501495
0.025064755 -0.0050026402 1.1667302 7252467
0.036364321 -0.0052013025 1.1678145 6069484
0.045544103 -0.0047133937 1.1688696 6135528
0.055539865 -0.0057391226 1.1721901 5741031
0.064885527 -0.0061510429 1.1739833 5543655
0.074406132 -0.0054751039 1.1751832 5477092
0.084534734 -0.0048162416 1.175396 5739747
0.095863171 -0.0058168322 1.1756481 5280481
0.10496701 -0.0090752691 1.1721772 5015513
0.11036187 -0.011424266 1.1700041 4949463
-0.063106477 0.0078968108 1.1641111 4818122
-0.053629961 0.008264482 1.1643122 5147606
-0.044912841 0.0084336624 1.1644986 4818639
-0.036360111 0.0061258227 1.1647015 5344472
0.0082541443 0.003731519 1.1656817 12971007
0.012674887 0.0028790161 1.1657839 12905215
0.037192382 0.0012556165 1.166325 5807584
0.050565563 0.00037012249 1.1666201 6004710
0.056678738 0.00092497468 1.1667473 5807083
0.065567434 0.0028320178 1.1690571 5477863
0.073967554 0.0018563718 1.17178 5542628
0.085481353 -0.0018730536 1.1753925 5673698
0.096186742 -0.00062886626 1.1741126 5804766
0.10182942 -0.0030242577 1.1677518 5147865
0.06913618 0.010336131 1.1669393 5412324
-0.014325063 -0.19655123 1.1788229 3039650
-0.0079344353 -0.19762067 1.1789693 3039650
-0.034066953 -0.18732694 1.1783229 2842271
-0.027311958 -0.18777423 1.178472 2973857
-0.017111171 -0.18953504 1.1799694 2973857
-0.0075259199 -0.19191793 1.1814587 3039395
0.0032523917 -0.19069782 1.1809322 3171237
0.012645499 -0.18990321 1.1804168 3237030
0.022992488 -0.19003353 1.1811125 3302569
0.03130646 -0.19072689 1.181092 3237546
-0.052994717 -0.17557135 1.17782 2908065
-0.0454996 -0.17703708 1.1779933 2973857
-0.036976866 -0.1793624 1.1791959 2973857
-0.027403947 -0.18189406 1.1805406 2973858
-0.019226782 -0.18325385 1.1826105 3105444
0.012402931 -0.18534818 1.1833087 3237030
0.024175776 -0.18461458 1.1835563 3302825
0.033122629 -0.18475293 1.1834424 3171754
0.04295826 -0.18593493 1.181971 3171752
0.05331761 -0.18620041 1.1816078 3171753
0.061950278 -0.18365023 1.1813612 3237546
0.070331641 -0.1817984 1.1805265 3303592
-0.063519523 -0.16539545 1.1775107 2908579
-0.055532347 -0.16808566 1.1797051 2908579
-0.045838349 -0.17019463 1.1808403 3105444
-0.037348855 -0.17252129 1.1821332 3105443
0.057058446 -0.17922631 1.1842208 3303339
0.065251686 -0.17749932 1.1830496 3303082
0.073812887 -0.17596707 1.1811258 3237545
0.079936117 -0.1733862 1.180665 3303850
-0.071778916 -0.15353839 1.1772368 3302822
-0.06551598 -0.15825297 1.1796604 3040165
-0.058693875 -0.16248322 1.1815921 3040167
0.068954609 -0.17093532 1.1844097 3303598
0.075287439 -0.1673571 1.1835756 3238061
0.08400993 -0.16588071 1.1818033 3303596
0.091867 -0.16399702 1.1808459 3369131
-0.080838665 -0.14238235 1.1769512 3171751
-0.074699566 -0.14642043 1.1785282 3368615
-0.068110779 -0.15051132 1.1812922 3171751
0.094080426 -0.15754408 1.1823416 3369134
-0.08234182 -0.13521394 1.1768607 3369130
-0.076432079 -0.13754953 1.1800076 3434922
0.095810287 -0.14796178 1.1838491 3435183
-0.083522312 -0.12650961 1.1780983 3434923
0.099022388 -0.14106303 1.1840148 3501232
0.10598716 -0.13838901 1.1835312 3435694
0.11287434 -0.13711256 1.1810802 3501232
-0.090980001 -0.11485004 1.1775097 3369646
-0.085559756 -0.11896007 1.1793269 3435182
0.11028634 -0.12941349 1.1849631 3567282
0.11446422 -0.12916891 1.1828687 3567027
-0.098488189 -0.10162808 1.1762406 3501231
-0.094233781 -0.10583063 1.179117 3435439
0.1108112 -0.12150439 1.1849102 3829686
0.11612789 -0.11904941 1.1832266 3829431
-0.098264001 -0.098249868 1.1762179 3501231
-0.093709305 -0.095292971 1.1779592 3567024
0.11904132 -0.10983881 1.1836592 3830201
-0.097329907 -0.084174007 1.1761239 3632818
-0.094198987 -0.085089982 1.1781993 3698612
0.12187079 -0.099396825 1.1829686 3896507
-0.096694723 -0.07460241 1.17606 3633333
-0.092932358 -0.075029045 1.1789452 3764919
0.12239344 -0.089204073 1.1823971 4093886
-0.096562184 -0.065789253 1.1759913 3633334
-0.092541158 -0.065098561 1.1792731 3830201
0.12001871 -0.079396278 1.1829888 4291523
-0.091403648 -0.054859608 1.1776809 3896506
0.12023786 -0.068907559 1.182286 4619975
-0.087500006 -0.04554598 1.177737 4028348
0.11508505 -0.057101768 1.18448 5146320
0.11937735 -0.059618421 1.1835926 4883148
-0.085132167 -0.036276661 1.176284 3962814
-0.080128945 -0.035228767 1.1789552 3963072
0.1147121 -0.048240583 1.1828997 5146577
0.11840194 -0.050124168 1.1809939 5080527
-0.083153665 -0.027317666 1.1759681 4028607
-0.076920137 -0.025965564 1.1782253 4291526
-0.027028669 -0.027264819 1.1811774 5147865
-0.019558098 -0.027532503 1.1813405 5344731
-0.0032314034 -0.027705692 1.1816934 5345501
0.0035463935 -0.028154477 1.181843 5739743
0.013582621 -0.03106451 1.1807492 5936862
0.022608159 -0.031668164 1.1812818 5871068
0.032841865 -0.031229079 1.1824989 5739228
0.050990973 -0.03129597 1.1828903 5213656
0.1134305 -0.039255179 1.1826992 4949970
-0.074607521 -0.018665746 1.176082 4422856
-0.065919295 -0.014456056 1.1780536 4686797
-0.055503543 -0.014013849 1.1784562 4884690
-0.045259874 -0.016123556 1.1801943 4950486
-0.034862 -0.017578319 1.1795964 5213659
-0.026350468 -0.019328468 1.1779268 5279707
-0.016298093 -0.021131195 1.178558 5345244
-0.0060474956 -0.020174682 1.1786821 5411808
0.0037186826 -0.02193892 1.1787047 5806052
0.012845006 -0.0256816 1.1780223 6068964
0.024828978 -0.026852109 1.1782899 6068963
0.034979451 -0.025132142 1.1794178 6003173
0.043510668 -0.023968942 1.1804693 5608417
0.053672876 -0.024647124 1.1812937 5411038
0.060477912 -0.025115117 1.1830446 5279709
0.10519795 -0.026321799 1.183094 5212630
0.11063014 -0.030291669 1.1814992 5015248
-0.061813589 -0.0090509802 1.1762795 4949712
-0.055058587 -0.0094982535 1.1764287 4949713
-0.044926096 -0.010169163 1.1766523 5016279
-0.035569072 -0.011165731 1.1768619 5213659
-0.026987504 -0.012487955 1.1770574 5345501
0.04566605 -0.01673314 1.1786566 5871590
0.054147165 -0.016729198 1.1788392 5871847
0.064484313 -0.015162796 1.1810496 5543139
0.071820833 -0.014515102 1.1814882 5280225
0.096246324 -0.016135149 1.183742 5411294
0.10205504 -0.017953336 1.1813357 5279196
0.074409686 -0.0095882267 1.1792176 5411556
0.084091365 -0.0085327625 1.1794176 5412066
0.095349692 -0.0092782229 1.179666 5477344
0.10195522 -0.011977635 1.1798302 5213404
-0.0063482383 -0.18736285 1.1869223 3105189
-0.026130814 -0.1775623 1.187417 3039906
-0.016603865 -0.1803294 1.1880734 3039908
-0.0072102612 -0.18210223 1.1901953 3105447
0.0034803562 -0.18204892 1.1878411 3105702
0.012640974 -0.1814087 1.187283 3171750
0.021632757 -0.18159005 1.1874781 3237289
0.033193231 -0.18049225 1.1877182 3237548
0.04339413 -0.18116769 1.1879433 3171752
0.052461594 -0.18176809 1.1881435 3171752
-0.052935597 -0.16431372 1.1857321 3039909
-0.045172561 -0.16555464 1.1867985 3105701
-0.037247002 -0.16872394 1.1886518 3105443
-0.028059363 -0.17472804 1.1903533 3040163
0.0027063228 -0.17585117 1.191025 3105960
0.014152464 -0.17549196 1.1912686 3105958
0.02334559 -0.17459132 1.190659 3237545
0.033812515 -0.1742284 1.1897866 3237547
0.043862924 -0.17458364 1.1895005 3237544
0.053916022 -0.17502102 1.1898047 3237545
0.06270121 -0.17361699 1.1889647 3303339
-0.063532166 -0.15416124 1.1854215 3172009
-0.055391055 -0.15785542 1.1880274 3105961
-0.04625883 -0.16067016 1.1898474 3171752
0.037517779 -0.16764544 1.1917081 3303337
0.04434118 -0.16809724 1.1918588 3303593
0.054478519 -0.16778922 1.1920745 3303594
0.063863836 -0.16579857 1.1910102 3303596
0.070828728 -0.16476579 1.1884011 3238062
-0.070335239 -0.1451709 1.1852021 3434409
-0.064785086 -0.14728633 1.188163 3237547
-0.056648392 -0.15019333 1.1895386 3237805
0.065279953 -0.15856674 1.1922324 3238318
0.074772857 -0.15626346 1.1912979 3238572
0.084923029 -0.15673183 1.1898398 3434926
0.091473877 -0.15656811 1.1887792 3369134
-0.072098948 -0.13599415 1.1863208 3435179
-0.066352844 -0.13837393 1.1887892 3369388
0.0798169 -0.14988175 1.192475 3500977
0.085681014 -0.14672999 1.1915755 3435186
0.091189042 -0.14713639 1.1886966 3500720
-0.079877719 -0.12471475 1.185831 3566511
-0.074415565 -0.12795059 1.1876419 3566767
-0.067419551 -0.13099286 1.1891509 3500977
0.087636173 -0.13920647 1.1920567 3501234
0.095727094 -0.1373135 1.1894649 3501490
-0.088555306 -0.11094354 1.1845322 3566770
-0.082170703 -0.11594228 1.1873108 3632306
-0.075913556 -0.12129067 1.1888893 3632563
0.098058641 -0.12877254 1.1912845 3699127
0.1056153 -0.1279971 1.1893228 3633076
-0.089412436 -0.10527942 1.185468 3566770
-0.083545908 -0.10654836 1.1886053 3763892
0.099519826 -0.1197684 1.1926551 3633335
0.10637887 -0.11803971 1.1903437 3764407
-0.088915214 -0.09519808 1.1871973 3698868
-0.084647916 -0.09608575 1.1884968 3699126
0.10088104 -0.10786259 1.1925879 3962811
0.10742426 -0.10839225 1.1915661 3830969
0.11517756 -0.10914302 1.1889051 3830714
-0.089386337 -0.085201748 1.1852287 3699126
-0.08423806 -0.08608453 1.1884245 3830712
0.10876758 -0.098515451 1.1920818 4028606
0.11697734 -0.099176973 1.188863 3962300
-0.08819396 -0.075770006 1.185855 3830970
-0.083334893 -0.075753286 1.1883601 3962813
0.10962556 -0.089490026 1.1926272 4291522
0.117594 -0.089628354 1.1891626 4094399
-0.087830491 -0.065702416 1.1858956 3962044
-0.083034366 -0.066307001 1.18829 4093630
0.11192292 -0.078875989 1.1923238 4554438
0.11678826 -0.079970002 1.1887032 4357059
-0.08653494 -0.055725213 1.1854615 4093886
-0.081976175 -0.055278774 1.1882234 4291009
0.11080637 -0.068238698 1.1915911 4686026
0.11688215 -0.068752356 1.1886142 4685769
-0.084417544 -0.048591595 1.1841155 4159935
-0.07932584 -0.046435714 1.1870656 4225985
0.10420235 -0.057813786 1.1922535 5015248
0.11024801 -0.059509069 1.18973 5014991
-0.075650975 -0.036844388 1.1863272 4292037
-0.070478685 -0.039392643 1.1883421 4619977
-0.047281105 -0.034073822 1.1887985 5279449
-0.039320476 -0.034600928 1.1889743 5016538
-0.026886396 -0.036566705 1.189258 4950743
-0.017498147 -0.03886845 1.1894789 4950488
-0.0084122298 -0.039313249 1.1896782 5147351
0.0020753136 -0.039055616 1.1899019 5278422
0.012484593 -0.042070359 1.1892614 5212886
0.021876218 -0.042033892 1.1886021 5278423
0.031869791 -0.041853067 1.1893159 5147094
0.042691141 -0.042969022 1.1908084 4885460
0.052270561 -0.04210085 1.1902802 4950741
0.06137801 -0.04218255 1.1912044 5016279
0.10339866 -0.047895055 1.1907554 5212370
0.11075617 -0.04955896 1.1883267 5212369
-0.073110208 -0.030030906 1.1862091 4423370
-0.070821732 -0.026983142 1.1858335 4554187
-0.046477269 -0.029095337 1.1885087 5147610
-0.036557011 -0.029032901 1.1869881 5081818
-0.027623545 -0.031904109 1.1872039 5016538
-0.016407307 -0.031206138 1.1875731 5278938
-0.0072829602 -0.031202517 1.1877695 5344730
0.003126652 -0.032779269 1.1869396 5673948
0.013203217 -0.035698347 1.1861134 5805277
0.022270681 -0.036298741 1.1863135 5541848
0.032546811 -0.035840493 1.1865311 5475544
0.042898171 -0.034248605 1.1867411 5213397
0.053470828 -0.035568327 1.1876856 5082070
0.063153729 -0.035414759 1.1895874 5016536
0.072180182 -0.033823311 1.1913693 5213915
0.082967371 -0.033558324 1.1915995 5279453
0.093854606 -0.034736186 1.1918435 5213659
0.10311016 -0.038285863 1.1904712 5212628
0.10977073 -0.038676508 1.1882172 5146833
-0.070068978 -0.021075338 1.1842014 4554443
-0.044786394 -0.020927556 1.1847447 5016281
-0.037592601 -0.022314802 1.1849109 5147611
-0.0065967226 -0.025278084 1.1856024 5411294
0.064354867 -0.025421478 1.1871316 5148123
0.073051676 -0.026000559 1.1875236 5213915
0.083015084 -0.026880287 1.1892849 5213917
0.093737476 -0.027520418 1.1900978 5213659
0.10165168 -0.029794186 1.1883037 5212887
0.095031142 -0.020620741 1.1877533 5279708
0.09956488 -0.02092094 1.1878535 5411037
-0.022596542 -0.1758008 1.1954809 3106213
-0.016886622 -0.17617887 1.1956069 3105959
-0.0056732437 -0.17757693 1.1958598 3105706
0.0048110671 -0.17761555 1.1960859 3105960
-0.03299059 -0.1682291 1.1951957 3105700
-0.025678042 -0.16996145 1.1961174 3105957
-0.016537424 -0.17056669 1.1963192 3106216
-0.0062780892 -0.17136154 1.1973969 3106217
0.0043757474 -0.17155164 1.1974564 3171752
0.012294531 -0.17158301 1.1972893 3303337
0.023689205 -0.1696876 1.1964282 3369130
0.030541103 -0.17014129 1.1965795 3369132
-0.04482726 -0.1562058 1.1951767 3171753
-0.035387274 -0.15923589 1.1977919 3171752
-0.025182929 -0.16018164 1.2000999 3172010
-0.016125094 -0.16205792 1.2012604 3172012
-0.0061009256 -0.16230044 1.202274 3237802
0.0045997314 -0.16230869 1.2019589 3303338
0.013775412 -0.16294315 1.2023617 3369133
0.024118185 -0.16340372 1.2008677 3369388
0.034266114 -0.1637432 1.2003983 3303853
0.043651301 -0.16319889 1.1985559 3369643
0.05382077 -0.16307409 1.1972588 3303851
-0.061737161 -0.14338082 1.194375 3303598
-0.053871717 -0.14672568 1.1962863 3303341
-0.045517262 -0.14900504 1.1999142 3303340
-0.036352057 -0.15104029 1.202986 3369132
-0.028325316 -0.15346158 1.2031785 3303600
0.0050126258 -0.155669 1.2039144 3303598
0.017658053 -0.15650631 1.2041935 3435186
0.02513035 -0.15700108 1.2043585 3369391
0.034901813 -0.15764809 1.2045741 3369392
0.044897545 -0.15539141 1.2041556 3369390
0.054591551 -0.15498041 1.2007755 3435184
0.064144716 -0.15401044 1.1971723 3369392
-0.062240716 -0.13632312 1.1951072 3369646
-0.055384081 -0.13907811 1.2000785 3303853
-0.048407402 -0.14289284 1.2026603 3173034
0.047360092 -0.14738616 1.2047592 3566773
0.055627383 -0.14662471 1.2042643 3566516
0.065603361 -0.14541355 1.2015352 3500977
0.075512074 -0.14673813 1.1990428 3500975
-0.071574613 -0.12371798 1.1940037 3632562
-0.062986024 -0.12735283 1.197219 3501236
-0.055600312 -0.1279968 1.2019401 3501494
0.068347938 -0.1364764 1.2051227 3698612
0.075925134 -0.13733003 1.2029287 3567283
0.084986098 -0.13549647 1.2004051 3567283
0.092653036 -0.13295323 1.1976155 3501747
-0.078113914 -0.11361536 1.193781 3895478
-0.07276725 -0.11650057 1.1964202 3698613
-0.064053275 -0.11801431 1.2007879 3633080
0.070223659 -0.12996006 1.2051103 3699128
0.076978758 -0.12720922 1.2052335 3830713
0.086488418 -0.12745669 1.20424 3699126
0.093534321 -0.12658702 1.1975828 3633333
-0.078888446 -0.10553338 1.1936988 3961271
-0.072296031 -0.10640148 1.1988491 3896247
-0.065813825 -0.10940368 1.2020139 3764921
0.07733281 -0.12026785 1.2051848 3962300
0.08834637 -0.11848208 1.2049367 3896506
0.096115038 -0.11712814 1.1995623 3764920
-0.079663098 -0.096133769 1.1951063 3830712
-0.072904304 -0.096126176 1.2004198 4093627
0.092012949 -0.10784328 1.2054002 4028352
0.097548887 -0.10763387 1.2001829 3962812
-0.079389863 -0.085809693 1.1955285 3962556
-0.073164016 -0.087326601 1.201232 4028606
0.092176348 -0.097427197 1.2053193 4357317
0.098646581 -0.098069482 1.2014627 4225985
0.10436609 -0.094722524 1.1975577 4225985
-0.078302868 -0.076853439 1.1954793 4028606
-0.073691234 -0.077315405 1.201584 4094655
0.093233816 -0.08944606 1.2052773 4554695
0.099297576 -0.087712854 1.2007926 4554182
0.10568327 -0.08639662 1.1975185 4619462
-0.078245364 -0.066190831 1.1938642 4159424
-0.070360444 -0.065685652 1.2003303 4160448
-0.063987546 -0.064484343 1.2016889 4554440
0.094578773 -0.076138519 1.2051983 4620747
0.10011829 -0.07753922 1.2030784 4686026
0.10656929 -0.078807004 1.197476 4619977
-0.076976769 -0.056593247 1.193343 4291265
-0.06904649 -0.057094827 1.1987693 4357573
-0.063529715 -0.057585377 1.2016428 4751563
0.010604913 -0.05979941 1.2032573 4818903
0.018319678 -0.059540313 1.2034214 4819160
0.093304098 -0.06750802 1.2051009 4752590
0.10072521 -0.068357557 1.203017 4817869
0.10595788 -0.07073582 1.1973975 4752076
-0.074359275 -0.047159974 1.1933229 4291778
-0.068411373 -0.046827652 1.1970282 4554440
-0.06299559 -0.049536593 1.201589 4883149
-0.043895692 -0.043738388 1.1979523 5674209
-0.038166769 -0.044117723 1.1980788 5082331
-0.027058605 -0.047686279 1.200214 4950745
-0.017823562 -0.050053883 1.1979648 4884953
-0.0086531388 -0.050653271 1.1979672 4753366
0.0016977182 -0.050231487 1.199387 4884692
0.012170102 -0.052556794 1.1987867 4884692
0.020942815 -0.052409377 1.1996295 4884692
0.03114165 -0.051875234 1.2023016 4950484
0.042029716 -0.053560384 1.2007716 4950488
0.050784122 -0.053872898 1.2019564 4950489
0.06143884 -0.053120743 1.203231 5411037
0.070393078 -0.053460546 1.2044935 5542623
0.084609017 -0.052380808 1.2047909 5213404
0.09217795 -0.055769175 1.2049814 5081558
0.10036991 -0.058573056 1.2027799 5015248
-0.06844575 -0.037062455 1.1933683 4685772
-0.046265263 -0.038058899 1.1949453 5542365
-0.037329745 -0.038830981 1.195196 4951002
-0.028629351 -0.040443815 1.1942532 4884951
-0.0195137 -0.04292471 1.1944697 4753366
-0.0057341 -0.042689875 1.1947645 4950484
0.0030973237 -0.04356144 1.1949618 5015763
0.033017546 -0.046403013 1.1956292 5015764
0.039869446 -0.046856705 1.1957805 4885461
0.051843684 -0.046666216 1.1960368 4884950
0.062637709 -0.046302672 1.198113 5082072
0.072003253 -0.045761686 1.201265 5542624
0.081431977 -0.047530312 1.2038829 5279197
0.091702305 -0.046977598 1.201299 5213144
0.098922469 -0.050002009 1.1970778 5212627
0.066741474 -0.039458059 1.1962992 5016538
0.072565086 -0.038122799 1.1964138 5213917
0.082245842 -0.036278106 1.1966074 5345245
0.092403911 -0.03926111 1.1975172 5213917
0.18308672 -0.047352619 1.2068709 13158081
-0.015987638 -0.1570884 1.2074748 3303598
-0.003300407 -0.15792847 1.2077549 3303850
-0.04365658 -0.14459631 1.2067776 3303853
-0.03402308 -0.14683139 1.2073604 3304111
-0.024653602 -0.14956361 1.2093329 3303857
-0.015632819 -0.15048207 1.2101796 3303856
-0.0052370215 -0.15120023 1.2106594 3369903
0.0053091813 -0.15038766 1.2078791 3435441
0.014293705 -0.15189733 1.2080848 3435187
0.024788646 -0.15195334 1.2083113 3500978
0.035297181 -0.15237328 1.208541 3369649
0.042093985 -0.15120116 1.2086779 3435441
-0.0513121 -0.13659652 1.2065479 3370159
-0.04482729 -0.13779835 1.2066972 3370416
-0.034562554 -0.13872641 1.2091764 3436469
-0.024293561 -0.13971154 1.2121563 3502005
-0.01502848 -0.14032502 1.2123609 3501749
-0.0048358785 -0.14449032 1.2126141 3501493
0.0058441069 -0.14156511 1.21157 3567542
0.015088085 -0.14228368 1.2127126 3567541
0.02551046 -0.14284034 1.2117538 3633333
0.035912637 -0.14324558 1.2094179 3567541
0.044556875 -0.14309293 1.2086651 3633079
0.054714486 -0.14157544 1.2088716 3632566
-0.051135149 -0.12811111 1.2064828 3501750
-0.044366762 -0.128814 1.2091349 3567798
-0.036079455 -0.1298919 1.2118229 3633848
-0.022751071 -0.13399634 1.2121432 3633591
-0.015802257 -0.13445646 1.2122965 3699128
0.0062791798 -0.13475507 1.2127745 3830714
0.016702395 -0.13544525 1.2130046 3764921
0.026240941 -0.13512489 1.2132074 3830712
0.036839835 -0.13491248 1.2130767 3830713
0.045555856 -0.13519087 1.212957 3830458
0.055919774 -0.13562347 1.2112184 3764409
0.064165384 -0.1346426 1.2095746 3764407
-0.059411917 -0.11667133 1.2062118 3698874
-0.052906308 -0.11777292 1.2086115 3764923
-0.044473428 -0.11900702 1.2115538 3765435
-0.038349979 -0.12365572 1.2117233 3699641
0.055072907 -0.12984163 1.2137855 3896252
0.06552957 -0.12607315 1.2113603 3831226
0.072966009 -0.12590007 1.2091376 3830458
-0.061437663 -0.10706636 1.20688 3896508
-0.052406412 -0.1075999 1.2112904 4028352
-0.044577211 -0.10881638 1.2114689 4094143
0.067473948 -0.11628058 1.2103702 4159936
0.076889604 -0.11565436 1.209139 4028352
0.084996209 -0.11482 1.2093068 3962559
-0.068752222 -0.096818507 1.2058496 4093628
-0.061886523 -0.09733253 1.2067518 4028352
-0.05176935 -0.098310769 1.2109162 4094401
-0.044966627 -0.097155906 1.2113659 4225986
0.069496214 -0.10720511 1.2125485 4357317
0.077833161 -0.10674194 1.2119002 4225732
0.086739339 -0.10688248 1.2092799 4159938
-0.069095582 -0.087029621 1.2057629 4028609
-0.060969304 -0.0876313 1.2073067 3963330
-0.051739853 -0.088275701 1.211148 4160708
-0.045539521 -0.091766015 1.2113099 4292035
0.0729746 -0.093795963 1.2138786 4620236
0.078262463 -0.096892834 1.2126285 4488649
0.086750992 -0.098112814 1.2092091 4357318
-0.069570892 -0.076735407 1.2056692 4160449
-0.061081301 -0.077450685 1.2095544 4160708
-0.051843625 -0.07808505 1.2110631 4489161
0.07997635 -0.08770752 1.2129084 4555212
0.088402115 -0.087063 1.209155 4620489
-0.16105059 -0.062011667 1.2085809 14082013
-0.067709319 -0.069465078 1.2056502 4226242
-0.059527393 -0.067695647 1.2083127 4620234
-0.052366961 -0.066105455 1.2109548 5079759
-0.018369377 -0.067968741 1.211702 6791922
-0.010185563 -0.067347161 1.2118733 5608162
0.0002376521 -0.068037324 1.2121032 5016279
0.010229399 -0.070745334 1.2109765 5608413
0.018729376 -0.069843471 1.2125162 4950485
0.025716621 -0.069724381 1.2126657 5016277
0.083392747 -0.077033758 1.2139671 4752847
0.089350998 -0.07746096 1.2108628 4620747
-0.05957735 -0.058774229 1.2067389 4948687
-0.04940841 -0.062423121 1.2109886 5408980
-0.0276464 -0.060737096 1.20952 6134248
-0.018963721 -0.060838826 1.2091308 5344990
-0.010070152 -0.061610278 1.2096858 4884696
0.0010666754 -0.062390648 1.210016 4818902
0.011481641 -0.064357609 1.2073143 4818646
0.020644816 -0.063873515 1.2082222 4818646
0.030736621 -0.064094126 1.2094773 4884696
0.040830899 -0.064267054 1.2097318 5344733
0.050068282 -0.064861998 1.2095784 5936870
0.059745643 -0.064960979 1.2125263 5608416
0.06885872 -0.064669415 1.2135538 5082072
0.081640773 -0.066311963 1.2108417 5016278
0.087912254 -0.068259686 1.208992 4884178
-0.027704827 -0.054347254 1.2063892 5082331
0.0011297856 -0.056256507 1.2070256 4687574
0.024197478 -0.057783913 1.2075348 4687574
0.032150146 -0.057648372 1.207705 4819159
0.039191477 -0.058776725 1.2078658 4950233
0.051878709 -0.059616797 1.2081459 5542369
0.060678236 -0.058912009 1.2083297 5805540
0.073638231 -0.057581488 1.2085979 5213659
0.080942988 -0.058065169 1.2087592 5147866
0.089658007 -0.06057338 1.2089672 5081557
-0.0046452871 -0.1402881 1.2165852 3633335
-0.031408086 -0.12790433 1.2159083 3699641
-0.023931798 -0.12884881 1.216077 3765177
-0.014285333 -0.1296517 1.2179388 3830714
-0.0041107619 -0.13127565 1.2194043 3962299
0.006568823 -0.12942331 1.2174053 4028092
0.015321999 -0.13079922 1.217224 3962300
0.024827346 -0.13106272 1.2178725 3962299
0.034417782 -0.13038264 1.219569 3962299
0.046909723 -0.13016124 1.2176133 3896509
0.056700826 -0.13034263 1.2178257 3830714
-0.040438984 -0.1169069 1.2156247 3962813
-0.034048475 -0.11905186 1.2175579 3962813
-0.02324976 -0.12097053 1.2200289 4028350
-0.014170536 -0.12370097 1.2202466 4093886
-0.0071761245 -0.1241641 1.2204009 4093886
0.0070448285 -0.12159242 1.2206864 4291263
0.016370714 -0.12220993 1.2208922 4291265
