# .PCD v0.7 - Point Cloud Data file format
VERSION 0.7
FIELDS x y z rgba
SIZE 4 4 4 4
TYPE F F F U
COUNT 1 1 1 1
WIDTH 174
HEIGHT 1
VIEWPOINT 0 0 0 1 0 0 0
POINTS 174
DATA ascii
-0.40015247 0.077073999 1.1020538 5134174
-0.39327008 0.0767496 1.1028086 5134176
-0.40149873 0.081580833 1.1019629 4871515
-0.40562943 0.058139198 1.1082504 4936281
-0.39496264 0.057579346 1.1094197 5199967
-0.39019731 0.058483988 1.1099567 5397348
-0.41487056 0.063224383 1.1069944 4673880
-0.40701175 0.064165883 1.105944 4870232
-0.39776945 0.066003166 1.1077087 5068382
-0.38831663 0.068183191 1.1093279 5068384
-0.38105914 0.07114201 1.1111265 4476504
-0.41686669 0.072461024 1.1055174 4607822
-0.4098154 0.073809326 1.1049708 4673623
-0.39894196 0.07511054 1.1061866 5134174
-0.38891885 0.07792417 1.1073281 4739419
-0.38140386 0.079116069 1.1094657 4081746
-0.41878524 0.080636807 1.1070874 4410445
-0.41049838 0.083279289 1.1050166 4213839
-0.40051985 0.085695118 1.106148 4345429
-0.39060169 0.087157518 1.1072606 4016211
-0.38271022 0.088312477 1.1093067 3621193
-0.4109084 0.088740617 1.1050413 3884109
-0.40191925 0.091446504 1.1060673 3752784
-0.39172357 0.093313105 1.1072156 3621192
-0.38439959 0.093593791 1.108027 3686459
-0.41271508 0.044479966 1.1177869 4673626
-0.40429884 0.045126051 1.1158655 4870741
-0.39515585 0.045675196 1.1170665 5265754
-0.38547885 0.048239976 1.1184355 5397604
-0.37796915 0.052476019 1.1222962 4608350
-0.41492295 0.053206466 1.1137023 4673629
-0.40622419 0.053272448 1.1124824 4870744
-0.3976436 0.053302191 1.1130937 5134174
-0.38602787 0.057544932 1.1150854 5397606
-0.3785345 0.059800245 1.1201322 4476760
-0.37340569 0.064907625 1.1229585 4015442
-0.42372823 0.059989564 1.1173457 3883351
-0.41975933 0.060714349 1.1125606 4475995
-0.38625795 0.064135551 1.1144881 5068641
-0.37811854 0.068941988 1.1175125 4082513
-0.37299505 0.071114272 1.1225802 3752531
-0.42265466 0.070328616 1.1111569 4079443
-0.37779814 0.078269355 1.1171112 3621705
-0.37328303 0.076738238 1.1207086 3751503
-0.38059849 0.085443527 1.1153849 3490378
-0.39936352 0.028493283 1.1306973 5002588
-0.39623493 0.029066054 1.1310496 5528419
-0.41151321 0.036028244 1.1294538 4739163
-0.40358388 0.034537487 1.1273466 5002333
-0.39423612 0.035937436 1.1283396 5397092
-0.38574186 0.039565183 1.1306883 5332066
-0.3802278 0.041755907 1.1329774 4740695
-0.41304615 0.039755046 1.1240501 4082256
-0.40584949 0.039887257 1.1230848 5068120
-0.38376182 0.044485196 1.1275918 5200736
-0.37656742 0.049236149 1.1305956 4345175
-0.37022683 0.052377105 1.1336414 4278096
-0.37528411 0.059091859 1.1275638 4147028
-0.37093711 0.059439749 1.1321568 3819087
-0.3720631 0.066857323 1.1283635 3687502
-0.3914029 0.017907469 1.1425074 5528423
-0.38728711 0.019208493 1.142978 5397348
-0.40231368 0.023868551 1.1360142 4804702
-0.3929401 0.025372049 1.136484 5462626
-0.38414094 0.027653264 1.1400793 5003105
-0.37696916 0.032584772 1.1418724 4804440
-0.41322616 0.032114111 1.1362578 3817824
-0.40628195 0.029551068 1.1329663 4673622
-0.39059731 0.03242258 1.1347328 5660265
-0.38365182 0.035275631 1.1355354 5069150
-0.375541 0.039635792 1.1384979 4475986
-0.37098795 0.044830054 1.1390666 4014924
-0.37369341 0.046390019 1.1367759 4606547
-0.36857685 0.049803898 1.1378869 3620428
-0.39734825 0.0099290628 1.1487926 4079956
-0.39046443 0.010170612 1.1472552 5266270
-0.38506562 0.011626845 1.150169 5002845
-0.40104866 0.015509287 1.1464436 4079963
-0.3929202 0.014342574 1.1453129 5330781
-0.38320747 0.018391753 1.1480931 5002331
-0.38087657 0.024891706 1.1467762 5001816
-0.377437 0.028428981 1.1484082 4540755
-0.37417227 0.036000408 1.1476578 4213074
-0.39087045 0.00037118047 1.1614586 5265766
-0.39262584 0.0045806523 1.1584442 5068639
-0.38435861 0.0077746008 1.1589177 4214103
-0.40118259 0.0093571842 1.1523871 1580089
-0.38086784 0.014942119 1.1553698 4145996
-0.37915435 0.021129737 1.1549672 4212054
-0.39729184 -0.0018522255 1.1637403 3618132
-0.39172709 -0.0019497611 1.1643528 5199718
-0.38548252 0.00030979887 1.1650704 4214875
-0.37801483 -0.059090666 1.1812323 528927
-0.37288809 -0.05883117 1.1818011 1517876
-0.37329096 -0.068881564 1.1937019 4419983
-0.3890833 -0.064849481 1.1899995 1651559
-0.38355061 -0.063078493 1.1874701 1782104
-0.37103167 -0.063356221 1.1867272 4154236
-0.36701915 -0.059130639 1.1910686 3028033
-0.38251048 -0.055704914 1.1928537 2369321
-0.37445247 -0.054359347 1.1901374 2040105
-0.38542786 -0.036760472 1.1887497 4146252
-0.38900295 -0.069768712 1.2000067 5077683
-0.38172939 -0.071070991 1.1994507 4617364
-0.37244585 -0.069755107 1.2004914 4549258
-0.36794069 -0.063469343 1.1983857 6582660
-0.39162689 -0.058627374 1.1958354 7695014
-0.38484541 -0.053579837 1.1973186 2040625
-0.37707004 -0.050914221 1.1975394 2172202
-0.3695595 -0.054587319 1.1983207 2760198
-0.38236979 -0.080440976 1.2086509 4683677
-0.37679708 -0.07942073 1.2092786 3831442
-0.39093816 -0.075012557 1.2066255 3299734
-0.3834967 -0.075904995 1.2060236 4683420
-0.37512934 -0.07487607 1.2079108 3960460
-0.37747836 -0.15349086 1.2213356 3829135
-0.36961678 -0.15156168 1.2222273 4223637
-0.36344948 -0.15088901 1.2229161 3960467
-0.37995726 -0.14441045 1.2211784 3498881
-0.37175763 -0.14244688 1.2217054 3895695
-0.36436313 -0.13973682 1.2229581 3631246
-0.38152406 -0.1333466 1.2181288 3499128
-0.37429541 -0.13283859 1.2189325 4025235
-0.36606309 -0.13034721 1.2217408 3499655
-0.38239259 -0.12398466 1.2161405 3826560
-0.37585074 -0.12282933 1.2173798 4156303
-0.36823732 -0.12197594 1.2207458 3630985
-0.3841919 -0.11461888 1.2190803 3893387
-0.37762752 -0.11310902 1.2182585 4157333
-0.37075546 -0.11132316 1.2211074 3762828
-0.38427106 -0.1059999 1.2211941 3762325
-0.37875834 -0.10240737 1.218159 4420507
-0.37290639 -0.10148925 1.2211636 3828877
-0.38787711 -0.092602044 1.2209678 4222878
-0.3801192 -0.093077272 1.2180611 4552347
-0.37431213 -0.092415586 1.2216613 3631755
-0.39039281 -0.085058935 1.2151525 3627913
-0.38140637 -0.085171528 1.2140627 4683676
-0.37495792 -0.082660429 1.2177635 3892613
-0.37508479 -0.074686557 1.2145587 3563127
-0.37788123 -0.1635291 1.2266247 3033484
-0.36982068 -0.16304399 1.2299296 2897991
-0.36006227 -0.16044489 1.2305459 3891064
-0.35300091 -0.15837328 1.2330281 2638186
-0.38329312 -0.15528756 1.224696 666715
-0.37223259 -0.15554622 1.2259126 4813457
-0.35947934 -0.15021417 1.2273873 3499654
-0.35289049 -0.14886245 1.2318381 3561592
-0.38598245 -0.14419407 1.2245413 6722
-0.36131802 -0.14085393 1.2273042 3694979
-0.35515994 -0.13945563 1.2300136 3233144
-0.36164233 -0.13033491 1.227403 3104639
-0.35741511 -0.12952688 1.231081 2640231
-0.36406189 -0.12090472 1.2272569 2907007
-0.36027655 -0.12030535 1.2322555 3099492
-0.38818848 -0.11286277 1.2246989 4089741
-0.36620936 -0.11155119 1.227499 3496061
-0.36270285 -0.10973734 1.2325803 4278874
-0.38737884 -0.10448691 1.2248954 2972810
-0.36882165 -0.10150038 1.2283522 3757171
-0.36529496 -0.10195038 1.2323941 3748927
-0.38728496 -0.098592848 1.2249811 3630740
-0.36940634 -0.094144285 1.2270098 3953004
-0.36989278 -0.16936608 1.235049 984897
-0.36034012 -0.16367024 1.2361754 4350584
-0.35464838 -0.13822053 1.2377995 4674411
-0.35649231 -0.12988038 1.2400506 6974583
-0.36019474 -0.11928227 1.2397778 3815753
-0.39286095 -0.11436655 1.2332196 5799072
-0.36076707 -0.10967497 1.2368191 5064001
-0.3548182 -0.14423858 1.2501129 7039097
-0.35623315 -0.13860951 1.251035 7565430
-0.35842869 -0.1302015 1.2505651 8223350
-0.35967502 -0.12206014 1.2458365 9076613
