# .PCD v0.7 - Point Cloud Data file format
VERSION 0.7
FIELDS x y z rgba
SIZE 4 4 4 4
TYPE F F F U
COUNT 1 1 1 1
WIDTH 1131
HEIGHT 1
VIEWPOINT 0 0 0 1 0 0 0
POINTS 1131
DATA ascii
-0.13221481 -0.062536217 1.0858737 3826867
-0.13443549 -0.13595319 1.0937884 3694011
-0.13889687 -0.12911354 1.091617 7178192
-0.13365275 -0.12923571 1.092766 2114980
-0.1382225 -0.11766394 1.0913181 1063065
-0.13397066 -0.12079592 1.0922931 2447769
-0.13717307 -0.1101643 1.0911214 2578847
-0.13463935 -0.10983527 1.0941099 2907546
0.16237187 -0.13157529 1.0927035 6851775
0.16797608 -0.13158055 1.0911942 13029078
-0.13570842 -0.10013901 1.0916086 3104917
-0.13367419 -0.097328141 1.0937831 3170462
0.16181368 -0.12071189 1.0924218 3040417
0.17124769 -0.1248125 1.091013 13422807
0.17439969 -0.12191889 1.0909327 13619661
-0.13682617 -0.087496951 1.0912817 3104162
0.16121063 -0.11244734 1.0915648 2973607
-0.1355217 -0.079243921 1.0913152 3169952
0.16240574 -0.10234923 1.0934439 2843043
-0.13657185 -0.069481716 1.0902205 3301299
-0.13022576 -0.14795388 1.1040972 4750553
-0.12676047 -0.15040076 1.1061561 1196192
-0.13168119 -0.14064083 1.1007082 3036848
-0.12796044 -0.14307187 1.1059674 1789334
0.1556512 -0.16097048 1.1034819 12898004
-0.12979387 -0.12982637 1.1018467 2776475
0.15684606 -0.15196827 1.1021456 9087435
0.16299036 -0.14787811 1.0986283 13488846
-0.13120908 -0.11895643 1.101344 3038106
0.15751755 -0.14136782 1.1008685 4354994
0.16548742 -0.1400734 1.0984213 13752800
-0.13232847 -0.10909744 1.1025344 2973083
0.15824285 -0.13160248 1.1015214 2121388
-0.13611645 -0.095335528 1.0977365 3301280
-0.13311957 -0.10043668 1.1015021 3039132
0.15958579 -0.12367918 1.0991714 2646946
0.17617525 -0.11965098 1.1008743 13817039
-0.13563211 -0.089059174 1.0975726 3366820
-0.13312189 -0.089590169 1.1025841 3105183
0.15890999 -0.11125429 1.102384 3631271
0.1773864 -0.11763413 1.1008199 13817037
-0.13477106 -0.077901229 1.097281 3499424
-0.13215941 -0.079025477 1.1011075 3302563
0.15936376 -0.1010304 1.1013583 3369127
-0.13139258 -0.06956546 1.1005601 3434147
0.16201214 -0.091599591 1.1020771 2908578
0.16794904 -0.089472041 1.1001025 8233160
-0.13515903 -0.058160841 1.0976257 3365295
-0.12994212 -0.059700157 1.1006476 3499689
0.16353795 -0.082120806 1.1015661 4024485
0.16859658 -0.081080794 1.0998833 11192030
-0.13294338 -0.049373277 1.0995373 2181536
-0.12771834 -0.049602807 1.1007354 3433908
0.16318972 -0.076582991 1.1037763 2708114
-0.13069238 -0.041199896 1.1033226 8233201
-0.12696555 -0.042654078 1.1016396 3564980
0.028405786 0.11875888 1.0949091 9935247
0.034171157 0.11921842 1.094888 9934992
-0.12182955 -0.15949075 1.1150799 929696
-0.11768127 -0.1601049 1.1173977 1984411
0.14426926 -0.17603865 1.1173964 13424882
-0.12210716 -0.149941 1.1125388 2512540
-0.11763898 -0.15210409 1.1158558 2906513
0.14604081 -0.17030042 1.114799 8955594
0.151777 -0.16948886 1.1112121 14080986
-0.12815557 -0.13533801 1.1127689 2381461
-0.12544656 -0.14069149 1.1148419 2776212
0.14699624 -0.16077995 1.113314 3697834
-0.12814447 -0.12938024 1.1134475 2841752
-0.12634732 -0.13376884 1.1167265 2906774
0.14960846 -0.15102595 1.1135364 2646183
-0.12921399 -0.11868146 1.1141952 2907034
-0.12552691 -0.1231374 1.1164488 2775704
0.15085743 -0.14233586 1.1144087 3696546
0.15325391 -0.13798726 1.1137251 3761571
-0.12950507 -0.10921919 1.1125364 2973083
0.15539582 -0.13205355 1.1129005 3368880
-0.12981176 -0.098974459 1.1117259 3039134
0.15658353 -0.12051651 1.1122044 3500454
-0.12918511 -0.088553235 1.1111538 3171232
0.15616584 -0.11199687 1.1129969 3631529
-0.12906742 -0.079788372 1.1102254 3302564
0.1554568 -0.10163327 1.1084414 3697839
0.15585813 -0.10183797 1.1114471 3763633
-0.12834699 -0.069240421 1.1107503 3368355
0.15728769 -0.090670601 1.1108686 3436468
0.17183851 -0.088151827 1.1110659 10992842
-0.12521344 -0.059037257 1.11048 3697068
0.15615316 -0.077494472 1.1148149 3765679
0.15914483 -0.080357641 1.1100649 3830452
0.17181228 -0.083887182 1.110955 11387079
-0.12352381 -0.05142881 1.1080787 3631022
-0.12110803 -0.048410293 1.1074961 3500456
0.15604627 -0.070626862 1.1117467 3830449
0.16270116 -0.071699753 1.1092836 5207985
0.1691319 -0.073104396 1.1133463 10334913
-0.12283271 -0.039372567 1.1098362 3434161
0.15587525 -0.061665505 1.1112598 3893939
0.16291045 -0.062714413 1.1104741 8428221
-0.12231063 -0.029263116 1.1131451 6194370
-0.11761137 -0.027495466 1.1139491 4421311
0.15465437 -0.049660709 1.1130022 5734064
0.16065788 -0.053778876 1.1141911 10203587
-0.11576921 -0.020953394 1.1137761 6852289
0.15362574 -0.043699179 1.110739 8955077
0.033640407 0.095587976 1.1105083 9737616
-0.094162412 -0.19818883 1.1266869 7635861
-0.090821333 -0.19887096 1.1293669 8100012
-0.10362384 -0.18744335 1.1290901 10535920
-0.096826605 -0.19071302 1.1268106 5996227
-0.090545177 -0.19529232 1.1292734 6394567
-0.11276763 -0.17588249 1.1208012 8431615
-0.10597239 -0.17878488 1.1236361 1526185
-0.099984996 -0.18153942 1.1277875 1262491
0.12331217 -0.19595352 1.1289512 11717846
-0.12064036 -0.16669632 1.1205748 7571711
-0.11384899 -0.16945477 1.1221919 1917611
-0.10707935 -0.17240617 1.1260369 2379673
-0.10056462 -0.17579961 1.1287824 2644619
0.12542616 -0.18922535 1.128773 5010097
0.13293235 -0.18691391 1.1255571 10599906
0.14010632 -0.18627617 1.1246717 14081762
-0.11323073 -0.1605792 1.1246159 2709143
0.12728135 -0.17874014 1.1284974 2909858
0.13394284 -0.1788775 1.1246709 4026283
0.14149763 -0.1797494 1.1209985 12307424
-0.11907739 -0.14644247 1.1200457 2775446
-0.11502684 -0.1509039 1.1230654 2775442
0.13587976 -0.1700343 1.1252563 3105445
0.14086623 -0.1697163 1.1202384 2578854
-0.1205469 -0.1390544 1.1220105 2775449
-0.11652047 -0.14165938 1.1265862 2906778
0.13895918 -0.16040888 1.1264015 3564451
0.14237162 -0.15979616 1.1223788 3433893
-0.12371942 -0.13007878 1.1229228 2840984
0.14108351 -0.15232565 1.1277885 3565217
0.14500871 -0.15064541 1.1224035 3499430
-0.12760215 -0.11790391 1.1193171 2841497
-0.12475479 -0.11974968 1.1253626 2907290
0.14809906 -0.14017224 1.1244603 3237547
-0.12705156 -0.10842314 1.1206702 2973083
-0.12435661 -0.10899972 1.1250824 3038877
0.15192953 -0.13072525 1.1253909 3827369
0.15465572 -0.13003139 1.1191845 3564710
-0.12733765 -0.098372854 1.1216669 3039391
-0.12484629 -0.10038491 1.1255261 3170977
0.15297323 -0.1206954 1.1249465 3565735
0.15531382 -0.12150346 1.1189617 3500198
-0.12683003 -0.090142339 1.1235956 3170977
0.15393266 -0.11174437 1.1240453 3631790
0.15488838 -0.11343162 1.1267552 3434923
-0.12617442 -0.079637699 1.122321 3302823
0.15447859 -0.1002993 1.1239135 3566513
-0.12537634 -0.069705971 1.1207277 3368614
0.15428835 -0.091002688 1.1237105 3632560
-0.12427921 -0.06202922 1.1218601 3565995
0.15387353 -0.08080855 1.1221739 3895728
-0.12019236 -0.047214102 1.1230689 3697842
0.15230536 -0.070741929 1.1204474 4158132
-0.11789846 -0.039097294 1.1216174 3502262
0.15200014 -0.059990384 1.1213688 4027837
-0.11452965 -0.029832773 1.1207851 3698611
0.14804581 -0.04810496 1.1250672 4619197
0.15358746 -0.051785141 1.1196139 4946612
-0.12028084 -0.023030631 1.1168383 7180220
-0.1124733 -0.020438835 1.123961 4815032
0.14845847 -0.041655246 1.1242321 5209534
0.15329257 -0.040462498 1.1168575 8425655
0.03445024 0.091566585 1.1136127 9474444
-0.068104044 -0.21033196 1.1366313 8300241
-0.085641779 -0.2008571 1.1327752 7642055
-0.078217916 -0.20203327 1.134931 4815810
-0.071741551 -0.20595303 1.1365231 5210825
-0.093838319 -0.18828905 1.1320976 932767
-0.087151177 -0.1922141 1.1338738 2382238
-0.078788288 -0.19584668 1.1362715 2251168
0.104443 -0.20672449 1.1362636 6518691
0.11034 -0.20618799 1.1348113 11319227
-0.095039457 -0.18138829 1.1337873 2447513
-0.089924611 -0.18520744 1.1360126 2513045
0.11281184 -0.19812475 1.1349738 4617903
0.11982947 -0.1987595 1.1320307 10929103
-0.1036213 -0.16968079 1.1330842 2971544
-0.098015212 -0.17387424 1.1337299 2774929
0.11559024 -0.18906289 1.1341194 2909086
0.12055124 -0.18855552 1.1317643 3105187
-0.11012157 -0.15599117 1.1312835 2709911
-0.10589906 -0.16132855 1.1337693 2644371
0.12282133 -0.17887315 1.1321245 3368356
-0.11193406 -0.14917135 1.1329278 2775444
-0.10729479 -0.15364163 1.1338855 2709910
0.12798859 -0.16935384 1.1328536 3368613
0.13240851 -0.16676353 1.1311787 3499683
-0.11447953 -0.14039052 1.1323853 2841497
0.13035984 -0.16199774 1.1350594 3237027
0.13527952 -0.15973032 1.1323251 3302821
-0.1195031 -0.12840584 1.1311526 2645144
-0.11615696 -0.13032855 1.1337378 2775964
0.13915554 -0.15004678 1.1329159 3237542
0.14350583 -0.14681549 1.1319762 3106215
-0.12068103 -0.11987077 1.131816 2907291
0.14126046 -0.14061901 1.1331524 3499683
0.14450325 -0.13892311 1.1315788 3303338
-0.12089869 -0.10987726 1.1325022 3039134
0.1467668 -0.13057703 1.1316272 3499947
-0.12493525 -0.095291816 1.1297286 3236770
-0.12310696 -0.099647261 1.1331733 3236770
0.14930214 -0.12022686 1.1317606 3500458
-0.12443683 -0.088833213 1.1295598 3237027
-0.1227377 -0.089222692 1.1335685 3302821
0.15247397 -0.10988274 1.1319542 3632048
-0.12368923 -0.079145312 1.1293067 3302824
-0.12202913 -0.080040731 1.1333287 3302569
0.15143484 -0.10089283 1.1316181 3632047
-0.1234222 -0.070070036 1.1290703 3434408
-0.12046493 -0.067820042 1.1330084 3434665
0.14890109 -0.089630827 1.1309656 4026292
-0.12219401 -0.059769504 1.1288005 3631531
-0.12040361 -0.058976244 1.1327783 3631531
0.14961915 -0.081722774 1.1293846 4157366
-0.1216956 -0.053310908 1.1286317 4025255
-0.11815683 -0.048388049 1.1307845 3632304
0.14999013 -0.06994234 1.1286331 4289211
-0.11401571 -0.039706714 1.1299806 3568048
0.14767258 -0.058949508 1.1290178 4094399
0.14966175 -0.063467026 1.1304659 4224702
-0.11224847 -0.033826761 1.1281101 3764911
-0.10848235 -0.029725939 1.1304983 3895729
0.1457724 -0.050338794 1.129585 4487616
-0.11206184 -0.015609436 1.130637 6458567
-0.10743174 -0.019765049 1.1301376 3895996
0.14654955 -0.039359819 1.1282434 5735616
0.15364201 -0.036655989 1.1277617 9477559
-0.11141612 -0.012943223 1.131567 6852289
-0.10817432 -0.013193354 1.1315683 5933254
0.065864421 0.075152539 1.1249934 9474701
-0.032233462 -0.22326493 1.1489148 7248329
0.00039350893 -0.22739908 1.1481702 5801654
0.008478865 -0.22690448 1.147611 5210039
0.021189932 -0.22848511 1.1489657 6328255
0.028833877 -0.2290749 1.1489689 7379645
0.040369824 -0.22984299 1.1489706 8430007
0.048427857 -0.228791 1.1449291 8625323
-0.069415495 -0.21245787 1.1406901 9678537
-0.058611684 -0.21312281 1.1472187 4422071
-0.04935091 -0.21447694 1.1487135 2778029
-0.039756171 -0.21703699 1.1487647 2513574
-0.032372817 -0.22032583 1.1488386 2315684
-0.0025811829 -0.22335657 1.1488701 2120102
0.0094307326 -0.2242834 1.1488751 2185635
0.022618882 -0.22420287 1.1488521 2186146
0.027994601 -0.22571576 1.148883 2316696
0.043450981 -0.2247121 1.1488323 4486314
0.051016405 -0.2249521 1.1468259 5997746
0.062361941 -0.22283772 1.1476103 6063288
0.071121447 -0.22201538 1.1487182 6589614
0.079185329 -0.22285721 1.1487274 8757678
-0.073917285 -0.2001152 1.1403762 1855898
-0.067403302 -0.20304862 1.1436813 2249885
-0.05991371 -0.20583731 1.147778 2381985
-0.051970437 -0.20856459 1.1485639 3039902
0.065545104 -0.21598473 1.1485703 2841504
0.07159318 -0.21590233 1.1485586 3302564
0.081302866 -0.21442485 1.1471709 4420011
0.091134347 -0.21446249 1.1427739 6984117
0.10075411 -0.21250208 1.1404212 6254993
-0.084220879 -0.18875161 1.1408973 2710418
-0.076762617 -0.19250618 1.1445652 2775447
-0.070225798 -0.1951721 1.1474442 2906776
0.084352359 -0.20672196 1.1478995 3171492
0.092939615 -0.20608032 1.1450682 3237285
0.10133889 -0.20562136 1.1408129 3629215
-0.086559117 -0.18149948 1.1447138 2775191
-0.078710906 -0.18553987 1.1473407 2906012
0.095601976 -0.19701615 1.1463621 3040421
0.10264973 -0.19596094 1.1429363 3105703
0.10851528 -0.19674368 1.139999 2777257
-0.10077002 -0.16641933 1.1395426 2710677
-0.094316423 -0.17072013 1.1431748 2709909
-0.088390559 -0.17473085 1.1457411 2709910
0.10444838 -0.18760483 1.1462964 3368100
0.11214304 -0.1864734 1.1418602 3302561
-0.10148644 -0.15972123 1.1424817 2710421
-0.096928202 -0.16282579 1.1466454 2644886
0.10709979 -0.17998809 1.1475683 3040936
0.11535438 -0.17757237 1.1454047 3237031
0.12195911 -0.1752494 1.1424197 3368615
-0.1101082 -0.14607014 1.1390282 2776209
-0.10502933 -0.15083118 1.1438956 2841240
0.11803719 -0.16921633 1.1472708 3237287
0.124638 -0.16762757 1.1420743 3302822
-0.11058702 -0.13924484 1.1433864 2710683
-0.10615386 -0.14281487 1.1462731 2841499
0.12754567 -0.15934573 1.1444099 3237541
0.13270614 -0.15712133 1.1405308 3237798
-0.11205059 -0.13053775 1.143772 2907293
0.12990403 -0.1506708 1.1467698 3237797
0.13481171 -0.14863002 1.1417072 3303334
-0.11744685 -0.11849764 1.139466 2907805
-0.11537061 -0.12014019 1.1455647 2907805
0.13737115 -0.13937289 1.1440188 3434407
-0.11722618 -0.10914304 1.1407468 3039392
-0.11469757 -0.1103844 1.1461103 3039391
0.14004527 -0.12998459 1.1436434 3500202
0.14439951 -0.12754065 1.1381425 3631274
-0.11965857 -0.099714816 1.1423727 3170979
0.14278468 -0.11984592 1.1455032 3631791
0.14620179 -0.11969009 1.1397139 3566510
-0.11926358 -0.089337163 1.1432836 3105957
0.14281766 -0.10873695 1.1439915 3632305
0.14794733 -0.11038917 1.1380243 3501227
-0.11887643 -0.079374492 1.1407374 3237546
0.14305779 -0.099683292 1.1428766 3698099
0.14762439 -0.1005483 1.1378356 3698094
-0.11750495 -0.069700137 1.1407219 3434923
0.14500472 -0.090520874 1.1431808 3895479
0.14707643 -0.092851773 1.1372362 3895477
-0.11632175 -0.059290316 1.1410686 3566256
0.14613432 -0.079240762 1.1442195 4027579
0.1486599 -0.078945294 1.1408733 4157882
-0.11464579 -0.050505955 1.1400809 3567024
0.14483336 -0.069590703 1.1434608 4159422
0.1491318 -0.070185065 1.1390443 4289724
-0.11158475 -0.040936552 1.1376303 3567791
-0.10833322 -0.039109074 1.1429129 3764403
0.14389829 -0.059493441 1.1417089 4356797
-0.1059193 -0.030495405 1.1365877 3830196
0.14197902 -0.049761649 1.1405252 4619718
-0.10360841 -0.019682378 1.1386414 3896507
0.13881572 -0.037580639 1.1407026 4817095
0.14328049 -0.038588066 1.1374984 4948420
-0.11048701 -0.0099252611 1.1394898 6916535
-0.10306118 -0.011037946 1.1391991 5210049
0.1384666 -0.031090416 1.1426462 5013440
0.1429427 -0.031078488 1.1403046 5998788
0.044129401 0.05035121 1.1365337 5859448
0.052305937 0.049749397 1.1346786 6122362
0.0578641 0.049527802 1.1376766 6319482
0.069047324 0.050039403 1.141647 5330522
0.045049265 0.054699369 1.1348948 5792108
0.052916005 0.054925881 1.134343 5527648
0.05819989 0.05387909 1.1375629 5067354
-0.026499392 -0.22360146 1.1519153 4354997
-0.019237461 -0.22513971 1.1539446 4684224
-0.0093487687 -0.22564587 1.1524749 4289976
0.0017743213 -0.22421014 1.1518863 2054307
0.012133081 -0.22555992 1.1519049 2777510
0.017522827 -0.22707677 1.1519359 4026798
0.033945434 -0.2283439 1.1519427 5604271
0.037904069 -0.22699785 1.1519015 4881326
-0.044628166 -0.21182194 1.1516378 3039902
-0.036771767 -0.21333534 1.1521649 2710943
-0.028470246 -0.21581671 1.1550215 2645152
-0.018835647 -0.21933797 1.1584613 2514339
-0.00891646 -0.22001335 1.1579297 2514851
0.0011627208 -0.21831885 1.1563357 2842787
0.011048351 -0.21871424 1.1541295 2908579
0.020722559 -0.21905193 1.1546121 3039651
0.0308346 -0.22050807 1.1557454 2908578
0.040224016 -0.22036487 1.1554767 2778020
0.050350711 -0.21954098 1.1531169 2646433
0.059689842 -0.22299039 1.1517627 5012145
0.071087129 -0.22515428 1.1518009 8955830
-0.056973234 -0.20242047 1.1516987 2841242
-0.047315285 -0.20519045 1.1538038 2775960
-0.038428091 -0.2071043 1.1557734 2841500
-0.029209057 -0.20989603 1.159566 2907551
0.002450848 -0.21159977 1.1595601 3105184
0.011666173 -0.21194127 1.1595544 3170722
0.021588113 -0.21270682 1.1595585 3302053
0.031736311 -0.21293554 1.1595483 3170723
0.042280339 -0.21282524 1.1595287 3105188
0.051643372 -0.21279684 1.1577983 3170467
0.061232008 -0.21342799 1.1539124 3236258
0.07160946 -0.21082845 1.1518722 3171236
-0.072668597 -0.18984064 1.1511106 2906776
-0.066327281 -0.19254228 1.1523142 2907033
-0.057971992 -0.19407827 1.1560326 2841497
-0.04905083 -0.19875698 1.1593078 2775704
0.05305168 -0.20737411 1.1593698 3105443
0.061871178 -0.2080546 1.1593735 3105443
0.072918274 -0.20521232 1.1580186 3105956
0.081475519 -0.20308647 1.1544117 3105956
-0.082772419 -0.17805117 1.1508201 2644884
-0.07599356 -0.18207367 1.153915 2775705
-0.067863636 -0.18551143 1.1566591 2841497
0.077053316 -0.19813979 1.1590917 3172006
0.084870353 -0.19638056 1.1580331 3040421
0.09089309 -0.19455448 1.1554753 2974628
-0.090855464 -0.16861962 1.1505877 2645144
-0.084363304 -0.17081362 1.1536944 2710425
-0.079282567 -0.17389479 1.1552795 2776216
0.095015481 -0.18620339 1.1555017 3171493
0.10014651 -0.18444505 1.1522968 3237026
-0.093264587 -0.16032746 1.1529651 2710424
-0.087077484 -0.16291673 1.1569811 2710937
0.098428011 -0.17983378 1.1585817 3302823
0.10504998 -0.17633113 1.1553211 3172005
0.11106914 -0.17366856 1.1544 3172006
-0.10104165 -0.14838293 1.1500776 2841498
-0.096845686 -0.1511053 1.1550665 2907290
0.10809796 -0.16949366 1.1582974 3303592
0.11458594 -0.16663794 1.1568792 3237544
0.12104318 -0.16294965 1.150104 3303337
-0.10214841 -0.13977291 1.1515703 2973342
-0.097801127 -0.1430749 1.1579372 3038879
0.11880522 -0.15916184 1.1573449 3237544
0.12337915 -0.1565958 1.1527361 3303336
-0.10926322 -0.12765898 1.1505522 2973342
-0.10345188 -0.13116282 1.1551355 2973600
0.12748231 -0.14773139 1.1536994 3368872
-0.11022999 -0.11966533 1.1516992 3039392
-0.10487135 -0.12075281 1.1573679 3236259
0.12950829 -0.13837692 1.1552036 3500460
0.13410306 -0.13643269 1.1493938 3434923
-0.11058436 -0.1099556 1.1519834 3170978
0.1312353 -0.12953356 1.1558878 3500719
0.13610318 -0.12748916 1.1524925 3500718
-0.11627453 -0.098397225 1.1488019 3237029
-0.11256895 -0.099900514 1.1548373 3237286
0.13712567 -0.11861532 1.155033 3697329
-0.11559885 -0.089641467 1.1485732 3237543
-0.11300202 -0.089209571 1.1560605 3172263
0.13904035 -0.10964081 1.1542912 3697843
-0.11515483 -0.079934873 1.1513212 3303340
-0.11299535 -0.078895696 1.1562923 3303852
0.13961935 -0.099201731 1.1544188 3764149
-0.11447171 -0.070277691 1.1480678 3500716
-0.11164436 -0.068916723 1.1560307 3501229
0.14335257 -0.089062817 1.1527202 3764661
-0.11348737 -0.062279746 1.1478583 3566512
-0.11005539 -0.058999494 1.1521326 3632306
0.14116473 -0.078661218 1.1523523 3896764
-0.10871547 -0.049456779 1.1518824 3698357
0.13597327 -0.068136349 1.1542838 4291265
0.13969709 -0.069739819 1.1487938 4225217
-0.10641691 -0.040612068 1.1512851 3764408
0.13749106 -0.058642421 1.1533675 4554434
0.14009969 -0.058725402 1.1473634 4488640
-0.10264473 -0.030141696 1.1518071 3895997
-0.098284602 -0.027186304 1.1549243 4027323
0.1379295 -0.047876086 1.1520865 4817354
-0.10037835 -0.020848028 1.1480939 3962044
-0.096311659 -0.019800149 1.1539289 4093118
0.12958291 -0.034790557 1.1547605 5014224
0.13474433 -0.038032707 1.1508353 4751563
-0.098484926 -0.010590009 1.1464903 4290235
-0.093600571 -0.01071994 1.1510209 4158908
-0.087256029 -0.0088210851 1.1544292 4028609
0.12846248 -0.027693585 1.1527994 4817874
0.13514045 -0.028059572 1.1475743 5145287
-0.090715557 -0.0043327585 1.1487161 4487616
-0.085139476 -0.0019813776 1.1529143 4356800
0.12059677 -0.014544636 1.1522477 5276623
0.12668201 -0.018131062 1.1486156 5604813
0.1359624 -0.02010414 1.1472549 6720449
-0.082503997 0.0048548281 1.1540661 5671109
0.11917329 -0.0088173971 1.15353 5802961
0.12545633 -0.010180101 1.1494588 6787017
0.044534598 0.012790747 1.1536582 12972031
-0.0097956825 0.02686996 1.1513776 5869264
0.022232819 0.020793721 1.1534854 7515376
0.029676545 0.019849822 1.1534982 8764660
0.039221488 0.018669918 1.1535137 10146554
0.045756731 0.017130941 1.1535434 10870005
-0.066723049 0.039439611 1.145139 8028800
-0.061585642 0.039410211 1.1451316 7305855
-0.0053270683 0.027724229 1.1533489 5671370
-0.0020197555 0.027469046 1.1533502 5869265
0.021131432 0.025682747 1.15336 6988787
0.025541181 0.025342487 1.1533618 7185904
0.11221167 0.027524136 1.1531676 6314850
-0.059984393 0.044302247 1.1450018 8028802
0.10939699 0.031288914 1.1530741 6117979
0.086305477 0.043412991 1.1447928 5593178
0.088495158 0.043244042 1.1447937 5658970
-0.023971805 -0.21316916 1.1636442 2973083
-0.018525967 -0.2147018 1.1636754 2973595
-0.0090907048 -0.21498096 1.1643347 2973598
-0.043030672 -0.20057419 1.1633469 2842012
-0.036776483 -0.20244731 1.1633857 2776219
-0.027651211 -0.20559862 1.1649776 2907806
-0.018188039 -0.20766903 1.1666509 2907807
-0.0077022128 -0.20901552 1.1668448 2973599
0.0013278015 -0.20743641 1.1641219 3039136
0.012116985 -0.2072587 1.164767 3170723
0.022074267 -0.20792472 1.1641017 3236770
0.031878754 -0.20823668 1.1634274 3170979
0.040915243 -0.20871998 1.1634256 3170980
0.047680661 -0.20757332 1.163385 3171236
-0.053410314 -0.19087374 1.1631112 2842012
-0.046892971 -0.19361021 1.164627 2842011
-0.037479274 -0.19657513 1.1656965 2842012
-0.029324731 -0.19861746 1.1672757 2907805
0.016912147 -0.20358032 1.1673313 3302309
0.02299373 -0.20291966 1.1661613 3302308
0.031628951 -0.20349994 1.1648051 3171236
0.042320166 -0.20493482 1.163325 3171236
0.053023145 -0.20434 1.1649597 3105443
0.062963612 -0.20319653 1.1642473 3171492
0.069636814 -0.20185113 1.1632013 3040420
-0.073575407 -0.17819341 1.1628134 2841497
-0.065035716 -0.18159485 1.1634219 2907291
-0.056823932 -0.18485096 1.164843 2907549
-0.050256528 -0.18649089 1.1669935 2907551
0.066609949 -0.19625229 1.1670619 3040420
0.073744632 -0.19500592 1.1651227 3106213
0.081739448 -0.19306959 1.1629539 3106214
-0.074572422 -0.17156035 1.1646432 2907290
-0.068223886 -0.17489803 1.1662203 2973340
0.078395344 -0.18823153 1.1668346 3302823
0.084602773 -0.18638194 1.1643759 3237030
0.090987004 -0.18345413 1.1644675 3237031
-0.090845324 -0.1568369 1.1622854 2841497
-0.082739681 -0.16093728 1.1629127 2842012
-0.076805845 -0.16357279 1.1654394 2907547
0.09674681 -0.17621605 1.1634151 3368361
0.10206481 -0.17339018 1.1624098 3237285
-0.091865167 -0.15082516 1.1621307 2973085
-0.085117303 -0.15149975 1.1648753 3039135
0.099597894 -0.16930628 1.1623075 3368615
0.10636055 -0.1664699 1.1629505 3237799
0.11117229 -0.16352467 1.1621388 3303337
-0.098244466 -0.13735443 1.1617906 2973857
-0.093100503 -0.14125004 1.1634398 3039137
-0.087248668 -0.14252093 1.1659088 3104930
0.10892267 -0.15911454 1.1640283 3172264
0.11534746 -0.15674689 1.1626228 3238059
-0.098799884 -0.12906148 1.1625761 3039650
-0.095102325 -0.13287322 1.1656704 3105700
0.1193285 -0.14724587 1.1638571 3369132
0.12351472 -0.14779033 1.16171 3434410
-0.10088828 -0.12029595 1.163066 3171236
0.12184103 -0.13926873 1.1646922 3500719
0.12537868 -0.13726284 1.163434 3435183
-0.10708803 -0.10774852 1.1610347 3302823
-0.10259854 -0.1100101 1.163754 3171495
0.12691475 -0.12726197 1.1629896 3566514
-0.10816319 -0.09896943 1.1622632 3368873
-0.10458241 -0.10037978 1.1640402 3368875
0.13032791 -0.11833449 1.1617335 3697588
-0.10836535 -0.089831971 1.1632384 3303850
0.13263349 -0.10881867 1.1641119 3763892
0.13589634 -0.10847518 1.160668 3698099
-0.10892182 -0.079584286 1.1619058 3435181
-0.10311738 -0.080460146 1.1643201 3435438
0.13442987 -0.098788887 1.1644198 3829942
0.13730592 -0.098535135 1.1615505 3764149
-0.10714412 -0.070012078 1.1620542 3501229
0.13545744 -0.085473001 1.1640719 3896505
0.13961527 -0.08874099 1.1619678 3830455
-0.10578988 -0.060241494 1.1613362 3632563
-0.10131913 -0.057157356 1.1637113 3567542
0.13365164 -0.078223348 1.1613139 4027837
0.13859114 -0.082206935 1.1599807 3896505
-0.10425978 -0.05027971 1.1608695 3829940
-0.10080533 -0.050499413 1.1635373 3699127
0.13289587 -0.068493649 1.1623006 4291009
-0.10306327 -0.040218022 1.1600724 3895737
-0.099326946 -0.039610315 1.1632518 4027576
0.13396227 -0.058527876 1.1613729 4422849
-0.10137036 -0.033655912 1.1590989 4158911
-0.096608147 -0.03026215 1.1610037 4093372
0.13465492 -0.048824206 1.1606193 4817355
-0.09214852 -0.021194331 1.1602992 4093630
-0.08713606 -0.018066198 1.1626722 4094397
0.12805195 -0.037519608 1.1610583 5080014
0.13230298 -0.04111753 1.1589221 4883149
-0.089452505 -0.013809852 1.1585639 4028348
-0.084760889 -0.011568472 1.1599987 4028864
0.12431402 -0.027573615 1.1603609 4949202
-0.080470294 -0.0022730753 1.1600684 4029123
-0.07608857 -0.00031420588 1.1621931 3963586
0.11900694 -0.017249964 1.1609901 5146069
0.1220956 -0.021974623 1.1584405 5080276
-0.079066522 0.0054127872 1.1580476 5342665
-0.071793437 0.007110998 1.1619931 4882633
-0.0082316697 0.0059847981 1.1619216 6070261
-0.0015714653 0.0054709092 1.1619244 6528744
0.00508874 0.0049570203 1.1619271 8827627
0.020629212 0.0037579387 1.1619337 10340848
0.029301975 0.0024508983 1.1619539 8895736
0.036732949 0.0011759028 1.1619753 6266608
0.11096333 -0.003796339 1.1609864 5475287
0.11515888 -0.0076907873 1.1594138 5475028
-0.067872763 0.012763083 1.1598393 5999306
-0.061146215 0.013356514 1.1598132 5540557
-0.052347586 0.016003922 1.1590635 5803727
-0.039528988 0.016833648 1.1616892 4950220
-0.030679153 0.015023291 1.1617222 5016280
-0.021029724 0.013655581 1.1613423 5411294
-0.011015192 0.012821227 1.1595075 5806569
-0.0010521449 0.012108169 1.1611507 7120874
0.0085668461 0.012130417 1.1617351 12379901
0.019086169 0.010727115 1.1592277 13891069
0.0288537 0.0097165927 1.1585646 12969723
0.038799316 0.0092099756 1.1594465 9946095
0.048824579 0.0082147643 1.1598594 10013177
0.058676891 0.0093338341 1.1595738 7449069
0.065459788 0.010717355 1.1616815 5411552
0.10835774 0.00026480854 1.1593845 6526426
-0.037175015 0.021613188 1.1615611 6264275
-0.029544679 0.021764837 1.1590443 5803990
-0.019949282 0.021617025 1.1575323 5345755
-0.0098744202 0.022104792 1.1575037 5412839
-0.00026564486 0.021971121 1.157992 5676266
0.0086784754 0.020418808 1.1603762 7253489
0.018465355 0.019433185 1.1585284 8436213
0.028242564 0.016415365 1.1575911 12051453
0.04296498 0.01972919 1.1574816 10082302
0.05072549 0.018388778 1.1575042 10607102
0.059120543 0.016893454 1.1575297 7515119
0.066093504 0.015774935 1.1588815 6068200
0.002375613 0.027310766 1.1573489 6001365
0.0068005538 0.026969351 1.1573507 6396124
0.11941662 0.024064802 1.1572475 6447199
-0.014411597 -0.20400959 1.1713936 3039391
-0.0068439953 -0.20398065 1.1728814 3039135
0.004523552 -0.20547059 1.1714015 3104930
-0.042511992 -0.19064058 1.1710905 2776478
-0.036219701 -0.19197193 1.1731158 2842271
-0.026468338 -0.19431114 1.1753438 2907807
-0.01741031 -0.19686091 1.1759098 2908063
-0.0074843951 -0.19844994 1.17704 2973600
0.0028813686 -0.19827688 1.1765522 3105187
0.01280633 -0.19871458 1.1756279 3236773
0.02258515 -0.19814393 1.174917 3237029
0.033494323 -0.19906977 1.1749904 3171237
0.043041214 -0.20081869 1.17272 3171236
0.052653104 -0.20001167 1.1721066 3105444
0.061588362 -0.19923283 1.1711488 3171493
-0.053983167 -0.18077807 1.1740533 2841758
-0.046083182 -0.18368027 1.1749165 2907551
-0.037279412 -0.18539536 1.1777717 2842271
-0.026714144 -0.1873717 1.1789832 2908064
-0.020072082 -0.18901193 1.1790153 2973857
0.0012350632 -0.19065595 1.1790242 3105444
0.01414609 -0.19064972 1.1790036 3237030
0.024133826 -0.19185814 1.1782188 3302823
0.033827327 -0.19182581 1.1780795 3171495
0.043269753 -0.19115348 1.1775787 3105703
0.052931257 -0.19216372 1.1773808 3105703
0.062745087 -0.19247098 1.1754726 3105702
0.07124313 -0.19068839 1.1726261 3105958
-0.064639941 -0.17227785 1.1722957 2973598
-0.05679328 -0.17449512 1.1766953 2907551
-0.047070473 -0.1770612 1.1787474 2908065
0.065172277 -0.18413851 1.1787533 3237288
0.074018016 -0.18416926 1.1762948 3302823
0.08280921 -0.18287727 1.1732621 3237287
-0.073148519 -0.16029139 1.173208 3105183
-0.065961532 -0.16414399 1.1765584 2974112
-0.057851404 -0.16692565 1.1785009 2842786
0.076029874 -0.17748125 1.178563 3171750
0.084910125 -0.17458156 1.1771396 3172008
0.093081199 -0.17356503 1.1727654 3303081
-0.080508642 -0.15007232 1.1707628 3104930
-0.074469127 -0.15270901 1.1768237 3170978
0.088035487 -0.1664215 1.1782563 3303337
0.095904283 -0.16556355 1.1759707 3368873
0.10292132 -0.16487864 1.1727362 3237543
-0.089327008 -0.13651776 1.1724249 3040164
-0.082910746 -0.14075039 1.173648 3105701
-0.076882586 -0.14553414 1.1779748 3302822
0.098170102 -0.15663511 1.1779858 3303597
0.10573161 -0.15489857 1.1735634 3238059
0.11301713 -0.15243703 1.1718509 3303852
-0.09127257 -0.12998714 1.1733696 3106213
-0.083680302 -0.13251072 1.177647 3172007
0.10733329 -0.14581974 1.1774899 3369387
0.115261 -0.14629062 1.1736882 3435181
-0.09762156 -0.11929627 1.1706564 3237030
-0.091112517 -0.1203609 1.1750087 3237800
-0.08501561 -0.1242317 1.1774337 3303594
0.10961251 -0.13992551 1.177533 3500972
0.11832129 -0.13639253 1.1741762 3500976
0.12320715 -0.133982 1.1693542 3500977
-0.098042786 -0.1099354 1.1721921 3237545
-0.093514673 -0.1118501 1.176236 3303852
0.12084134 -0.1269585 1.177178 3566772
0.12412222 -0.12764779 1.1731893 3566515
-0.099800706 -0.10006072 1.1720771 3369389
0.12242904 -0.11752222 1.1769301 3763639
0.12584704 -0.11697545 1.17202 3763639
-0.10550428 -0.085796624 1.1697979 3435181
-0.10042609 -0.0898012 1.1731331 3435438
0.12392259 -0.10652134 1.1766417 3895737
0.12889372 -0.10691973 1.1714659 3764149
-0.1045056 -0.079352073 1.1706957 3435438
-0.099191934 -0.080289118 1.1747745 3501231
0.12435514 -0.1009161 1.1764952 3961530
0.1300163 -0.097497009 1.1712191 3961528
0.13743877 -0.094757088 1.1683116 3895735
-0.10351246 -0.070136964 1.1710547 3501489
-0.099235415 -0.070169002 1.1739321 3501490
0.12573931 -0.082979336 1.1760266 4159679
0.13106644 -0.088202596 1.1714251 3962041
0.13761061 -0.092530191 1.1682534 3895735
-0.10341704 -0.062809691 1.1698637 3501747
-0.098372966 -0.059930682 1.1724484 3567541
0.12548192 -0.076569051 1.1758603 4225473
0.12911963 -0.077457748 1.1718762 4159424
-0.095824949 -0.049976472 1.1711184 3764919
0.12591518 -0.067706004 1.1756291 4422597
0.1298956 -0.067402489 1.1716135 4357059
-0.094582394 -0.040278506 1.1706928 3896505
-0.089828126 -0.040408902 1.1752616 3962298
0.12660763 -0.057108715 1.1753525 4685767
0.13067156 -0.057347234 1.1713508 4422851
-0.092426449 -0.031342529 1.1686277 4027836
-0.087283023 -0.02983164 1.1738913 4028094
0.12554963 -0.046460729 1.1729589 4948684
0.13127761 -0.048931357 1.16813 4751818
-0.090113968 -0.023435503 1.166818 4093632
-0.084284157 -0.02027373 1.1725746 4094399
0.11962487 -0.035519112 1.1748021 5080784
0.12383527 -0.037039325 1.1700333 5211343
-0.080398232 -0.012147412 1.1708741 4094402
-0.073649265 -0.0095273405 1.1734326 4226244
-0.067047097 -0.0083349645 1.1743914 4620744
-0.013132008 -0.011367239 1.1743847 5412064
0.0092965662 -0.013097785 1.1743941 6463211
0.017049311 -0.017543517 1.1744975 6397929
0.026757464 -0.017650142 1.1744848 6397929
0.036111988 -0.01645565 1.174439 6003432
0.1173394 -0.026104555 1.17206 5081042
0.12228747 -0.029743284 1.1666449 5081041
-0.07170061 -0.0019791871 1.1680981 4160963
-0.063567281 -0.0015302151 1.1733515 4752075
-0.048325643 0.00037002563 1.1741353 4949201
-0.041640326 -0.00070967525 1.1741529 5016022
-0.032174468 -0.0025800839 1.1735195 5213659
-0.022443308 -0.0042521805 1.1729833 5411552
-0.012685824 -0.0057778284 1.1734384 5740773
-0.0026066024 -0.0065407529 1.1742425 6003172
0.007484721 -0.0073267817 1.1738468 6331366
0.017550919 -0.0081457719 1.1712512 6989552
0.027623389 -0.0089166984 1.1716554 6792432
0.03767952 -0.0097020492 1.1710097 5937640
0.046216406 -0.0093846619 1.1732386 5806054
0.057002142 -0.0088846236 1.1742089 5674725
0.063817225 -0.0082827285 1.1741824 5674983
0.10932081 -0.014331095 1.1742675 5146841
0.1151535 -0.016997866 1.1686113 5080789
-0.067659102 0.0061942637 1.1660118 4554184
-0.064154088 0.0068307742 1.1689907 4751049
-0.048920833 0.0060023218 1.1719891 4818129
-0.041501135 0.0054112226 1.1711924 5015507
-0.031993173 0.0046025589 1.1677972 5147609
-0.021916842 0.0037956089 1.1665018 5346018
-0.012329824 0.0027408004 1.169126 5937898
-0.0019685421 0.0011987314 1.169372 6462952
0.0085130762 0.001116477 1.1684682 8303605
0.017849913 0.0002662465 1.1674594 8501495
0.02760176 -0.0014880076 1.166676 7252467
0.038920466 -0.0017952472 1.1675055 6069484
0.048126884 -0.0013926104 1.168342 6135528
0.058184676 -0.0024725422 1.1714511 5741031
0.067564122 -0.0029583722 1.1730376 5543655
0.077116631 -0.0023690537 1.1740075 5477092
0.087254032 -0.0018211007 1.1739771 5739747
0.098573685 -0.0029451251 1.1739885 5280481
0.10755914 -0.0063670501 1.1703696 5015513
0.11287659 -0.0088148788 1.1681163 4949463
-0.060460567 0.012359336 1.1658401 4818122
-0.050978489 0.012623332 1.1658182 5147606
-0.042258069 0.012697197 1.1658025 4818639
-0.033728592 0.010296747 1.1658514 5344472
0.010867661 0.0074158087 1.1658554 12971007
0.015280028 0.0065153167 1.1658719 12905215
0.039784335 0.0046246052 1.1658821 5807584
0.053150326 0.0035933107 1.1658878 6004710
0.059270494 0.0040811673 1.1658654 5807083
0.068230279 0.005928047 1.1679372 5477863
0.076679736 0.0049056932 1.1704845 5542628
0.088232346 0.0011106655 1.1738994 5673698
0.098918349 0.0022109374 1.1723533 5804766
0.1043866 -0.00035999715 1.1659093 5147865
0.071830884 0.013352782 1.1656044 5412324
-0.013584543 -0.1923357 1.1830927 3039650
-0.0072042774 -0.19347458 1.1831123 3039650
-0.033231005 -0.18289903 1.1828785 2842271
-0.026479648 -0.18341996 1.1828814 2973857
-0.016266873 -0.1852693 1.1841768 2973857
-0.0066764131 -0.18773377 1.1854893 3039395
0.0040995758 -0.18664506 1.184695 3171237
0.013486425 -0.18596596 1.1839511 3237030
0.023844659 -0.18620095 1.1844128 3302569
0.032147907 -0.18698853 1.1842149 3237546
-0.052036077 -0.17094088 1.1825974 2908065
-0.044555381 -0.17248797 1.1826258 2973857
-0.036033064 -0.17488793 1.1836749 2973857
-0.026459878 -0.17750354 1.1848458 2973858
-0.018252527 -0.17891896 1.1867526 3105444
0.013360178 -0.18135813 1.1867658 3237030
0.025142899 -0.18075345 1.1867315 3302825
0.034082718 -0.18099493 1.1864157 3171754
0.043868393 -0.18231386 1.1847416 3171752
0.054213122 -0.18270281 1.1841469 3171753
0.062865108 -0.18025514 1.1836576 3237546
0.071244702 -0.17851323 1.1825987 3303592
-0.062453687 -0.16065367 1.1823465 2908579
-0.054447882 -0.16339487 1.1844057 2908579
-0.044753887 -0.16559294 1.1853569 3105444
-0.036262736 -0.16799228 1.186497 3105443
0.058088921 -0.17572644 1.1865484 3303339
0.066271365 -0.17411312 1.1851597 3303082
0.074802183 -0.17271198 1.1830138 3237545
0.080940947 -0.17020904 1.1823673 3303850
-0.070587464 -0.14871067 1.1820488 3302822
-0.064322144 -0.15345223 1.1844128 3040165
-0.057503879 -0.15772459 1.1862637 3040167
0.070075944 -0.16756845 1.1863172 3303598
0.076426521 -0.16407734 1.1852748 3238061
0.085121453 -0.16273117 1.1832777 3303596
0.092974447 -0.16095364 1.1821076 3369131
-0.079529263 -0.13745967 1.1817703 3171751
-0.073399849 -0.14153846 1.1832789 3368615
-0.066794142 -0.14565416 1.1859646 3171751
0.095291942 -0.15450072 1.1834366 3369134
-0.080955878 -0.13027744 1.1815859 3369130
-0.075001046 -0.13262379 1.1846384 3434922
0.097160399 -0.14491349 1.1847324 3435183
-0.082012624 -0.12153984 1.1826941 3434923
0.10045046 -0.13804966 1.1847012 3501232
0.10743099 -0.13546351 1.1840109 3435694
0.11427339 -0.13430847 1.1813809 3501232
-0.089354359 -0.10980889 1.1820673 3369646
-0.083938822 -0.11394722 1.1838335 3435182
0.11185957 -0.1265133 1.1851833 3567282
0.11599052 -0.12635297 1.1829901 3567027
-0.09674523 -0.096527338 1.1807332 3501231
-0.092471763 -0.10072631 1.1835866 3435439
0.11246925 -0.1186128 1.1849769 3829686
0.11777219 -0.11624819 1.1831286 3829431
-0.096484818 -0.093152806 1.1806451 3501231
-0.091859281 -0.090217322 1.1822287 3567024
0.12079503 -0.10706492 1.1833296 3830201
-0.095399775 -0.079092249 1.1802777 3632818
-0.092232056 -0.080006801 1.1822971 3698612
0.12372149 -0.096669406 1.1823877 3896507
-0.094661951 -0.069531068 1.180028 3633333
-0.090839013 -0.069949232 1.1828337 3764919
0.12434189 -0.086494893 1.181622 4093886
-0.094434969 -0.060722556 1.1797985 3633334
-0.09033215 -0.06001956 1.1829748 3830201
0.12208846 -0.076651961 1.1820921 4291523
-0.089120083 -0.049823824 1.1811739 3896506
0.12240569 -0.06618043 1.1811969 4619975
-0.085114889 -0.040555384 1.1809741 4028348
0.11743373 -0.054280244 1.1832961 5146320
0.12167678 -0.056860544 1.1823561 4883148
-0.082680263 -0.031340525 1.1793016 3962814
-0.077605724 -0.030302286 1.1818389 3963072
0.11712111 -0.045444682 1.1815664 5146577
0.12074533 -0.047403213 1.1796108 5080527
-0.080612034 -0.022411443 1.1787803 4028607
-0.074313805 -0.021090291 1.1808699 4291526
-0.024384717 -0.022901267 1.1827052 5147865
-0.016915729 -0.023250483 1.1827023 5344731
-0.00058809295 -0.023602009 1.1826856 5345501
0.0061860587 -0.024124689 1.1826885 5739743
0.01616212 -0.027166873 1.1814179 5936862
0.025190417 -0.027863048 1.1817552 5871068
0.035453614 -0.02751828 1.1827302 5739228
0.053605109 -0.027783461 1.1827084 5213656
0.11593323 -0.036450304 1.1812342 4949970
-0.071971729 -0.013856053 1.1785442 4422856
-0.063195035 -0.0097107217 1.1802412 4686797
-0.052768573 -0.0093792826 1.1803979 4884690
-0.04251121 -0.011573657 1.1819391 4950486
-0.032146335 -0.013156228 1.1811303 5213659
-0.023695083 -0.015031695 1.1792984 5279707
-0.013651086 -0.016936548 1.1797321 5345244
-0.003390532 -0.016093962 1.179605 5411808
0.0063537667 -0.017967835 1.1794361 5806052
0.015420623 -0.021824934 1.1786127 6068964
0.027394108 -0.023125961 1.1786275 6068963
0.037586011 -0.021501236 1.1794925 6003173
0.046151347 -0.0204162 1.1803279 5608417
0.056321852 -0.021194585 1.1809322 5411038
0.06315989 -0.021708518 1.1825352 5279709
0.10785341 -0.023419701 1.1815854 5212630
0.11320384 -0.02747827 1.1799383 5015248
-0.059072614 -0.0043845624 1.1782774 4949712
-0.052321248 -0.0049054846 1.1782802 4949713
-0.04219421 -0.0056868717 1.1782844 5016279
-0.032846257 -0.0067853183 1.1782981 5213659
-0.02427738 -0.0082008317 1.1783214 5345501
0.048343152 -0.013238348 1.1783371 5871590
0.056825757 -0.013327084 1.178326 5871847
0.067227535 -0.011838891 1.1802714 5543139
0.074578829 -0.011266552 1.1805307 5280225
0.099030636 -0.013122633 1.182255 5411294
0.10476223 -0.015048578 1.1797497 5279196
0.077168256 -0.006410107 1.1781138 5411556
0.086862899 -0.0054608136 1.1780738 5412066
0.098115169 -0.0063290223 1.1780785 5477344
0.10469291 -0.0090996325 1.17814 5213404
-0.0053236503 -0.18309656 1.1908422 3105189
-0.024981594 -0.17306574 1.1916128 3039906
-0.015472788 -0.17592838 1.1921009 3039908
-0.0060526915 -0.17776959 1.1940391 3105447
0.0045808274 -0.17787871 1.1914409 3105702
0.013732598 -0.17735207 1.1906625 3171750
0.02272398 -0.17763159 1.1906555 3237289
0.034298196 -0.17666052 1.1906118 3237548
0.044493608 -0.17744718 1.1906161 3171752
0.053556196 -0.17814645 1.1906199 3171752
-0.051672086 -0.15954673 1.1903032 3039909
-0.043900535 -0.16085634 1.1912142 3105701
-0.035969414 -0.16408184 1.1929425 3105443
-0.026811017 -0.17015846 1.1945411 3040163
0.0039479127 -0.17161736 1.1945302 3105960
0.015399863 -0.17138337 1.1945059 3105958
0.024585787 -0.17059761 1.1936706 3237545
0.035033174 -0.17036852 1.192553 3237547
0.045069866 -0.17084241 1.192044 3237544
0.055121936 -0.17138797 1.1921265 3237545
0.06390024 -0.17009842 1.1910611 3303339
-0.062161714 -0.14928216 1.190053 3172009
-0.054003492 -0.15302157 1.192538 3105961
-0.044863008 -0.15590684 1.1941991 3171752
0.038853236 -0.16379499 1.1942713 3303337
0.045672968 -0.1643212 1.1942743 3303593
0.055815347 -0.16412406 1.194253 3303594
0.065194808 -0.16225874 1.1929393 3303596
0.072108611 -0.161351 1.1901537 3238062
-0.068869643 -0.14022073 1.1898279 3434409
-0.063276149 -0.1423462 1.1926988 3237547
-0.05514212 -0.1453203 1.1939402 3237805
0.066717431 -0.15502295 1.1939991 3238318
0.076210834 -0.15284401 1.192807 3238572
0.086319037 -0.15345278 1.1911262 3434926
0.092845105 -0.15338188 1.1899136 3369134
-0.07050699 -0.13100633 1.1908221 3435179
-0.064731851 -0.13340697 1.1932009 3369388
0.081349902 -0.14649996 1.1937542 3500977
0.087225765 -0.14343107 1.1926647 3435186
0.092661269 -0.14395046 1.1896687 3500720
-0.078171588 -0.11965009 1.1903081 3566511
-0.072704762 -0.12291502 1.1920515 3566767
-0.065709434 -0.12600908 1.1934547 3500977
0.089273356 -0.13592282 1.1929665 3501234
0.097322606 -0.13416749 1.1901571 3501490
-0.086726166 -0.10580671 1.1889614 3566770
-0.080334119 -0.1108275 1.1916827 3632306
-0.074100964 -0.1162176 1.1932133 3632563
0.09978839 -0.12562266 1.1917698 3699127
0.10730588 -0.12496745 1.1896225 3633076
-0.08749973 -0.10011762 1.189815 3566770
-0.08157669 -0.10139725 1.1928399 3763892
0.10137879 -0.11661282 1.1929452 3633335
0.10820124 -0.11500286 1.1904473 3764407
-0.08685296 -0.090013593 1.1913518 3698868
-0.082566813 -0.090926386 1.1925691 3699126
0.10286779 -0.1047262 1.1926337 3962811
0.10937958 -0.10534776 1.1914725 3830969
0.11706091 -0.106233 1.1886491 3830714
-0.087260306 -0.080048881 1.1892158 3699126
-0.082049735 -0.08093328 1.1923084 3830712
0.110842 -0.09547922 1.1917804 4028606
0.11896776 -0.096290238 1.1883875 3962300
-0.085951105 -0.070621632 1.1896458 3830970
-0.081035748 -0.070615649 1.1920385 3962813
0.11181061 -0.086455859 1.1921444 4291522
0.11969519 -0.086745396 1.188502 4094399
-0.085477091 -0.060559656 1.1894976 3962044
-0.080633983 -0.061176073 1.1917925 4093630
0.11421593 -0.075875476 1.1915988 4554438
0.1189844 -0.077088177 1.1878881 4357059
-0.084083214 -0.050606955 1.1888555 4093886
-0.079457469 -0.050163411 1.1915042 4291009
0.11319881 -0.06524083 1.1907014 4686026
0.11919848 -0.065875627 1.1875962 4685769
-0.081919745 -0.0435226 1.1873341 4159935
-0.076738261 -0.041372694 1.1901281 4225985
0.10672581 -0.05473185 1.1913276 5015248
0.11269293 -0.056539655 1.1886976 5014991
-0.072977066 -0.031838059 1.1891344 4292037
-0.067787826 -0.034408674 1.1910759 4619977
-0.044529289 -0.029345259 1.1909074 5279449
-0.036572948 -0.029959157 1.1909107 5016538
-0.02415779 -0.03206009 1.1909456 4950743
-0.014792593 -0.034463584 1.1909933 4950488
-0.0057098847 -0.035007503 1.1909931 5147351
0.0047822176 -0.034864552 1.1909727 5278422
0.015140511 -0.038007643 1.1901488 5212886
0.024514303 -0.038089007 1.1892747 5278423
0.03452304 -0.038008623 1.1897569 5147094
0.045363083 -0.039220344 1.1910216 4885460
0.054936692 -0.03847 1.1902593 4950741
0.064061582 -0.03863835 1.1909767 5016279
0.10599599 -0.044832651 1.1896708 5212370
0.11327705 -0.046622247 1.1871049 5212369
-0.070365578 -0.025056891 1.1888362 4423370
-0.068053268 -0.022042297 1.188354 4554187
-0.043678135 -0.02438207 1.1905103 5147610
-0.033795431 -0.024458654 1.1887627 5081818
-0.024891185 -0.027426437 1.1888257 5016538
-0.01366248 -0.026848935 1.1889262 5278938
-0.00453653 -0.026945002 1.1889143 5344730
0.005833406 -0.028653763 1.1878753 5673948
0.01585586 -0.031700715 1.1868715 5805277
0.024918444 -0.032399971 1.1868753 5541848
0.035201248 -0.032054175 1.1868501 5475544
0.045571432 -0.030575968 1.1867951 5213397
0.056148022 -0.031998284 1.1875215 5082070
0.06587325 -0.031920664 1.1891986 5016536
0.07495515 -0.030400172 1.1907452 5213915
0.085747033 -0.030253157 1.1907243 5279453
0.096623518 -0.031549558 1.1907407 5213659
0.10580578 -0.035227329 1.1892213 5212628
0.11240801 -0.035732977 1.1868231 5146833
-0.06727396 -0.016173109 1.1865996 4554443
-0.041985452 -0.016301639 1.1865629 5016281
-0.034805298 -0.01776699 1.1865896 5147611
-0.0038358457 -0.021067888 1.1866263 5411294
0.067126371 -0.021986507 1.1865375 5148123
0.075823076 -0.022656873 1.1867412 5213915
0.085814215 -0.023617975 1.18829 5213917
0.096544869 -0.024364859 1.1888692 5213659
0.10439043 -0.026759274 1.186936 5212887
0.097859323 -0.0175227 1.1863728 5279708
0.10239062 -0.017872334 1.1863747 5411037
-0.021243585 -0.17120226 1.1995611 3106213
-0.015536735 -0.1716426 1.1995635 3105959
-0.0043364093 -0.17316267 1.1995852 3105706
0.0061492827 -0.17331585 1.1995726 3105960
-0.031558305 -0.16351974 1.1993777 3105700
-0.024245786 -0.16531813 1.2001631 3105957
-0.015110079 -0.16602305 1.2001669 3106216
-0.0048379228 -0.16691469 1.2010241 3106217
0.0058117555 -0.16722415 1.2008438 3171752
0.013723781 -0.167348 1.2004967 3303337
0.025115583 -0.16559705 1.1993418 3369130
0.031963795 -0.16612545 1.1993446 3369132
-0.043260522 -0.15136558 1.1994137 3171753
-0.0337964 -0.15445557 1.2018664 3171752
-0.023552528 -0.15547578 1.2039574 3172010
-0.014491361 -0.15743357 1.2049443 3172012
-0.0044497494 -0.15777147 1.2057328 3237802
0.0062400894 -0.15790629 1.2051737 3303338
0.015415153 -0.15863726 1.2053783 3369133
0.025715146 -0.15924102 1.203657 3369388
0.035845272 -0.15970346 1.2029623 3303853
0.045190923 -0.15929791 1.2008967 3369643
0.055328578 -0.15931103 1.1993657 3303851
-0.060043611 -0.13836636 1.1987687 3303598
-0.05217316 -0.14176568 1.2005595 3303341
-0.043762721 -0.14407498 1.204036 3303340
-0.034551933 -0.1461592 1.2069337 3369132
-0.026549758 -0.14866731 1.2069862 3303600
0.0067702476 -0.15123822 1.2070001 3303598
0.019408874 -0.15221339 1.2070055 3435186
0.02687715 -0.15278964 1.2070086 3369391
0.03664336 -0.15354317 1.2070128 3369392
0.046650797 -0.15140739 1.2063258 3369390
0.056268305 -0.15116575 1.2027184 3435184
0.065745965 -0.15036762 1.1988813 3369392
-0.060453214 -0.13129161 1.1993858 3369646
-0.053514361 -0.13403577 1.2042477 3303853
-0.046522066 -0.13788296 1.2067374 3173034
0.049213707 -0.14342111 1.2067295 3566773
0.057475217 -0.14276204 1.2060324 3566516
0.067398317 -0.1417121 1.203055 3500977
0.077231981 -0.14319241 1.2003613 3500975
-0.069672108 -0.11860317 1.1982701 3632562
-0.061051875 -0.12227757 1.2013531 3501236
-0.053566873 -0.12292159 1.205915 3501494
0.070322022 -0.13274463 1.2064184 3698612
0.077836931 -0.13372245 1.2040675 3567283
0.086856827 -0.13203631 1.2013054 3567283
0.094484761 -0.12962955 1.1982963 3501747
-0.076104306 -0.10843275 1.1980158 3895478
-0.070730045 -0.11133121 1.2005836 3698613
-0.061934829 -0.11286605 1.2047776 3633080
0.072267868 -0.12625115 1.2062465 3699128
0.079053596 -0.12357511 1.2061661 3830713
0.088534601 -0.1239476 1.2049603 3699126
0.09543439 -0.12327528 1.1981297 3633333
-0.076792389 -0.10034524 1.1978066 3961271
-0.070092976 -0.10119679 1.2028198 3896247
-0.06357272 -0.10421576 1.205889 3764921
0.079482064 -0.11664013 1.2059851 3962300
0.090505816 -0.11498366 1.2054538 3896506
0.098162942 -0.11381273 1.1998799 3764920
-0.077431932 -0.090914093 1.1990629 3830712
-0.070552886 -0.090889141 1.2042198 4093627
0.094297826 -0.10438048 1.2056428 4028352
0.099714093 -0.10432579 1.2002976 3962812
-0.077036537 -0.080587931 1.199294 3962556
-0.070697904 -0.082074225 1.20488 4028606
0.094572827 -0.093969956 1.2053716 4357317
0.10094515 -0.094753332 1.2013805 4225985
0.10660937 -0.091540709 1.1972866 4225985
-0.075853415 -0.071646795 1.1990595 4028606
-0.071107738 -0.072053052 1.2050645 4094655
0.095715985 -0.086003274 1.2051626 4554695
0.10169338 -0.08441817 1.2005104 4554182
0.10801597 -0.083232217 1.1970683 4619462
-0.075716898 -0.061015688 1.1972529 4159424
-0.067680128 -0.06048565 1.2035272 4160448
-0.061264925 -0.05933268 1.2047182 4554440
0.097203717 -0.07271526 1.2048147 4620747
0.10267736 -0.07421571 1.2025943 4686026
0.10898344 -0.075655036 1.1968697 4619977
-0.074356109 -0.051443759 1.1965311 4291265
-0.066308908 -0.051939119 1.2017831 4357573
-0.060733117 -0.052441221 1.2045381 4751563
0.013390498 -0.055464506 1.2044991 4818903
0.021109359 -0.055289805 1.2044823 4819160
0.09602128 -0.064073958 1.2045919 4752590
0.10338274 -0.065044008 1.2023547 4817869
0.10845839 -0.067580096 1.1966606 4752076
-0.071637109 -0.042042509 1.1962823 4291778
-0.065602198 -0.041712113 1.1998444 4554440
-0.060112678 -0.044401195 1.2043281 4883149
-0.041039534 -0.038884409 1.200153 5674209
-0.035313688 -0.039326206 1.2001555 5082331
-0.024198858 -0.042981893 1.2021002 4950745
-0.015044402 -0.0454931 1.1996834 4884953
-0.0058834385 -0.046195999 1.1994871 4753366
0.0045013521 -0.045866288 1.2006624 4884692
0.01493117 -0.048320085 1.199865 4884692
0.023722053 -0.048257023 1.2005045 4884692
0.033984929 -0.047791146 1.2029332 4950484
0.044815861 -0.049626049 1.2011853 4950488
0.053591304 -0.050016567 1.2021754 4950489
0.064280108 -0.049362551 1.2031927 5411037
0.07325682 -0.049781244 1.2042563 5542623
