# .PCD v0.7 - Point Cloud Data file format
VERSION 0.7
FIELDS x y z rgba
SIZE 4 4 4 4
TYPE F F F U
COUNT 1 1 1 1
WIDTH 174
HEIGHT 1
VIEWPOINT 0 0 0 1 0 0 0
POINTS 174
DATA ascii
-0.3919462 0.077052608 1.1057241 5134174
-0.38534775 0.077367462 1.1078227 5134176
-0.39370686 0.081407338 1.1054622 4871515
-0.39654282 0.057438128 1.1103139 4936281
-0.38631007 0.057869382 1.1135645 5199967
-0.38186076 0.059209771 1.1150552 5397348
-0.40583542 0.061648995 1.1073557 4673880
-0.39806288 0.063391291 1.1079055 4870232
-0.38958323 0.06604369 1.1115069 5068382
-0.38090527 0.069063298 1.1150148 5068384
-0.37448385 0.072636887 1.1182792 4476504
-0.40844756 0.070700765 1.1057053 4607822
-0.40160295 0.072748601 1.1065969 4673623
-0.39136994 0.075048722 1.1099731 5134174
-0.38210791 0.078773327 1.1131392 4739419
-0.37531912 0.080600962 1.11675 4081746
-0.41146952 0.078580603 1.1070338 4410445
-0.40325588 0.082097664 1.1067042 4213839
-0.39399427 0.085422754 1.1098434 4345429
-0.38468942 0.087794647 1.1129321 4016211
-0.37751177 0.089625835 1.116527 3621193
-0.40422451 0.087487787 1.1067611 3884109
-0.39593723 0.09100955 1.1096067 3752784
-0.38641042 0.093808874 1.112794 3621192
-0.37945482 0.094766028 1.1150482 3686459
-0.40390533 0.042777143 1.1179672 4673626
-0.39538851 0.04431539 1.117768 4870741
-0.38676262 0.045700215 1.1207706 5265754
-0.37785688 0.049134448 1.1240857 5397604
-0.3717241 0.053918347 1.1294473 4608350
-0.40616205 0.051407628 1.113709 4673629
-0.39744678 0.052367754 1.1142411 4870744
-0.38920066 0.05320555 1.1165434 5134174
-0.37869892 0.058471218 1.1208884 5397606
-0.37260917 0.061235353 1.1273677 4476760
-0.36868638 0.066696845 1.1312616 4015442
-0.41616172 0.05714906 1.1156737 3883351
-0.41143128 0.058450744 1.1117876 4475995
-0.37948722 0.065027222 1.1203952 5068641
-0.37263587 0.070473671 1.1250743 4082513
-0.36885291 0.072924294 1.131102 3752531
-0.41497368 0.067787737 1.1100384 4079443
-0.37320814 0.079796642 1.1249394 3621705
-0.369349 0.078565478 1.1293285 3751503
-0.37634295 0.086729519 1.1228421 3490378
-0.39175409 0.027648311 1.1329334 5002588
-0.38883078 0.028507289 1.1339114 5528419
-0.40413883 0.034012392 1.1294614 4739163
-0.39583999 0.033385996 1.1289389 5002333
-0.38706163 0.035645276 1.131796 5397092
-0.37961051 0.03998166 1.1358588 5332066
-0.37490591 0.042602081 1.1392417 4740695
-0.40496349 0.037790418 1.1239402 4082256
-0.39776975 0.038660165 1.1244249 5068120
-0.37758273 0.045193098 1.1333202 5200736
-0.37164325 0.050493464 1.1377903 4345175
-0.36637843 0.054108158 1.1420985 4278096
-0.37081724 0.060542837 1.1352801 4147028
-0.36751053 0.061123207 1.1406506 3819087
-0.36863381 0.068545185 1.136865 3687502
-0.38520348 0.017411776 1.1458645 5528423
-0.38141561 0.019085981 1.1471694 5397348
-0.39519221 0.022545569 1.1374614 4804702
-0.3862972 0.024931699 1.1398131 5462626
-0.37865305 0.027907722 1.1451296 5003105
-0.37251788 0.033434909 1.1484128 4804440
-0.40673408 0.029675648 1.135707 3817824
-0.39905396 0.027935687 1.133806 4673622
-0.38439831 0.032242049 1.1387093 5660265
-0.37807575 0.035720851 1.1409334 5069150
-0.37119409 0.04072326 1.1455369 4475986
-0.36740091 0.046307504 1.1471061 4014924
-0.36975327 0.047689691 1.1443571 4606547
-0.3653326 0.051536001 1.1465324 3620428
-0.39140555 0.0086436067 1.1506768 4079956
-0.38441646 0.0096150804 1.1505413 5266270
-0.37987044 0.011468373 1.1544982 5002845
-0.39513201 0.013929445 1.1477575 4079963
-0.38686308 0.013604734 1.1482379 5330781
-0.37835133 0.018460903 1.1529741 5002331
-0.37649202 0.025204837 1.1522819 5001816
-0.37382138 0.028989725 1.1546375 4540755
-0.37127259 0.036866702 1.1547081 4213074
-0.38657436 -0.00074967742 1.1641738 5265766
-0.38813236 0.0033891052 1.1609596 5068639
-0.38049167 0.0073486976 1.1631308 4214103
-0.39578804 0.007555699 1.1534263 1580089
-0.37713438 0.014960278 1.1604966 4145996
-0.3760235 0.0212963 1.1605713 4212054
-0.39305311 -0.0036774892 1.165089 3618132
-0.38773537 -0.0032591568 1.1667913 5199718
-0.38201854 -0.00043513253 1.1687808 4214875
-0.37175795 -0.059440378 1.1848584 528927
-0.36689574 -0.058707748 1.1864384 1517876
-0.36857495 -0.069227666 1.1978101 4419983
-0.38367048 -0.066600204 1.1911328 1651559
-0.37796336 -0.064198464 1.1897891 1782104
-0.36557996 -0.063228667 1.1915393 4154236
-0.36295074 -0.05881438 1.196678 3028033
-0.37876168 -0.05698492 1.1954249 2369321
-0.37051123 -0.054753382 1.1943903 2040105
-0.38276172 -0.038261473 1.1912203 4146252
-0.38503847 -0.071893208 1.200852 5077683
-0.37770155 -0.072459236 1.2017232 4617364
-0.36898649 -0.070291743 1.2046126 4549258
-0.36483046 -0.063517451 1.2035744 6582660
-0.3879334 -0.060898192 1.1964767 7695014
-0.38213032 -0.055280861 1.1993811 2040625
-0.37486544 -0.051884092 1.2011961 2172202
-0.36731374 -0.054839388 1.2033752 2760198
-0.37915528 -0.082215227 1.2104156 4683677
-0.37394816 -0.080685183 1.2121577 3831442
-0.38767698 -0.077566266 1.2068442 3299734
-0.38020962 -0.077706553 1.2077123 4683420
-0.37252381 -0.075947978 1.2112434 3960460
-0.36931884 -0.154902 1.2222896 3829135
-0.36202481 -0.15225662 1.2247636 4223637
-0.35621384 -0.15101698 1.2266763 3960467
-0.37264341 -0.14610641 1.2218335 3498881
-0.36495203 -0.14337908 1.2240179 3895695
-0.35826468 -0.14001727 1.2267691 3631246
-0.3747184 -0.13513164 1.2187654 3499128
-0.36787775 -0.13395739 1.2209979 4025235
-0.3606545 -0.13079524 1.2254353 3499655
-0.37614387 -0.12582488 1.2168403 3826560
-0.37012497 -0.12409138 1.2193769 4156303
-0.36344507 -0.12264102 1.2242037 3630985
-0.37943995 -0.11680608 1.2195597 3893387
-0.37303317 -0.11463362 1.2200885 4157333
-0.36707166 -0.11230681 1.224281 3762828
-0.38081995 -0.10832913 1.2217953 3762325
-0.37522164 -0.10409726 1.21999 4420507
-0.37019587 -0.1027388 1.2241148 3828877
-0.38567618 -0.095346734 1.221138 4222878
-0.3774932 -0.094947226 1.2198192 4552347
-0.372601 -0.093872473 1.2245131 3631755
-0.38777292 -0.087852247 1.215098 3627913
-0.37878406 -0.08704707 1.2158109 4683676
-0.37347695 -0.084075019 1.2207693 3892613
-0.37379819 -0.076026864 1.2177703 3563127
-0.36970812 -0.16513963 1.2271827 3033484
-0.36254221 -0.16400956 1.2320306 2897991
-0.35341361 -0.16050255 1.2346251 3891064
-0.34722537 -0.15785822 1.2385019 2638186
-0.37546065 -0.15739067 1.2243911 666715
-0.36488423 -0.15662357 1.2277725 4813457
-0.35328466 -0.15014309 1.2318594 3499654
-0.34786734 -0.14834099 1.2375565 3561592
-0.37919885 -0.1466137 1.2239377 6722
-0.35602823 -0.14101011 1.2316089 3694979
-0.35069576 -0.13913234 1.2355148 3233144
-0.35744998 -0.13058513 1.2318611 3104639
-0.3541289 -0.12952143 1.2363207 2640231
-0.36075497 -0.12143639 1.2314348 2907007
-0.35810122 -0.12067706 1.2370964 3099492
-0.38461637 -0.11567743 1.224309 4089741
-0.36386251 -0.11235333 1.2314414 3496061
-0.36162227 -0.11041674 1.2371542 4278874
-0.38472998 -0.10727758 1.2248372 2972810
-0.36761475 -0.10264699 1.231969 3757171
-0.36491805 -0.1029172 1.2366201 3748927
-0.3852638 -0.10141071 1.225063 3630740
-0.36868241 -0.095333748 1.2306913 3953004
-0.36295947 -0.17051271 1.2369008 984897
-0.35445094 -0.16396701 1.240019 4350584
-0.35184491 -0.1381726 1.2432716 4674411
-0.35494408 -0.1301499 1.2452857 6974583
-0.35959613 -0.11995915 1.2445052 3815753
-0.39068213 -0.11797474 1.2316998 5799072
-0.36056855 -0.11033995 1.2416931 5064001
-0.35379377 -0.14467683 1.255178 7039097
-0.3559351 -0.13925418 1.2559184 7565430
-0.35885283 -0.13108695 1.2551979 8223350
-0.35998559 -0.12291867 1.2504872 9076613
