# .PCD v0.7 - Point Cloud Data file format
VERSION 0.7
FIELDS x y z rgba
SIZE 4 4 4 4
TYPE F F F U
COUNT 1 1 1 1
WIDTH 174
HEIGHT 1
VIEWPOINT 0 0 0 1 0 0 0
POINTS 174
DATA ascii
-0.39030218 0.077335924 1.1056777 5134174
-0.38361388 0.077235281 1.1074941 5134176
-0.39180613 0.081790701 1.1055186 4871515
-0.39587665 0.057993185 1.1103368 4936281
-0.38550818 0.057780247 1.1131494 5199967
-0.38092697 0.058837708 1.1144569 5397348
-0.40501481 0.062780634 1.1078051 4673880
-0.39713493 0.064047962 1.1080329 4870232
-0.38836581 0.066154286 1.111285 5068382
-0.37938073 0.068616033 1.1144373 5068384
-0.37262285 0.071768448 1.1174465 4476504
-0.40714303 0.071987212 1.1063248 4607822
-0.40015563 0.073612228 1.1069357 4673623
-0.38966873 0.075263575 1.1098855 5134174
-0.38007304 0.078396961 1.1126759 4739419
-0.37303957 0.079781517 1.1160043 4081746
-0.40962467 0.08002229 1.1078306 4410445
-0.40123492 0.083042383 1.1071721 4213839
-0.39166492 0.085777268 1.1099331 4345429
-0.38211146 0.087558538 1.112636 4016211
-0.37469065 0.088923424 1.115932 3621193
-0.40187302 0.088480249 1.1073042 3884109
-0.3932752 0.091472551 1.1098149 3752784
-0.38347042 0.09366627 1.1126093 3621192
-0.37638056 0.094183907 1.1145699 3686459
-0.4037807 0.043733899 1.1182059 4673626
-0.39520261 0.044759471 1.1176523 4870741
-0.38638955 0.04559705 1.1202917 5265754
-0.37716037 0.048460688 1.1232445 5397604
-0.37052852 0.052819993 1.1283689 4608350
-0.40569025 0.052521642 1.1141022 4673629
-0.39691821 0.052951779 1.1142672 4870744
-0.38854653 0.053272348 1.1162199 5134174
-0.37757152 0.057859059 1.1201447 5397606
-0.37105727 0.060195033 1.126375 4476760
-0.36665061 0.065376401 1.1301316 4015442
-0.41523284 0.058835816 1.1165287 3883351
-0.41060108 0.059885267 1.112452 4475995
-0.37798262 0.06445469 1.1197268 5068641
-0.37062302 0.069438174 1.1241426 4082513
-0.36644733 0.071603775 1.1300184 3752531
-0.41364396 0.069433287 1.1109146 4079443
-0.3706364 0.078779519 1.1240909 3621705
-0.36667645 0.07728003 1.1283031 3751503
-0.37343276 0.085906446 1.1221731 3490378
-0.39194301 0.027770814 1.1325434 5002588
-0.3889344 0.028443962 1.1334009 5528419
-0.40405658 0.034897789 1.1296444 4739163
-0.39584026 0.033778649 1.1287636 5002333
-0.38682848 0.0354812 1.1312567 5397092
-0.37896386 0.039326098 1.1350242 5332066
-0.37397072 0.041629191 1.1382191 4740695
-0.40488443 0.038767166 1.1241872 4082256
-0.39763722 0.03919889 1.1243694 5068120
-0.37673429 0.044428553 1.132434 5200736
-0.37030175 0.049322855 1.1366792 4345175
-0.36465067 0.052576553 1.1407809 4278096
-0.36897731 0.059326243 1.1341989 4147028
-0.36541733 0.059659448 1.1394266 3819087
-0.36624947 0.067168668 1.1357391 3687502
-0.3854813 0.017045416 1.1451181 5528423
-0.38154742 0.018477466 1.1462704 5397348
-0.39548832 0.022844009 1.1371824 4804702
-0.38637394 0.024670634 1.1391664 5462626
-0.37834594 0.027135011 1.1441697 5003105
-0.37175477 0.032254446 1.147222 4804440
-0.40664241 0.030669756 1.135968 3817824
-0.3991687 0.028488457 1.1337293 4673622
-0.38408545 0.031863183 1.1380283 5660265
-0.37747589 0.034936119 1.1400017 5069150
-0.37011611 0.039475244 1.144338 4475986
-0.3659296 0.04480746 1.1457784 4014924
-0.3683084 0.046352688 1.1431414 4606547
-0.36357543 0.049907137 1.1451497 3620428
-0.39199242 0.0086234622 1.1501364 4079956
-0.38496941 0.0091745071 1.1497082 5266270
-0.38015643 0.010716338 1.1534785 5002845
-0.39551303 0.014149193 1.1474122 4079963
-0.38726589 0.013324119 1.1475366 5330781
-0.37828365 0.017618179 1.1519347 5002331
-0.37605143 0.024244096 1.151206 5001816
-0.37305981 0.027840767 1.1534688 4540755
-0.37003925 0.035549477 1.1534798 4213074
-0.38717058 -0.001161959 1.1633552 5265766
-0.38861039 0.003091177 1.1602366 5068639
-0.38065952 0.0065653063 1.1621038 4214103
-0.39631236 0.0077765249 1.1530638 1580089
-0.37696314 0.013984445 1.1593761 4145996
-0.37546951 0.020241387 1.1594431 4212054
-0.3937698 -0.0037032738 1.1645283 3618132
-0.38836926 -0.0036201915 1.1660042 5199718
-0.38241327 -0.0011623669 1.167765 4214875
-0.37506381 -0.060817163 1.1830189 528927
-0.37010372 -0.060391914 1.184394 1517876
-0.37193257 -0.070892036 1.1957608 4419983
-0.3871108 -0.067303628 1.1897519 1651559
-0.38133106 -0.065237269 1.1881804 1782104
-0.36884874 -0.0650286 1.1894056 4154236
-0.36574268 -0.060825806 1.1944547 3028033
-0.3814531 -0.058038887 1.1938903 2369321
-0.37313414 -0.056297924 1.1925178 2040105
-0.38448939 -0.039072547 1.1899781 4146252
-0.38838351 -0.072590567 1.1994873 5077683
-0.38106391 -0.07360398 1.2000405 4617364
-0.3721194 -0.071989529 1.2025679 4549258
-0.3676095 -0.065468207 1.2013955 6582660
-0.39079168 -0.061403282 1.1953088 7695014
-0.38454229 -0.056170568 1.1979976 2040625
-0.37701523 -0.053232506 1.1995214 2172202
-0.36957037 -0.056655232 1.2013571 2760198
-0.38273507 -0.083331451 1.2087257 4683677
-0.37737602 -0.082132414 1.210253 3831442
-0.39110392 -0.078147613 1.2055511 3299734
-0.38362867 -0.078743875 1.2060982 4683420
-0.37570816 -0.077481434 1.2093084 3960460
-0.37681273 -0.15657991 1.2197121 3829135
-0.36927411 -0.15439942 1.2218885 4223637
-0.36332318 -0.15352802 1.2235588 3960467
-0.37961635 -0.14759681 1.2194537 3498881
-0.37168878 -0.14535584 1.2213242 3895695
-0.3647002 -0.14242625 1.2238081 3631246
-0.38115272 -0.13649054 1.2165461 3499128
-0.3741653 -0.13574909 1.2184913 4025235
-0.36658302 -0.13306589 1.2226355 3499655
-0.3820937 -0.12709831 1.2147422 3826560
-0.37587917 -0.12575197 1.2170298 4156303
-0.36892566 -0.12474819 1.2215755 3630985
-0.3847211 -0.11792219 1.2176565 3893387
-0.37817818 -0.11614326 1.2179244 4157333
-0.37191498 -0.1142159 1.2218726 3762828
-0.3854908 -0.10939772 1.2200022 3762325
-0.37972856 -0.10549401 1.2179857 4420507
-0.37445989 -0.10447639 1.2219002 3828877
-0.3895776 -0.096141756 1.2196345 4222878
-0.38144857 -0.096222892 1.2179695 4552347
-0.37630621 -0.095485464 1.2224566 3631755
-0.39147156 -0.088481769 1.2137369 3627913
-0.38242841 -0.088224351 1.2140698 4683676
-0.37674645 -0.085620388 1.2188152 3892613
-0.37670764 -0.077541292 1.2158833 3563127
-0.37761217 -0.16681851 1.2245532 3033484
-0.37019241 -0.16616382 1.2290972 2897991
-0.3607671 -0.16323456 1.2313209 3891064
-0.35427198 -0.16100107 1.2349459 2638186
-0.38299918 -0.15871359 1.2220588 666715
-0.37226218 -0.15861315 1.2249894 4813457
-0.36012986 -0.15287751 1.2286172 3499654
-0.35437745 -0.15145448 1.2340884 3561592
-0.38609555 -0.14772797 1.2218332 6722
-0.36232504 -0.14359435 1.2285414 3694979
-0.3567284 -0.14207488 1.2322274 3233144
-0.36310267 -0.13310546 1.2289196 3104639
-0.35953769 -0.1322826 1.2332397 2640231
-0.36586419 -0.12377129 1.2286924 2907007
-0.36293224 -0.1232228 1.2342399 3099492
-0.38961431 -0.11652662 1.2226298 4089741
-0.36841446 -0.11451837 1.2288889 3496061
-0.36582163 -0.11277039 1.2345127 4278874
-0.38919801 -0.10814013 1.223215 2972810
-0.37154794 -0.10460921 1.2296373 3757171
-0.36867812 -0.10508199 1.234167 3748927
-0.38936648 -0.10225399 1.2235003 3630740
-0.37222511 -0.097234026 1.2284523 3953004
-0.37079522 -0.17267293 1.2339398 984897
-0.36178261 -0.16667795 1.2367322 4350584
-0.35748827 -0.14111643 1.2400321 4674411
-0.36000931 -0.13294017 1.2422272 6974583
-0.36406627 -0.12248185 1.2417103 3815753
-0.3954896 -0.11852063 1.2302587 5799072
-0.3645741 -0.11279717 1.2390028 5064001
-0.35932088 -0.14759679 1.2519699 7039097
-0.36109757 -0.14206207 1.2528352 7565430
-0.36354461 -0.13372827 1.2522914 8223350
-0.3643803 -0.12546539 1.2476847 9076613
