# .PCD v0.7 - Point Cloud Data file format
VERSION 0.7
FIELDS x y z rgba
SIZE 4 4 4 4
TYPE F F F U
COUNT 1 1 1 1
WIDTH 174
HEIGHT 1
VIEWPOINT 0 0 0 1 0 0 0
POINTS 174
DATA ascii
-0.40205711 0.076755345 1.1006079 5134174
-0.39515421 0.076390512 1.1011173 5134176
-0.40337494 0.081270322 1.1005057 4871515
-0.40743473 0.057944044 1.1072516 4936281
-0.39673659 0.057321534 1.108041 5199967
-0.39194882 0.058198243 1.1083931 5397348
-0.4166804 0.063079797 1.1062633 4673880
-0.40885866 0.063949905 1.1049165 4870232
-0.39954603 0.065742493 1.1063204 5068382
-0.39002597 0.067874335 1.1075668 5068384
-0.38268787 0.070803314 1.1090617 4476504
-0.41866565 0.072310634 1.1047362 4607822
-0.4116298 0.073600009 1.1039165 4673623
-0.40071073 0.074837454 1.1047201 5134174
-0.39063379 0.077592395 1.10546 4739419
-0.38303813 0.078757204 1.1073079 4081746
-0.42046997 0.080520138 1.1062651 4410445
-0.41224593 0.083074503 1.1038604 4213839
-0.40221658 0.085431881 1.1045972 4345429
-0.3922548 0.086836129 1.1053301 4016211
-0.38428652 0.08796005 1.1070733 3621193
-0.41261744 0.088538542 1.1038269 3884109
-0.40357864 0.091191791 1.1044903 3752784
-0.39333546 0.092998639 1.1052434 3621192
-0.38598511 0.093236342 1.1057851 3686459
-0.41426259 0.044463273 1.1172203 4673626
-0.40591747 0.045022503 1.1149869 4870741
-0.39673334 0.045520432 1.1158484 5265754
-0.3869957 0.048032075 1.1168315 5397604
-0.37932196 0.052263305 1.1203606 4608350
-0.41655764 0.053151391 1.113102 4673629
-0.40790865 0.053137697 1.1115671 4870744
-0.39931151 0.053112671 1.1118667 5134174
-0.38760239 0.057296053 1.1133794 5397606
-0.37991542 0.05956246 1.1181209 4476760
-0.37465256 0.064668812 1.1206909 4015442
-0.4251782 0.060045928 1.1169709 3883351
-0.42138085 0.060678825 1.112036 4475995
-0.38780895 0.06387978 1.1127027 5068641
-0.3795324 0.068665773 1.1153657 4082513
-0.37421352 0.070866786 1.1202149 3752531
-0.42425942 0.07029479 1.1106097 4079443
-0.37916303 0.077984482 1.1148283 3621705
-0.37453079 0.076467678 1.1182801 3751503
-0.38197508 0.085155688 1.1131089 3490378
-0.40056056 0.028550029 1.1298512 5002588
-0.39741743 0.029104464 1.1300824 5528419
-0.41269559 0.036156744 1.128948 4739163
-0.40485841 0.034580488 1.1265751 5002333
-0.39547139 0.0359249 1.12721 5397092
-0.38687283 0.039520875 1.1292007 5332066
-0.38126445 0.041701034 1.1312591 4740695
-0.41439828 0.039823465 1.123554 4082256
-0.40724069 0.039890334 1.122327 5068120
-0.38497299 0.044385239 1.1259691 5200736
-0.37764192 0.049122401 1.1286465 4345175
-0.37117356 0.052256562 1.1314182 4278096
-0.3764022 0.058927849 1.1254387 4147028
-0.371889 0.059304126 1.1298661 3819087
-0.37310123 0.066679344 1.1260171 3687502
-0.39224884 0.018062063 1.1415057 5528423
-0.38810986 0.019338988 1.1418095 5397348
-0.40334725 0.024017148 1.1353329 4804702
-0.39395273 0.025458042 1.1354427 5462626
-0.38501337 0.027721763 1.1386859 5003105
-0.37774768 0.032623757 1.140152 4804440
-0.41418704 0.032344829 1.1358613 3817824
-0.40738463 0.029688083 1.132355 4673622
-0.39162692 0.03246766 1.1335137 5660265
-0.38463753 0.03528009 1.1340258 5069150
-0.37639484 0.039619263 1.1366341 4475986
-0.37178871 0.044787087 1.1369679 4014924
-0.37456489 0.046336621 1.134756 4606547
-0.3693881 0.049727261 1.1356353 3620428
-0.39801642 0.010210501 1.1481084 4079956
-0.39119145 0.010381481 1.1463195 5266270
-0.38568059 0.011836261 1.149016 5002845
-0.40176147 0.015786361 1.1458205 4079963
-0.39368761 0.014545474 1.1444118 5330781
-0.38385281 0.018559579 1.1467839 5002331
-0.38152692 0.02502447 1.1452966 5001816
-0.37800622 0.02855758 1.1467555 4540755
-0.37471923 0.03609442 1.145786 4213074
-0.39114839 0.00077242032 1.160658 5265766
-0.39298329 0.0049547274 1.1576531 5068639
-0.38468266 0.0080940258 1.1577841 4214103
-0.40172151 0.00971389 1.1518466 1580089
-0.3812741 0.015188653 1.1540165 4145996
-0.37953413 0.021357756 1.1534694 4212054
-0.39749774 -0.0013738163 1.1632004 3618132
-0.3919152 -0.0015040301 1.1636121 5199718
-0.38563338 0.0007189922 1.1640728 4214875
-0.37798995 -0.058517445 1.1807464 528927
-0.37284428 -0.058288034 1.1811256 1517876
-0.37288338 -0.068178251 1.1931665 4419983
-0.38877183 -0.064079627 1.189985 1651559
-0.38332269 -0.062382493 1.1872334 1782104
-0.37084118 -0.062761545 1.1860414 4154236
-0.36664483 -0.058508854 1.1901777 3028033
-0.38203731 -0.054946747 1.1924767 2369321
-0.37407425 -0.053695917 1.1894526 2040105
-0.38497224 -0.03603692 1.1882281 4146252
-0.38836172 -0.068867624 1.2000477 5077683
-0.38112223 -0.070230275 1.199246 4617364
-0.37179825 -0.068968818 1.1999321 4549258
-0.36732969 -0.062744364 1.1975807 6582660
-0.39105922 -0.057763051 1.1958255 7695014
-0.38419399 -0.052746251 1.1969945 2040625
-0.37639767 -0.050134942 1.1968979 2172202
-0.368889 -0.053852342 1.1974556 2760198
-0.38149214 -0.079473838 1.2085879 4683677
-0.37589344 -0.078486264 1.2089995 3831442
-0.39009109 -0.074009895 1.2068018 3299734
-0.38268265 -0.074964583 1.2059427 4683420
-0.37424546 -0.073972255 1.2075117 3960460
-0.37664282 -0.15238491 1.2220628 3829135
-0.36874104 -0.15050179 1.2226434 4223637
-0.36254832 -0.1498653 1.2230992 3960467
-0.37906364 -0.14328945 1.2218741 3498881
-0.37083703 -0.14137918 1.2220775 3895695
-0.36338359 -0.1387071 1.2230251 3631246
-0.3806645 -0.13225538 1.2187356 3499128
-0.37340811 -0.13178979 1.21927 4025235
-0.36506239 -0.1293221 1.2217448 3499655
-0.38154063 -0.12291422 1.216655 3826560
-0.37495032 -0.12179062 1.217641 4156303
-0.36721402 -0.1209489 1.2207172 3630985
-0.38316792 -0.11349777 1.2195326 3893387
-0.37662753 -0.1120469 1.2184534 4157333
-0.36964449 -0.11027414 1.2210274 3762828
-0.3831113 -0.10485145 1.2215323 3762325
-0.37768802 -0.10133949 1.2182517 4420507
-0.37172464 -0.10042488 1.22103 3828877
-0.38663152 -0.091431685 1.2212577 4222878
-0.3789877 -0.092001759 1.2180785 4552347
-0.37304935 -0.091335423 1.2214569 3631755
-0.38930511 -0.083947293 1.2154371 3627913
-0.38036516 -0.084139936 1.2140241 4683676
-0.37376955 -0.081627756 1.2174549 3892613
-0.3739582 -0.073695898 1.2141504 3563127
-0.37692195 -0.1623497 1.2274969 3033484
-0.36874357 -0.16188028 1.2305008 2897991
-0.35895169 -0.15934479 1.2307284 3891064
-0.35179082 -0.15729252 1.2329252 2638186
-0.38234386 -0.15409476 1.2256554 666715
-0.37124845 -0.15441838 1.2264738 4813457
-0.3584139 -0.14916092 1.2274141 3499654
-0.35165867 -0.14779919 1.2316049 3561592
-0.3849611 -0.14298487 1.2254499 6722
-0.36019036 -0.13978939 1.2272726 3694979
-0.35392851 -0.13840078 1.2297382 3233144
-0.36043891 -0.12926789 1.2272425 3104639
-0.3560755 -0.12844263 1.2307537 2640231
-0.36279765 -0.11982296 1.2270579 2907007
-0.35882926 -0.11918579 1.2319076 3099492
-0.38694569 -0.11163891 1.2252682 4089741
-0.36487091 -0.11045159 1.2272526 3496061
-0.36116984 -0.10859696 1.2321788 4278874
-0.38607219 -0.10326734 1.2253232 2972810
-0.36738172 -0.10037161 1.2280654 3757171
-0.36371371 -0.10079435 1.2319825 3748927
-0.38593498 -0.097373508 1.2253268 3630740
-0.36796445 -0.093029678 1.2266468 3953004
-0.36867291 -0.168134 1.2357036 984897
-0.35904694 -0.16249391 1.2364069 4350584
-0.35312608 -0.13706742 1.2374833 4674411
-0.35482997 -0.12868521 1.2396879 6974583
-0.35846734 -0.11806476 1.2394078 3815753
-0.39131579 -0.11299656 1.233972 5799072
-0.35908103 -0.10849315 1.2363435 5064001
-0.35288972 -0.14292204 1.2498741 7039097
-0.35423175 -0.13727117 1.2507715 7565430
-0.35638538 -0.12885422 1.2502691 8223350
-0.3577469 -0.12076665 1.2454803 9076613
