# .PCD v0.7 - Point Cloud Data file format
VERSION 0.7
FIELDS x y z rgba
SIZE 4 4 4 4
TYPE F F F U
COUNT 1 1 1 1
WIDTH 1130
HEIGHT 1
VIEWPOINT 0 0 0 1 0 0 0
POINTS 1130
DATA ascii
0.16945261 -0.12205134 1.0899005 13029078
-0.13575049 -0.11408341 1.0906703 3104917
-0.13393749 -0.111182 1.0929203 3170462
0.1624729 -0.11172459 1.0914011 3040417
0.17219377 -0.11504929 1.0899004 13422807
0.17511375 -0.11192071 1.0899003 13619661
-0.13783766 -0.10156056 1.0906706 3104162
0.16123541 -0.10351139 1.0907583 2973607
-0.13717197 -0.093235329 1.0909206 3169952
0.16165103 -0.093403652 1.0929013 2843043
-0.13897057 -0.083557628 1.0900787 3301299
-0.12659958 -0.16164397 1.1019193 4750553
-0.12295531 -0.16386986 1.103919 1196192
-0.12861493 -0.15437871 1.0987195 3036848
-0.12471565 -0.15665255 1.1039193 1789334
0.15943122 -0.15261231 1.1014009 12898004
-0.12756461 -0.14348447 1.1001418 2776475
0.15992932 -0.14351313 1.1003009 9087435
0.16573907 -0.13887224 1.0969006 13488846
-0.12981212 -0.1327462 1.0999198 3038106
0.15978269 -0.13286276 1.0993011 4354994
0.1676282 -0.13089585 1.0969006 13752800
-0.13168609 -0.12303689 1.1013644 2973083
0.1597549 -0.12309091 1.1002089 2121388
-0.13652389 -0.10948681 1.0969204 3301280
-0.13314167 -0.1144387 1.1005565 3039132
0.16048318 -0.11502925 1.0980678 2646946
0.17671439 -0.1097827 1.0999001 13817039
-0.13652392 -0.10318966 1.0969205 3366820
-0.13397789 -0.10365637 1.1019204 3105183
0.15885505 -0.10278108 1.1016014 3631271
0.17776677 -0.10767793 1.0999001 13817037
-0.13652396 -0.091994748 1.0969205 3499424
-0.13383172 -0.093014076 1.1007204 3302563
0.15852043 -0.092529342 1.1008427 3369127
-0.13379522 -0.083512068 1.1004205 3434147
0.1604358 -0.082944691 1.1018106 2908578
0.16619046 -0.080316082 1.0999011 8233160
-0.1384293 -0.072358385 1.097778 3365295
-0.13310798 -0.073570058 1.1007667 3499689
0.16122761 -0.073366538 1.1015486 4024485
0.16619043 -0.07189703 1.0999012 11192030
-0.13689533 -0.063479222 1.0999209 2181536
-0.13166755 -0.063337304 1.1011206 3433908
0.16045544 -0.067931384 1.1039017 2708114
-0.13527797 -0.055258304 1.1039209 8233201
-0.13145112 -0.056377176 1.1022063 3564980
0.011038627 0.11662889 1.0999131 9935247
0.01675155 0.11753093 1.0999128 9934992
-0.11733539 -0.17278302 1.1126108 929696
-0.11315104 -0.17313641 1.1149182 1984411
0.14924894 -0.16886869 1.1149013 13424882
-0.11834808 -0.16321996 1.1103187 2512540
-0.11372515 -0.16511863 1.113585 2906513
0.15057255 -0.16294548 1.1124569 8955594
0.15622756 -0.16160193 1.108901 14080986
-0.12550189 -0.14913642 1.1109194 2381461
-0.12238806 -0.15431786 1.1128565 2776212
0.150792 -0.15334429 1.1112214 3697834
-0.12594885 -0.14321516 1.1117527 2841752
-0.12381781 -0.14753646 1.1149192 2906774
0.1526462 -0.14342737 1.1117014 2646183
-0.1278379 -0.13265347 1.1127768 2907034
-0.12381785 -0.13686979 1.1149193 2775704
0.15322334 -0.13469264 1.1128014 3696546
0.15527783 -0.13015625 1.1122347 3761571
-0.12885687 -0.12320162 1.1113642 2973083
0.15695649 -0.12405591 1.111568 3368880
-0.12995118 -0.11299321 1.1108199 3039134
0.15725279 -0.11244748 1.1111741 3500454
-0.13012838 -0.1025433 1.1105201 3171232
0.15618129 -0.10400876 1.1121873 3631529
-0.13068579 -0.093774155 1.1098202 3302564
0.15467486 -0.093615249 1.1079018 3697839
0.15509218 -0.093866706 1.1109017 3763633
-0.13077874 -0.083219305 1.1106203 3368355
0.15565813 -0.082611188 1.1106161 3436468
0.16997212 -0.078986652 1.1109009 10992842
-0.12843956 -0.072801769 1.1106203 3697068
0.15351519 -0.069668651 1.114902 3765679
0.15671596 -0.072168514 1.1100837 3830452
0.16961783 -0.074735217 1.110901 11387079
-0.12734143 -0.065025933 1.1084203 3631022
-0.1251653 -0.061816394 1.1079202 3500456
0.15287879 -0.062752016 1.1120133 3830449
0.1595953 -0.063245326 1.1095333 5207985
0.16611701 -0.064256519 1.1135679 10334913
-0.12757903 -0.053002138 1.1104919 3434161
0.15201862 -0.053820737 1.1117594 3893939
0.15911329 -0.05430457 1.1109574 8428221
-0.12783463 -0.042972114 1.1140634 6194370
-0.12328493 -0.040869791 1.1149201 4421311
0.14987867 -0.041994888 1.1138116 5734064
0.15618177 -0.045668647 1.1149021 10203587
-0.12195162 -0.034203112 1.1149201 6852289
0.14839335 -0.036073212 1.1117027 8955077
0.018047854 0.093530796 1.1149124 9737616
-0.086767524 -0.20952751 1.1232497 7635861
-0.083382577 -0.21002021 1.125916 8100012
-0.097026423 -0.19960788 1.125917 10535920
-0.089998893 -0.20228454 1.1235635 5996227
-0.083382592 -0.20642975 1.125916 6394567
-0.10703652 -0.18857262 1.1179178 8431615
-0.10003677 -0.19101658 1.1206865 1526185
-0.093853198 -0.19340964 1.124774 1262491
0.12989165 -0.19063078 1.1259024 11717846
-0.11559274 -0.18001646 1.1179184 7571711
-0.10860851 -0.18228553 1.1194735 1917611
-0.10163001 -0.18480662 1.1232508 2379673
-0.094872192 -0.18775931 1.125917 2644619
0.13148168 -0.18375757 1.1259024 5010097
0.13878623 -0.18079263 1.1227591 10599906
0.14588945 -0.17958209 1.1219015 14081762
-0.10867371 -0.17345488 1.1221285 2709143
0.13252458 -0.1731571 1.1259024 2909858
0.13917504 -0.17268196 1.1220839 4026283
0.14677274 -0.17287421 1.1184015 12307424
-0.11559281 -0.15969551 1.1179186 2775446
-0.11120959 -0.16390929 1.1208273 2775442
0.14042617 -0.16373423 1.122902 3105445
0.145371 -0.16290301 1.1179017 2578854
-0.11762539 -0.15249604 1.1200726 2775449
-0.11340827 -0.15490192 1.1245852 2906778
0.14275652 -0.15393355 1.124302 3564451
0.14610979 -0.15295561 1.1203017 3433893
-0.12147859 -0.14381786 1.1212132 2840984
0.14425336 -0.14574976 1.1259019 3565217
0.14803508 -0.14363286 1.1205684 3499430
-0.12628818 -0.13188791 1.1179196 2841497
-0.12330436 -0.13366607 1.1239194 2907290
0.15031154 -0.13301018 1.1229017 3237547
-0.12646793 -0.12243138 1.1195197 2973083
-0.1237345 -0.1229137 1.1239195 3038877
0.15340433 -0.12332399 1.1240834 3827369
0.15606609 -0.12226106 1.1179013 3564710
-0.1275259 -0.11246225 1.120777 3039391
-0.12488528 -0.11437656 1.1245863 3170977
0.15367311 -0.11323541 1.1239017 3565735
0.15606605 -0.11370487 1.1179014 3500198
-0.12765202 -0.10427012 1.1229199 3170977
0.15394065 -0.10421668 1.1232351 3631790
0.15502463 -0.10589543 1.1259016 3434923
-0.12780713 -0.093716539 1.12192 3302823
0.15360439 -0.092763983 1.1234019 3566513
-0.12777627 -0.083714724 1.1205868 3368614
0.15269941 -0.083507426 1.1234405 3632560
-0.12727243 -0.076008447 1.1219201 3565995
0.15150082 -0.073338829 1.1221689 3895728
-0.12433686 -0.060959402 1.1235201 3697842
0.14916202 -0.063381113 1.1207024 4158132
-0.12267489 -0.052655142 1.1222837 3502262
0.14803101 -0.052712556 1.1219026 4027837
-0.12002922 -0.043140419 1.1216978 3698611
0.1431758 -0.0412669 1.125903 4619197
0.14898153 -0.044366609 1.1203642 4946612
-0.12628856 -0.036700301 1.1179204 7180220
-0.11870012 -0.033702068 1.12512 4815032
0.14309065 -0.034784995 1.1252364 5209534
0.14781511 -0.033032238 1.1179028 8425655
0.01916616 0.089504115 1.1179123 9474444
-0.059847392 -0.21988523 1.1329143 8300241
-0.07806392 -0.21169019 1.1292793 7642055
-0.070570543 -0.2123476 1.1314151 4815810
-0.063811056 -0.21579772 1.1329147 5210825
-0.087203383 -0.19977646 1.1289164 932767
-0.080233239 -0.20322046 1.1306001 2382238
-0.071614526 -0.20626023 1.1329153 2251168
0.11191054 -0.20300806 1.1329035 6518691
0.1177481 -0.2019819 1.1314745 11319227
-0.088931039 -0.19303489 1.1307832 2447513
-0.083536461 -0.19650599 1.1329161 2513045
0.11959237 -0.19375938 1.1318504 4617903
0.12663661 -0.19377559 1.1289027 10929103
-0.098388478 -0.18200785 1.1303718 2971544
-0.092476077 -0.18577307 1.1309168 2774929
0.12166498 -0.18449149 1.1312363 2909086
0.12657112 -0.18354285 1.1289027 3105187
-0.1059235 -0.16881654 1.1289179 2709911
-0.1013017 -0.17387626 1.1312704 2644371
0.12808976 -0.17372723 1.1295182 3368356
-0.10825451 -0.16220149 1.1307362 2775444
-0.10328461 -0.16632511 1.1315844 2709910
0.13250972 -0.1638609 1.1305025 3368613
0.13671647 -0.16089554 1.1289023 3499683
-0.11146823 -0.15363133 1.1304184 2841497
0.13430908 -0.15640415 1.1329024 3237027
0.13903843 -0.1536946 1.1302356 3302821
-0.11739949 -0.14204052 1.1294903 2645144
-0.11391411 -0.14376685 1.1320298 2775964
0.14215828 -0.14376029 1.1310838 3237542
0.14624663 -0.14018059 1.1302352 3106215
-0.11923022 -0.13364153 1.1303736 2907291
0.14353178 -0.1342079 1.1315688 3499683
0.14663371 -0.1322272 1.1300448 3303338
-0.12021572 -0.12371565 1.1313192 3039134
0.14824851 -0.12373583 1.1303136 3499947
-0.12536375 -0.1094166 1.1289197 3236770
-0.12320416 -0.11370678 1.1322528 3236770
0.14998013 -0.11322831 1.13072 3500458
-0.12536378 -0.1029366 1.1289198 3237027
-0.12363779 -0.10329853 1.1329197 3302821
0.15234686 -0.10267943 1.1311876 3632048
-0.12536381 -0.093216605 1.1289198 3302824
-0.12363782 -0.094086155 1.1329197 3302569
0.15061904 -0.093790382 1.1310838 3632047
-0.12579587 -0.084144607 1.12892 3434408
-0.12301857 -0.08177717 1.1329198 3434665
0.14722608 -0.082743466 1.1307205 4026292
-0.1253639 -0.073776603 1.1289201 3631531
-0.12363791 -0.072951868 1.1329199 3631531
0.14733288 -0.074765123 1.1293468 4157366
-0.12536392 -0.067296609 1.1289201 4025255
-0.12221333 -0.062173888 1.1312057 3632304
0.14679608 -0.062975489 1.1289026 4289211
-0.11875271 -0.05318176 1.1306341 3568048
0.14363988 -0.05220725 1.1295695 4094399
0.14597142 -0.056594558 1.1309026 4224702
-0.117444 -0.047136568 1.1289198 3764911
-0.11400337 -0.042821813 1.1314197 3895729
0.14108318 -0.043785911 1.1303576 4487616
-0.11865818 -0.029030882 1.13192 6458567
-0.11372236 -0.032803632 1.1313196 3895996
0.14101274 -0.032748476 1.1293032 5735616
0.14787593 -0.029495485 1.1289029 9477559
-0.11821906 -0.02634804 1.13292 6852289
-0.11496764 -0.026348025 1.1329198 5933254
0.051755503 0.075264134 1.1289101 9474701
-0.023082219 -0.23033637 1.144912 7248329
0.0097657377 -0.23192784 1.1441098 5801654
0.017788811 -0.23079839 1.143576 5210039
0.030584458 -0.23143139 1.1449085 6328255
0.038251124 -0.23143137 1.144908 7379645
0.049811974 -0.23130962 1.1449072 8430007
0.057763234 -0.22953597 1.1409067 8625323
-0.060989439 -0.22221071 1.1369145 9678537
-0.050163336 -0.22221254 1.1434401 4422071
-0.04082511 -0.2228888 1.1449132 2778029
-0.031061836 -0.22470373 1.1449126 2513574
-0.023447309 -0.22741571 1.144912 2315684
0.0064892024 -0.22814575 1.1449101 2120102
0.018536823 -0.22814569 1.1449093 2185635
0.031679679 -0.22705039 1.1449084 2186146
0.03715587 -0.22814563 1.1449081 2316696
0.052489199 -0.22595507 1.1449071 4486314
0.060049701 -0.2255601 1.1429067 5997746
0.07119932 -0.22260043 1.1437631 6063288
0.079870135 -0.22113591 1.1449054 6589614
0.087974891 -0.22135493 1.1449049 8757678
-0.066427588 -0.21024692 1.136915 1855898
-0.059705645 -0.21275568 1.1401526 2249885
-0.052021727 -0.21506581 1.1441867 2381985
-0.043891795 -0.21719357 1.1449134 3039902
0.073846303 -0.21555024 1.1449058 2841504
0.079870105 -0.2150026 1.1449054 3302564
0.089436673 -0.21274701 1.1435715 4420011
0.099239789 -0.21191376 1.13919 6984117
0.10867909 -0.20915858 1.1369036 6254993
-0.077574611 -0.19972697 1.1377158 2710418
-0.069847845 -0.20299101 1.1412961 2775447
-0.063123904 -0.20522031 1.1441147 2906776
0.091884881 -0.20485398 1.1445048 3171492
0.10039596 -0.20348018 1.1417042 3237285
0.10873298 -0.20226581 1.1374751 3629215
-0.080462001 -0.19277808 1.141716 2775191
-0.072324947 -0.19626987 1.1442488 2906012
0.10235373 -0.19427486 1.1432375 3040421
0.10929775 -0.19259179 1.1398511 3105703
0.11520474 -0.19284427 1.1369034 2777257
-0.095793433 -0.17870609 1.1369171 2710677
-0.089026339 -0.1825909 1.1404461 2709909
-0.082808249 -0.18619943 1.1429162 2709910
0.11044984 -0.18421248 1.1434301 3368100
0.11803252 -0.18237737 1.1390367 3302561
-0.09702161 -0.17216179 1.1400284 2710421
-0.092236027 -0.17501396 1.144117 2644886
0.11250804 -0.17645007 1.1449038 3040936
0.12055127 -0.17335106 1.1428163 3237031
0.12695628 -0.17044996 1.1399028 3368615
-0.1066697 -0.15912899 1.1369181 2776209
-0.10123724 -0.16361044 1.1416676 2841240
0.12258419 -0.16486485 1.1449032 3237287
0.1290407 -0.16263825 1.1397599 3302822
-0.10767008 -0.15247659 1.1414515 2710683
-0.102974 -0.15576905 1.1442512 2841499
0.13130376 -0.15422097 1.1423144 3237541
0.13627592 -0.15150592 1.1385024 3237798
-0.10979896 -0.14392088 1.1420612 2907293
0.13298889 -0.14545475 1.1449027 3237797
0.13772258 -0.14291134 1.1399024 3303334
-0.11610758 -0.13222346 1.1380618 2907805
-0.11390818 -0.13385975 1.1441188 2907805
0.13956338 -0.13354814 1.142458 3434407
-0.1166066 -0.12291614 1.1395857 3039392
-0.11398741 -0.12409862 1.1449189 3039391
0.14150712 -0.12397537 1.1423309 3500202
0.14565779 -0.12106129 1.1369021 3631274
-0.11975633 -0.11374851 1.1414527 3170979
0.14345933 -0.11370793 1.1444579 3631791
0.14685152 -0.11313897 1.1386799 3566510
-0.12016045 -0.10339849 1.1426337 3105957
0.14263684 -0.10259374 1.1432358 3632305
0.14787553 -0.10369049 1.1372355 3501227
-0.12054213 -0.093372613 1.1403482 3237546
0.14217924 -0.093522474 1.1423571 3698099
0.14679639 -0.093902051 1.1373023 3698094
-0.11991898 -0.083624311 1.1405863 3434923
0.14341564 -0.084248498 1.1429026 3895479
0.14565766 -0.08625748 1.1369025 3895477
-0.11953998 -0.073166899 1.1412054 3566256
0.14367458 -0.072945811 1.1442361 4027579
0.14616834 -0.072369888 1.1409025 4157882
-0.11854526 -0.064256907 1.1404492 3567024
0.1416347 -0.063407928 1.1437265 4159422
0.145964 -0.063554645 1.1393026 4289724
-0.11623067 -0.054419827 1.138253 3567791
-0.11312684 -0.052485891 1.1435862 3764403
0.13992478 -0.053370308 1.1422365 4356797
-0.11138579 -0.043550234 1.1374909 3830196
0.13726193 -0.04378745 1.1413034 4619718
-0.10991262 -0.032648668 1.1398286 3896507
0.13317098 -0.031894609 1.1417927 4817095
0.13769847 -0.032471813 1.1385702 4948420
-0.11752106 -0.023474969 1.14092 6916535
-0.11003177 -0.024005227 1.1406119 5210049
0.13232452 -0.025503308 1.143904 5013440
0.1367853 -0.025086127 1.1415703 5998788
0.031998489 0.048572265 1.1397682 5859448
0.040196192 0.048649706 1.1379106 6122362
0.045756381 0.048778258 1.1409101 6319482
0.056869019 0.050044946 1.1449095 5330522
0.032580324 0.053019531 1.1382444 5792108
0.040406056 0.053864755 1.1377106 5527648
0.045756362 0.053143971 1.1409103 5067354
-0.017337807 -0.23030889 1.1479115 4354997
-0.0099780811 -0.23133636 1.149911 4684224
-8.0464408e-005 -0.23104194 1.1484437 4289976
0.010898922 -0.22874004 1.1479096 2054307
0.021330828 -0.22928905 1.147909 2777510
0.026821312 -0.23038712 1.1479087 4026798
0.043292735 -0.23038706 1.1479076 5604271
0.047136061 -0.22873989 1.1479074 4881326
-0.036319207 -0.21995547 1.1479129 3039902
-0.028369412 -0.2208733 1.1484123 2710943
-0.019900218 -0.22278234 1.1512161 2645152
-0.010021611 -0.22564054 1.1545777 2514339
-8.0121681e-005 -0.22553685 1.1540438 2514851
0.009838054 -0.22303115 1.1525098 2842787
0.019723738 -0.22260737 1.1503092 2908579
0.029395485 -0.22221239 1.1507975 3039651
0.039590128 -0.22291544 1.1519079 2908578
0.048940569 -0.22204348 1.1516573 2778020
0.05897272 -0.22038192 1.1493353 2646433
0.068548895 -0.22306632 1.1479061 5012145
0.080078892 -0.22434738 1.1479052 8955830
-0.049350932 -0.21153623 1.1481994 2841242
-0.039507493 -0.21360901 1.1502465 2775960
-0.030498449 -0.21488425 1.1521792 2841500
-0.021090135 -0.21705644 1.1559119 2907551
0.010607008 -0.21631917 1.1559099 3105184
0.019821292 -0.21595058 1.1559093 3170722
0.029772721 -0.21595052 1.1559086 3302053
0.039908431 -0.21539763 1.155908 3170723
0.050412714 -0.21447614 1.1559073 3105188
0.05974498 -0.21368259 1.1541924 3170467
0.069351874 -0.21347287 1.1503061 3236258
0.079497598 -0.21003056 1.1483499 3171236
-0.065967865 -0.20018986 1.1479149 2906776
-0.05943691 -0.2024262 1.1490574 2907033
-0.050986424 -0.20341128 1.1527473 2841497
-0.041730177 -0.20747367 1.1559134 2775704
0.060732685 -0.20821038 1.1559067 3105443
0.069578402 -0.20821035 1.1559061 3105443
0.080373436 -0.20449243 1.1546423 3105956
0.088740036 -0.20162141 1.1511049 3105956
-0.076948859 -0.18920895 1.1479157 2644884
-0.069879137 -0.19277737 1.1509153 2775705
-0.061507523 -0.19564992 1.1535814 2841497
0.083952643 -0.19715315 1.1559052 3172006
0.091610663 -0.19477087 1.1549048 3040421
0.097473823 -0.19242093 1.1524044 2974628
-0.08573366 -0.18042423 1.1479164 2645144
-0.079090439 -0.18219253 1.1509748 2710425
-0.073786952 -0.18491404 1.152487 2776216
0.10094154 -0.18378103 1.1526544 3171493
0.10592055 -0.18155032 1.1495041 3237026
-0.088772409 -0.1724067 1.1505049 2710424
-0.08240252 -0.17461614 1.1544617 2710937
0.10385542 -0.17725021 1.1559042 3302823
0.11018673 -0.17316484 1.152746 3172005
0.11598275 -0.1700241 1.1519035 3172006
-0.097446755 -0.1610246 1.1479174 2841498
-0.093051359 -0.16354519 1.1528401 2907290
0.11270109 -0.16619304 1.1559037 3303592
0.11894945 -0.16281077 1.1545701 3237544
0.12510054 -0.15846148 1.147903 3303337
-0.099211894 -0.15256703 1.1496319 2973342
-0.094620377 -0.1556896 1.1559173 3038879
0.12258131 -0.15504694 1.1552366 3237544
0.12694204 -0.15201749 1.150703 3303336
-0.10723805 -0.14101386 1.1489182 2973342
-0.10117216 -0.14417852 1.1534178 2973600
0.13035154 -0.14289185 1.1519028 3368872
-0.10881637 -0.13315086 1.1502713 3039392
-0.10338721 -0.13397025 1.155918 3236259
0.13165259 -0.13345163 1.1536529 3500460
0.13608137 -0.13100904 1.1479026 3434923
-0.10991655 -0.12350786 1.1508074 3170978
0.13269448 -0.12452246 1.1545695 3500719
0.13738902 -0.12202194 1.1512359 3500718
-0.1164806 -0.11234246 1.1479191 3237029
-0.11266742 -0.11371298 1.1539189 3237286
0.13772701 -0.11316494 1.1540079 3697329
-0.11648064 -0.1035577 1.1479192 3237543
-0.11392111 -0.10312252 1.155419 3172263
0.13894525 -0.10405347 1.1535027 3697843
-0.11678333 -0.093920588 1.1509193 3303340
-0.11470779 -0.092848249 1.1559192 3303852
0.13871947 -0.093607672 1.1539028 3764149
-0.11684676 -0.084158018 1.1479193 3500716
-0.11412866 -0.082791507 1.1559192 3501229
0.14166081 -0.083170839 1.1524742 3764661
-0.11648075 -0.076105312 1.1479194 3566512
-0.11330923 -0.072683267 1.1522828 3632306
0.13867907 -0.072962299 1.1523736 3896764
-0.11270753 -0.063062489 1.152283 3698357
0.13269423 -0.062921822 1.1545701 4291265
0.13652772 -0.06409055 1.1490461 4225217
-0.11109652 -0.054054622 1.1519192 3764408
0.13347669 -0.053318642 1.1539035 4554434
0.13608105 -0.053044289 1.1479033 4488640
-0.10814077 -0.043342281 1.1527193 3895997
-0.10401943 -0.040142488 1.155919 4027323
0.13308492 -0.042520773 1.1529037 4817354
-0.10659788 -0.033808254 1.1492525 3962044
-0.10262104 -0.03260304 1.1551189 4093118
0.12375768 -0.030190133 1.1559044 5014224
0.12915131 -0.032922313 1.151904 4751563
-0.10550002 -0.023396701 1.1479192 4290235
-0.10061795 -0.023268528 1.1524522 4158908
-0.094436646 -0.020976737 1.1559185 4028609
0.12209362 -0.023151688 1.1541268 4817874
0.12877744 -0.022866696 1.1489041 5145287
-0.09823399 -0.016620494 1.1503189 4487616
-0.092853293 -0.013957351 1.1545852 4356800
0.11323937 -0.010636821 1.1539053 5276623
0.11958075 -0.013648711 1.1501905 5604813
0.12898476 -0.014866009 1.1487931 6720449
-0.090750992 -0.0069710091 1.1559185 5671109
0.11138013 -0.0050713941 1.155334 5802961
0.11774743 -0.0058402643 1.1512383 6787017
0.035300363 0.010720938 1.1559105 12972031
-0.019953139 0.020634063 1.1539142 5869264
0.012448911 0.016986564 1.155912 7515376
0.019943196 0.016618006 1.1559116 8764660
0.029550631 0.016175777 1.1559108 10146554
0.036184918 0.015143797 1.1559105 10870005
-0.077681817 0.028945945 1.1479179 8028800
-0.072557375 0.029311992 1.1479176 7305855
-0.015562537 0.021777868 1.1559138 5671370
-0.012245395 0.021777883 1.1559136 5869265
0.010974605 0.021777987 1.1559122 6988787
0.015397462 0.021777995 1.1559118 7185904
0.10164315 0.030624069 1.1559063 6314850
-0.07133729 0.034314416 1.1479175 8028802
0.098547131 0.03416235 1.1559066 6117979
0.074587323 0.044685923 1.1479082 5593178
0.076783516 0.044685937 1.1479081 5658970
-0.015614626 -0.22002217 1.1599116 2973083
-0.010067 -0.22113168 1.1599112 2973595
-0.00063791033 -0.22070134 1.1605773 2973598
-0.035586104 -0.20892704 1.1599129 2842012
-0.029206332 -0.21031392 1.1599126 2776219
-0.019864898 -0.21279438 1.1614357 2907806
-0.010269684 -0.21417364 1.1630691 2907807
0.00028874539 -0.2147142 1.1632439 2973599
0.0091691986 -0.21237479 1.1605767 3039136
0.019913048 -0.21138459 1.1612427 3170723
0.029891733 -0.21126518 1.1605754 3236770
0.039690834 -0.21080437 1.1599081 3170979
0.04873772 -0.21059097 1.1599075 3170980
0.055394854 -0.20892665 1.1599071 3171236
-0.046681374 -0.20005086 1.1599138 2842012
-0.039972097 -0.20231648 1.1613679 2842011
-0.030357681 -0.20457539 1.1623741 2842012
-0.022069424 -0.20602486 1.1639121 2907805
0.024412248 -0.20741633 1.1639091 3302309
0.030424416 -0.20625958 1.1627659 3302308
0.039078034 -0.2061384 1.1614082 3171236
0.04984723 -0.20670763 1.1599075 3171236
0.060473524 -0.2053341 1.1615734 3105443
0.070296213 -0.20341124 1.1609062 3171492
0.076845624 -0.20152974 1.1599058 3040420
-0.067762375 -0.18895572 1.1599152 2841497
-0.058986023 -0.19170491 1.160448 2907291
-0.050547376 -0.19435567 1.1617965 2907549
-0.043872245 -0.19554105 1.1639136 2907551
0.073398866 -0.19628279 1.163906 3040420
0.080415592 -0.19444126 1.1620109 3106213
0.088236682 -0.19183984 1.1599052 3106214
-0.069265842 -0.18246895 1.1619154 2907290
-0.062678583 -0.18534836 1.163415 2973340
0.084532164 -0.18737608 1.1639054 3302823
0.090577722 -0.18499109 1.161505 3237030
0.096717827 -0.18158427 1.1616825 3237031
-0.086624362 -0.16898438 1.1599166 2841497
-0.078226984 -0.1724641 1.1604494 2842012
-0.072106764 -0.17470029 1.1629156 2907547
0.10190322 -0.17389965 1.1608275 3368361
0.10698757 -0.17064786 1.1599041 3237285
-0.088103749 -0.16306692 1.1599168 2973085
-0.081322655 -0.16329175 1.1626532 3039135
0.10421374 -0.16676454 1.1599044 3368615
0.11073845 -0.16343412 1.1606312 3237799
0.11530895 -0.16010736 1.1599036 3303337
-0.095500641 -0.15012251 1.1599175 2973857
-0.090071425 -0.15365255 1.1614726 3039137
-0.084137969 -0.15453345 1.1639166 3104930
0.11272763 -0.15593405 1.1619039 3172264
0.11895055 -0.15304343 1.1605701 3238059
-0.096692026 -0.14192013 1.1609175 3039650
-0.092710681 -0.14551547 1.1639172 3105700
0.12218945 -0.14329973 1.1620573 3369132
0.12640412 -0.14346445 1.1599032 3434410
-0.099448346 -0.13335694 1.1616321 3171236
0.12408124 -0.13517743 1.1631033 3500719
0.12745349 -0.13287327 1.1619031 3435183
-0.10659599 -0.12127492 1.1599184 3302823
-0.10194451 -0.12325455 1.1625848 3171495
0.12821542 -0.12277571 1.1617213 3566514
-0.10834277 -0.11263953 1.1613731 3368873
-0.10466324 -0.11381609 1.1631184 3368875
0.13093103 -0.11358247 1.1607032 3697588
-0.10924683 -0.10357321 1.1625854 3303850
0.13249886 -0.10398268 1.1633316 3763892
0.13572395 -0.10329965 1.1599029 3698099
-0.11059064 -0.093367465 1.1615189 3435181
-0.10473488 -0.093856856 1.1639185 3435438
0.13351846 -0.09385588 1.1639031 3829942
0.13636507 -0.093307003 1.1610458 3764149
-0.10955457 -0.083693996 1.161919 3501229
0.1335184 -0.080495879 1.1639032 3896505
0.13791429 -0.083378442 1.1617211 3830455
-0.10895637 -0.073832825 1.1614574 3632563
-0.10473498 -0.07047686 1.1639187 3567542
0.13115889 -0.073337227 1.1613321 4027837
0.13638955 -0.076892979 1.1599032 3896505
-0.10819741 -0.063774094 1.1612524 3829940
-0.10473501 -0.063796848 1.1639189 3699127
0.1296573 -0.063723505 1.1625704 4291009
-0.10777888 -0.053632841 1.1607192 3895737
-0.10409886 -0.052822568 1.1639189 4027576
0.12995341 -0.053684447 1.1619037 4422849
-0.1065963 -0.046936825 1.1599191 4158911
-0.10210837 -0.043237589 1.1619189 4093372
0.12989713 -0.043939922 1.1614039 4817355
-0.098359905 -0.033838347 1.1614572 4093630
-0.093601808 -0.030396804 1.1639184 4094397
0.12244423 -0.033191994 1.1621267 5080014
0.12695844 -0.036395397 1.1599041 4883149
-0.096240833 -0.026225671 1.1599187 4028348
-0.091734856 -0.0236682 1.1614184 4028864
0.11795188 -0.023548193 1.1616826 4949202
-0.088172056 -0.014075302 1.1617364 4029123
-0.083952993 -0.011841215 1.163918 3963586
0.11186662 -0.013683245 1.162572 5146069
0.11530837 -0.018088304 1.1599051 5080276
-0.087364711 -0.0062541962 1.1599183 5342665
-0.080241926 -0.004104957 1.1639178 4882633
-0.01678193 -0.00033649057 1.1639137 6070261
-0.01010193 -0.00033646822 1.1639132 6528744
-0.0034219297 -0.00033643842 1.1639129 8827627
0.012164736 -0.00033637136 1.1639118 10340848
0.020912359 -0.00097253174 1.1639113 8895736
0.028419409 -0.0016723052 1.1639107 6266608
0.10281182 -0.00089266896 1.1629061 5475287
0.10729378 -0.0044105724 1.161239 5475028
-0.076768734 0.0018861368 1.1619177 5999306
-0.070107788 0.0029956847 1.1619172 5540557
-0.06153927 0.006330654 1.1612501 5803727
-0.048821218 0.0080752298 1.1639159 4950220
-0.03985833 0.0069507137 1.1639153 5016280
-0.030132465 0.006339632 1.1635146 5411294
-0.020084314 0.0063261464 1.161674 5806569
-0.010095143 0.0063389689 1.1633134 7120874
-0.00050608814 0.0070858002 1.1639128 12379901
0.010088806 0.0065615773 1.1613858 13891069
0.019904809 0.0063229725 1.1607115 12969723
0.029860351 0.00656005 1.161595 9946095
0.039932661 0.0063285083 1.1619971 10013177
0.049669545 0.0082091466 1.1617557 7449069
0.056326918 0.010054916 1.1639091 5411552
0.099900752 0.0029963851 1.1614063 6526426
-0.046841986 0.013023384 1.1639158 6264275
-0.039247151 0.013827011 1.1614153 5803990
-0.029669553 0.014457144 1.1599147 5345755
-0.01966209 0.015718989 1.1599141 5412839
-0.010071273 0.016312122 1.1604135 5676266
-0.001033091 0.015390798 1.16277 7253489
0.0087997187 0.015209362 1.1609123 8436213
0.018779663 0.012977973 1.1599116 12051453
0.033203453 0.017416134 1.1599107 10082302
0.041044094 0.016676486 1.1599102 10607102
0.049529314 0.015831172 1.1599096 7515119
0.056568313 0.015217476 1.1612425 6068200
-0.0078489473 0.021854058 1.1599134 6001365
-0.0034108525 0.021854073 1.1599132 6396124
0.10909484 0.027624063 1.1599059 6447199
-0.0067836707 -0.21035936 1.1679112 3039391
0.00075999554 -0.2097872 1.1694106 3039135
0.012207759 -0.21035928 1.1679099 3104930
-0.035829436 -0.19918805 1.1679131 2776478
-0.029452391 -0.20008376 1.1699127 2842271
-0.019548889 -0.20172325 1.1720939 2907807
-0.010321281 -0.20358261 1.1726071 2908063
-0.00030198693 -0.20443234 1.1737107 2973600
0.010019504 -0.20344982 1.1732434 3105187
0.019948278 -0.2030986 1.1723232 3236773
0.02965387 -0.20175913 1.1716422 3237029
0.040601969 -0.20184471 1.1717081 3171237
0.050254021 -0.20279439 1.1694075 3171236
0.059775036 -0.20123471 1.1688299 3105444
0.068623431 -0.19974619 1.1679064 3171493
-0.048023932 -0.19031766 1.171114 2841758
-0.03992366 -0.19262508 1.1719134 2907551
-0.031012662 -0.19373173 1.1747364 2842271
-0.020326078 -0.19492045 1.1759121 2908064
-0.013577499 -0.19604519 1.1759117 2973857
0.007792979 -0.1960451 1.1759104 3105444
0.020665251 -0.19504526 1.1759095 3237030
0.030715972 -0.195461 1.1751088 3302823
0.040378191 -0.19467953 1.1749852 3171495
0.049740661 -0.19327009 1.1745163 3105703
0.059451155 -0.19352868 1.174307 3105703
0.069258615 -0.19303036 1.1724063 3105702
0.077592969 -0.19052584 1.1696202 3105958
-0.059303902 -0.18261942 1.1695619 2973598
-0.051307797 -0.18434042 1.1739142 2907551
-0.041415405 -0.18620363 1.1759136 2908065
0.07103917 -0.18462418 1.1759063 3237288
0.079859868 -0.18391038 1.1734613 3302823
0.08852414 -0.18186745 1.1704767 3237287
-0.068708971 -0.17135079 1.1707727 3105183
-0.06124527 -0.17472513 1.1740326 2974112
-0.05294425 -0.17692439 1.1759144 2842786
0.081352331 -0.17714879 1.1759057 3171750
0.089982495 -0.17353857 1.1745719 3172008
0.09804903 -0.17178291 1.170238 3303081
-0.076834626 -0.1616679 1.1685828 3104930
-0.070607252 -0.16398922 1.1745824 3170978
0.092471369 -0.16519414 1.1759051 3303337
0.10024974 -0.16367421 1.1736547 3368873
0.10719172 -0.16236757 1.1704496 3237543
-0.086668834 -0.14887971 1.1705835 3040164
-0.079945371 -0.15263669 1.1717058 3105701
-0.073564976 -0.15705368 1.175916 3302822
0.10182292 -0.15465347 1.1759046 3303597
0.10922629 -0.15222585 1.1715405 3238059
0.11630002 -0.14916745 1.1699038 3303852
-0.089110598 -0.14254493 1.1716949 3106213
-0.081344619 -0.14458761 1.1759166 3172007
0.11012667 -0.1431561 1.1757042 3369387
0.11806527 -0.1429166 1.1719037 3435181
-0.096264541 -0.13230704 1.169251 3237030
-0.089690782 -0.13298087 1.1735839 3237800
-0.083312988 -0.13643309 1.1759168 3303594
0.1119457 -0.13710715 1.1759042 3500972
0.12035525 -0.13282852 1.1726537 3500976
0.12503886 -0.12992454 1.1679034 3500977
-0.097403929 -0.12304949 1.1710289 3237545
-0.092739977 -0.12471491 1.1750286 3303852
0.1221435 -0.12331003 1.1759037 3566772
0.12546577 -0.12364075 1.1719034 3566515
-0.099916369 -0.11333966 1.1711681 3369389
0.12300042 -0.11377633 1.1759037 3763639
0.12636387 -0.11284053 1.1710145 3763639
-0.10670151 -0.099501997 1.1692519 3435181
-0.10132868 -0.10318963 1.1724896 3435438
0.12364309 -0.10268938 1.1759038 3895737
0.12862763 -0.10256925 1.1707269 3764149
-0.10620115 -0.093025312 1.1703186 3435438
-0.10082918 -0.093656801 1.1743798 3501231
0.12364306 -0.097065568 1.1759038 3961530
0.12902185 -0.093084879 1.170727 3961528
0.13621014 -0.089707345 1.1679031 3895735
-0.10591971 -0.083773598 1.1709187 3501489
-0.1016515 -0.083551511 1.1738008 3501490
0.12364299 -0.079069376 1.175904 4159679
0.12935396 -0.083745763 1.1711763 3962041
0.13621013 -0.087473065 1.1679031 3895735
-0.10638886 -0.076432161 1.1699188 3501747
-0.10157998 -0.073242009 1.1725852 3567541
0.12289312 -0.072695732 1.1759042 4225473
0.12658651 -0.073197901 1.1719037 4159424
-0.099805944 -0.063090049 1.1715186 3764919
0.12264314 -0.063822612 1.1759042 4422597
0.12658647 -0.063109323 1.1719038 4357059
-0.099313363 -0.053317446 1.1713471 3896505
-0.094560951 -0.053200744 1.1759183 3962298
0.12251812 -0.053199857 1.1759043 4685767
0.12658642 -0.053020749 1.171904 4422851
-0.097852267 -0.044191364 1.1695186 4027836
-0.092837781 -0.042426959 1.1748273 4028094
0.12064293 -0.042606063 1.1737869 4948684
0.12654167 -0.04450215 1.1689041 4751818
-0.096155815 -0.036085434 1.1679186 4093632
-0.090583749 -0.032635644 1.1737645 4094399
0.11389486 -0.032204337 1.1759051 5080784
0.11820742 -0.033271439 1.1711048 5211343
-0.087335341 -0.024192967 1.1722817 4094402
-0.080806702 -0.021129087 1.1749177 4226244
-0.074315369 -0.019457802 1.1759174 4620744
-0.020326801 -0.018332817 1.1759139 5412064
0.0021684421 -0.01833272 1.1759124 6463211
0.010240279 -0.022170126 1.1759119 6397929
0.019927856 -0.021529339 1.1759112 6397929
0.029162735 -0.019618057 1.1759107 6003432
0.11089057 -0.022925235 1.1734053 5081042
0.11610129 -0.026030272 1.167905 5081041
-0.079447098 -0.013317011 1.1697844 4160963
-0.071369871 -0.012380771 1.17506 4752075
-0.056319222 -0.0093348697 1.1759163 4949201
-0.049570642 -0.0098972246 1.1759158 5016022
-0.039989255 -0.011016861 1.1752485 5213659
-0.030158553 -0.011920966 1.1746838 5411552
-0.020312399 -0.012702897 1.1751139 5740773
-0.010203968 -0.012708969 1.1759133 6003172
-8.2273968e-005 -0.012705877 1.1755127 6331366
0.010015844 -0.012680277 1.1729119 6989552
0.020117965 -0.012684427 1.1733112 6792432
0.030204399 -0.012676857 1.1726606 5937640
0.038692642 -0.011761948 1.1749101 5806054
0.049408413 -0.010459207 1.1759094 5674725
0.056156978 -0.0093344077 1.175909 5674983
0.10199105 -0.011864938 1.1759061 5146841
0.10800888 -0.013926916 1.1701913 5080789
-0.076047368 -0.0048053414 1.1679176 4554184
-0.072600275 -0.0039789304 1.1709174 4751049
-0.057346985 -0.0037110448 1.1739163 4818129
-0.049904183 -0.0037087202 1.1731158 5015507
-0.040363833 -0.0036949292 1.1697153 5147609
-0.030255914 -0.0036904141 1.1684146 5346018
-0.020614896 -0.0040726736 1.171025 5937898
-0.010165568 -0.0048190877 1.1712466 6462952
0.00029087998 -0.0040713027 1.1703571 8303605
0.0096649667 -0.0041742623 1.1693406 8501495
0.019522492 -0.0051522106 1.1685268 7252467
0.030831687 -0.0046094283 1.1693652 6069484
0.039980248 -0.0035217702 1.1702259 6135528
0.050092813 -0.0039055049 1.1733212 5741031
0.059482601 -0.0037096143 1.1749089 5543655
0.068961933 -0.0024127364 1.1759082 5477092
0.079027116 -0.0010860562 1.1759076 5739747
0.090399697 -0.0013359636 1.1759069 5280481
0.099620022 -0.0039611608 1.1722139 5015513
0.10510895 -0.0059331954 1.1699059 4949463
-0.069344543 0.0018975511 1.1679173 4818122
-0.059910893 0.0028905869 1.1679167 5147606
-0.051222004 0.0036353841 1.1679161 4818639
-0.042533122 0.0018976629 1.1679155 5344472
0.0021526022 0.0024564117 1.1679126 12971007
0.0066211764 0.0018978566 1.1679124 12905215
0.031198319 0.0018979535 1.1679107 5807584
0.044604037 0.0018980056 1.1679099 6004710
0.050668519 0.0028555915 1.1679095 5807083
0.059460666 0.0053315759 1.1700423 5477863
0.067964964 0.004896149 1.172575 5542628
0.079776935 0.0019133091 1.1759076 5673698
0.090345882 0.003872171 1.1744069 5804766
0.09599261 0.0018982217 1.1679065 5147865
0.062478274 0.01306951 1.1679088 5412324
-0.0068515139 -0.19896519 1.1799113 3039650
-0.00040253252 -0.19961005 1.1799108 3039650
-0.027165834 -0.19106528 1.1799126 2842271
-0.020394407 -0.19106525 1.1799121 2973857
-0.010069001 -0.1921567 1.1811746 2973857
-0.00031673443 -0.19390953 1.1824371 3039395
0.010343176 -0.19197485 1.181688 3171237
0.019649601 -0.19055659 1.1809763 3237030
0.029995436 -0.19000609 1.1814474 3302569
0.038334567 -0.19014725 1.1812416 3237546
-0.046835274 -0.18058577 1.179914 2908065
-0.039257716 -0.1815531 1.1799135 2973857
-0.030575514 -0.18331692 1.1809129 2973857
-0.020828914 -0.18521804 1.1820298 2973858
-0.01253607 -0.18604714 1.1839117 3105444
0.019170597 -0.18604702 1.1839095 3237030
0.030871857 -0.18453711 1.1839088 3302825
0.039803606 -0.18408194 1.1836005 3171754
0.049660936 -0.1846002 1.1819077 3171752
0.060004648 -0.18417668 1.1813188 3171753
0.068442449 -0.18105887 1.1809065 3237546
0.076662689 -0.17865056 1.179906 3303592
-0.058013536 -0.1711273 1.1799147 2908579
-0.049819589 -0.17329729 1.1819142 2908579
-0.039984755 -0.17476726 1.1828226 3105444
-0.031333633 -0.17653522 1.183913 3105443
0.063333414 -0.1769878 1.1839068 3303339
0.071366817 -0.17471427 1.182573 3303082
0.079763524 -0.17260566 1.1804773 3237545
0.085691229 -0.16962196 1.1799055 3303850
-0.067042157 -0.15984163 1.1799154 3302822
-0.060429484 -0.1641472 1.1821649 3040165
-0.053301856 -0.1679292 1.1839144 3040167
0.074657187 -0.1679287 1.1839062 3303598
0.080719851 -0.16393349 1.1829647 3238061
0.089284487 -0.16187094 1.1810164 3303596
0.096976906 -0.15946476 1.1799048 3369131
-0.076823145 -0.14930834 1.1799161 3171751
-0.070397384 -0.15294148 1.1813275 3368615
-0.063493334 -0.15660545 1.1839153 3171751
0.098791726 -0.15288953 1.1814048 3369134
-0.078798175 -0.14225475 1.1799164 3369130
-0.072679006 -0.14421484 1.1829159 3434922
0.099917702 -0.143224 1.1829524 3435183
-0.080523454 -0.13365617 1.1812499 3434923
0.10266995 -0.13612896 1.1831048 3501232
0.1094305 -0.13299644 1.1824925 3435694
0.1161625 -0.1312504 1.1799039 3501232
-0.08874622 -0.12251236 1.1809173 3369646
-0.083027512 -0.12626646 1.1825835 3435182
0.11315796 -0.12376568 1.1839042 3567282
0.11726328 -0.12323102 1.181722 3567027
-0.0971376 -0.10980842 1.1799179 3501231
-0.092552394 -0.11373913 1.1826675 3435439
0.11315794 -0.11583901 1.1839042 3829686
0.11826236 -0.11302617 1.1821262 3829431
-0.097137615 -0.10642269 1.1799179 3501231
-0.092750847 -0.10318238 1.1815844 3567024
0.12056985 -0.10364596 1.1825706 3830201
-0.097137667 -0.092315555 1.1799181 3632818
-0.093908012 -0.093036033 1.1819178 3698612
0.12268742 -0.093035147 1.1819038 3896507
-0.097137712 -0.082722694 1.1799182 3633333
-0.093292579 -0.08291851 1.1827179 3764919
0.12252288 -0.08282657 1.181404 4093886
-0.097589172 -0.07391984 1.1799183 3633334
-0.093551069 -0.072986327 1.183118 3830201
0.11951911 -0.073201723 1.1821264 4291523
-0.093127839 -0.062684119 1.1815847 3896506
0.11902937 -0.062717065 1.1815044 4619975
-0.089847654 -0.053133022 1.1816323 4028348
0.11315766 -0.051293302 1.1839049 5146320
0.11758618 -0.053514224 1.1829045 4883148
-0.088129967 -0.043717761 1.1802037 3962814
-0.08314912 -0.042358723 1.1827748 3963072
0.11216538 -0.04246591 1.182405 5146577
0.1159286 -0.044088263 1.1804048 5080527
-0.086755045 -0.034645505 1.1799179 4028607
-0.080576122 -0.032898702 1.1820508 4291526
-0.030654799 -0.030911028 1.1839143 5147865
-0.023181085 -0.030684523 1.1839138 5344731
-0.0068748044 -0.029778548 1.1839128 5345501
-8.0518425e-005 -0.029778518 1.1839124 5739743
0.010099404 -0.03201022 1.1825783 5936862
0.019154664 -0.032018438 1.1829112 5871068
0.02936139 -0.030910775 1.1839105 5739228
0.047479484 -0.029778324 1.1839093 5213656
0.11028892 -0.033583961 1.1823052 4949970
-0.078798652 -0.025447614 1.1799176 4422856
-0.07036607 -0.020685107 1.1817352 4686797
-0.059995927 -0.01955685 1.1819164 4884690
-0.049599394 -0.020995155 1.1834157 4950486
-0.039143879 -0.021754175 1.1825817 5213659
-0.030574281 -0.022925667 1.1807145 5279707
-0.020413294 -0.024062961 1.1811137 5345244
-0.010248034 -0.022430621 1.1810242 5411808
-0.0003885366 -0.023544379 1.1808215 5806052
0.0089477822 -0.026669875 1.1799119 6068964
0.020985879 -0.027046017 1.179911 6068963
0.031022999 -0.024665244 1.1808335 6003173
0.039479882 -0.022946715 1.1817099 5608417
0.049680412 -0.022955976 1.1823093 5411038
0.0565385 -0.022983998 1.1839088 5279709
0.10123075 -0.021227039 1.1829828 5212630
0.10687675 -0.024817742 1.1812389 5015248
-0.066666558 -0.015008286 1.1799169 4949712
-0.059895128 -0.015008256 1.1799164 4949713
-0.049737982 -0.015008211 1.1799158 5016279
-0.040333223 -0.015384361 1.1799152 5213659
-0.031680834 -0.016136706 1.1799146 5345501
0.041112024 -0.015572131 1.1799098 5871590
0.049576309 -0.015007809 1.1799093 5871847
0.059833698 -0.012775131 1.1819087 5543139
0.0671193 -0.01164598 1.1821939 5280225
0.091642261 -0.011660054 1.1839066 5411294
0.097503826 -0.013073511 1.1813608 5279196
0.069326274 -0.0065434426 1.1799082 5411556
0.078919135 -0.004850544 1.1799076 5412066
0.09020485 -0.0048504993 1.1799068 5477344
0.09697628 -0.0071076155 1.1799064 5213404
0.00067785196 -0.18932302 1.1879108 3105189
-0.019693151 -0.18085748 1.1889122 3039906
-0.0099920584 -0.18299197 1.1893401 3039908
-0.00045729708 -0.18415301 1.1912442 3105447
0.010151844 -0.18337616 1.1886603 3105702
0.019235602 -0.18212706 1.1879097 3171750
0.028221834 -0.18171388 1.1879091 3237289
0.039687019 -0.1798546 1.1879084 3237548
0.049912736 -0.17985457 1.1879077 3171752
0.059002262 -0.17985453 1.1879071 3171752
-0.047345214 -0.169402 1.1879141 3039909
-0.039495505 -0.17013323 1.1888025 3105701
-0.031338908 -0.17278305 1.1904584 3105443
-0.021739397 -0.17817679 1.1919123 3040163
0.0090406016 -0.17726466 1.1919104 3105960
0.020440597 -0.17614995 1.1919097 3105958
0.029538443 -0.17463848 1.1911091 3237545
0.039936703 -0.17357741 1.1900136 3237547
0.049979858 -0.17326446 1.1895077 3237544
0.060044147 -0.17303717 1.1895913 3237545
0.068696715 -0.17104891 1.1885732 3303339
-0.058593541 -0.15997165 1.187915 3172009
-0.050170615 -0.16313595 1.1903143 3105961
-0.040834453 -0.16535188 1.1919137 3171752
0.043240558 -0.16677654 1.1919082 3303337
0.050080556 -0.16677651 1.1919078 3303593
0.060177695 -0.16579932 1.1919072 3303594
0.069385223 -0.16318449 1.1906567 3303596
0.076207362 -0.16167539 1.1879063 3238062
-0.065978818 -0.15145028 1.1879154 3434409
-0.060236998 -0.15321325 1.1907386 3237547
-0.051897675 -0.1555842 1.1919144 3237805
0.070347182 -0.15588309 1.1919066 3238318
0.079644248 -0.15295008 1.190786 3238572
0.089768507 -0.15273555 1.1891054 3434926
0.096269205 -0.15213132 1.187905 3369134
-0.068319716 -0.14241813 1.1891465 3435179
-0.062375858 -0.1444286 1.1914709 3369388
0.084280476 -0.14625636 1.1919057 3500977
0.089902297 -0.14271727 1.1909055 3435186
0.095360205 -0.1427388 1.1879052 3500720
-0.076835498 -0.13167556 1.1889163 3566511
-0.071132861 -0.13455462 1.1905826 3566767
-0.063919559 -0.13713695 1.1919154 3500977
0.091366343 -0.13508418 1.1914054 3501234
0.099255346 -0.13264233 1.188655 3501490
-0.086430378 -0.11850083 1.1879171 3566770
-0.079669699 -0.12308425 1.1905166 3632306
-0.073039606 -0.12801698 1.1919161 3632563
0.10105722 -0.12397807 1.1904932 3699127
0.10850098 -0.12269085 1.1883751 3633076
-0.087638907 -0.11291227 1.1889173 3566770
-0.081633516 -0.11381087 1.1919168 3763892
0.10195034 -0.11490628 1.1919049 3633335
0.1086275 -0.11271179 1.1894602 3764407
-0.087770641 -0.10283191 1.1907173 3698868
-0.083426379 -0.1034437 1.1919171 3699126
0.10252031 -0.10293628 1.191905 3962811
0.10906006 -0.10302465 1.190738 3830969
0.11678535 -0.10324258 1.1879041 3830714
-0.08894442 -0.092875794 1.1888406 3699126
-0.083679758 -0.093437038 1.1919172 3830712
0.10975908 -0.093084246 1.1913047 4028606
0.11792152 -0.093179174 1.1879042 3962300
-0.088364139 -0.083390184 1.1895176 3830970
-0.083462656 -0.083068468 1.1919172 3962813
0.11003082 -0.084025666 1.1919048 4291522
0.11791254 -0.083612889 1.1882679 4094399
-0.088665694 -0.073321119 1.1896319 3962044
-0.08378841 -0.073622756 1.1919173 4093630
0.11161477 -0.073281005 1.1916381 4554438
0.11646061 -0.074026249 1.1879045 4357059
-0.088041939 -0.063277349 1.1892511 4093886
-0.083462745 -0.062548466 1.1919174 4291009
0.10978208 -0.062736347 1.1910161 4686026
0.11581131 -0.062826663 1.1879046 4685769
-0.086430632 -0.056010351 1.1879177 4159935
-0.081428558 -0.053541783 1.1907746 4225985
0.1025201 -0.052776281 1.1919055 5015248
0.10860734 -0.054050621 1.1892384 5014991
-0.078412503 -0.043723445 1.190035 4292037
-0.073039941 -0.045936998 1.1919169 4619977
-0.050239958 -0.039096907 1.1919155 5279449
-0.042259969 -0.039096877 1.191915 5016538
-0.029719964 -0.040236823 1.1919142 4950743
-0.020197593 -0.04191326 1.1919136 4950488
-0.011099954 -0.041756749 1.191913 5147351
-0.00064995605 -0.040806707 1.1919123 5278422
0.0099190436 -0.043121204 1.1910228 5212886
0.019270889 -0.042458512 1.190161 5278423
0.029244013 -0.041621096 1.1906604 5147094
0.040145762 -0.042027965 1.1919097 4885460
0.049632903 -0.040523857 1.1911818 4950741
0.058744039 -0.040008467 1.1919085 5016279
0.10103008 -0.042922754 1.1905057 5212370
0.108426 -0.04407955 1.1879053 5212369
-0.076330587 -0.036756039 1.1899172 4423370
-0.074257292 -0.033560984 1.1895171 4554187
-0.049773343 -0.034074292 1.1916488 5147610
-0.03991488 -0.033344939 1.1899149 5081818
-0.03080868 -0.035619661 1.1899143 5016538
-0.019657634 -0.034182981 1.1900469 5278938
-0.010551347 -0.033576474 1.1900463 5344730
-8.1188045e-005 -0.034454882 1.188979 5673948
0.010145484 -0.036694713 1.1879117 5805277
0.019235007 -0.036694676 1.1879112 5541848
0.029460717 -0.035558432 1.1879104 5475544
0.039686419 -0.03328602 1.1879098 5213397
0.050341431 -0.033909008 1.188615 5082070
0.060032677 -0.0331273 1.1903085 5016536
0.068971433 -0.030953549 1.1919079 5213915
0.079720013 -0.029976375 1.1919072 5279453
0.090663999 -0.030432321 1.1919065 5213659
0.10010125 -0.033352077 1.1903058 5212628
0.10672166 -0.033285759 1.1879056 5146833
-0.073932655 -0.027605541 1.1879172 4554443
-0.048709236 -0.025787532 1.1879156 5016281
-0.041437611 -0.026696451 1.1879151 5147611
-0.010305983 -0.02760528 1.1879131 5411294
0.060516536 -0.02306024 1.1879085 5148123
0.069239147 -0.02306477 1.188108 5213915
0.079275362 -0.023294538 1.1896465 5213917
0.090031952 -0.02322866 1.1902224 5213659
0.098037526 -0.02496133 1.1882395 5212887
0.090814926 -0.016242959 1.1879067 5279708
0.09535969 -0.016242944 1.1879064 5411037
-0.016105738 -0.17891967 1.1969119 3106213
-0.010381927 -0.17891964 1.1969116 3105959
0.00090215635 -0.17957376 1.1969109 3105706
0.01136855 -0.17891955 1.1969101 3105960
-0.026981007 -0.17205115 1.1969128 3105700
-0.019551426 -0.17330161 1.1976622 3105957
-0.010388567 -0.17330156 1.1976616 3106216
-7.7843666e-005 -0.17342249 1.198511 3106217
0.010563992 -0.17290707 1.1983389 3171752
0.018461928 -0.17241289 1.1980007 3303337
0.029684704 -0.16976139 1.1969091 3369130
0.036553275 -0.16976136 1.1969086 3369132
-0.039583568 -0.16083819 1.197247 3171753
-0.029908597 -0.16325392 1.199633 3171752
-0.019615587 -0.16353726 1.2017124 3172010
-0.010430179 -0.16481733 1.2026618 3172012
-0.00039195176 -0.16440228 1.2034565 3237802
0.010276305 -0.16369984 1.2029104 3303338
0.01948051 -0.16372797 1.2031099 3369133
0.029795595 -0.16349266 1.2013892 3369388
0.039930936 -0.16315627 1.200698 3303853
0.049216688 -0.16197941 1.1986579 3369643
0.05932457 -0.16117282 1.1971426 3303851
-0.057317287 -0.14915603 1.1969149 3303598
-0.049207784 -0.15198541 1.1986287 3303341
-0.040642928 -0.15373072 1.2020566 3303340
-0.031297702 -0.15517506 1.2049131 3369132
-0.023126259 -0.15706073 1.2049127 3303600
0.010292787 -0.15706059 1.2049105 3303598
0.022968978 -0.15706053 1.2049097 3435186
0.030459456 -0.1570605 1.2049092 3369391
0.040254693 -0.15706047 1.2049085 3369392
0.050067827 -0.15414409 1.2042925 3369390
0.0596365 -0.15306951 1.2007073 3435184
0.069022812 -0.15144505 1.1969067 3369392
-0.058269657 -0.14215223 1.197715 3369646
-0.051137902 -0.14448026 1.2025145 3303853
-0.04386916 -0.14784177 1.2049141 3173034
0.052008931 -0.14599755 1.2049079 3566773
0.060194913 -0.14468706 1.2042407 3566516
0.070006393 -0.14279974 1.2013068 3500977
0.079923503 -0.14344862 1.1985903 3500975
-0.068437912 -0.13018574 1.1969159 3632562
-0.059559062 -0.13326527 1.1999153 3501236
-0.052044488 -0.13345027 1.2044703 3501494
0.072233178 -0.13372461 1.2049067 3698612
0.079799905 -0.13405995 1.2025425 3567283
0.088662006 -0.13161363 1.199839 3567283
0.096080728 -0.1285497 1.1969051 3501747
-0.0756336 -0.12053706 1.1969163 3895478
-0.070051037 -0.12307944 1.199416 3698613
-0.061161786 -0.12404196 1.203582 3633080
0.073673621 -0.12709844 1.2049067 3699128
0.080233313 -0.1239072 1.2049062 3830713
0.089714296 -0.12351779 1.2037057 3699126
0.096538611 -0.12213902 1.1969053 3633333
-0.076941937 -0.11252373 1.1969166 3961271
-0.070194446 -0.11298775 1.2019161 3896247
-0.063459776 -0.11557518 1.2049156 3764921
0.080126904 -0.11695746 1.2049063 3962300
0.09099029 -0.11444469 1.2044351 3896506
0.098531954 -0.11254344 1.1989052 3764920
-0.078304529 -0.10320566 1.1984167 3830712
-0.071445309 -0.102786 1.203583 4093627
0.093955427 -0.10358977 1.2049056 4028352
0.099348865 -0.10297941 1.199572 3962812
-0.07870461 -0.092889205 1.1989169 3962556
-0.072267711 -0.094028547 1.2044719 4028606
0.093428582 -0.093185425 1.2049057 4357317
0.099840365 -0.093372092 1.2009053 4225985
0.10523865 -0.08962775 1.196905 4225985
-0.078212962 -0.083880492 1.1989169 4028606
-0.073447205 -0.084076807 1.2049166 4094655
0.093955353 -0.08515168 1.2049057 4554695
0.099790856 -0.082990848 1.2003055 4554182
0.10600179 -0.081232816 1.196905 4619462
-0.078895606 -0.073226936 1.1973876 4159424
-0.070920393 -0.072243914 1.2036858 4160448
-0.064612336 -0.070632331 1.2049161 4554440
0.094416238 -0.071784064 1.2049059 4620747
0.099988021 -0.072800688 1.2026556 4686026
0.10638337 -0.073601075 1.196905 4619977
-0.078275584 -0.063563153 1.1969171 4291265
-0.070211582 -0.063574702 1.2021666 4357573
-0.064612366 -0.063718036 1.2049162 4751563
0.0095241405 -0.061028849 1.2049115 4818903
0.017206678 -0.06026056 1.204911 4819160
0.092572406 -0.063256443 1.2049061 4752590
0.0999856 -0.063598782 1.2026556 4817869
0.10523856 -0.065587752 1.1969053 4752076
-0.076288022 -0.053977333 1.1969171 4291778
-0.070294693 -0.053276617 1.2004957 4554440
-0.064612396 -0.055651374 1.2049162 4883149
-0.04602221 -0.048576977 1.2009152 5674209
-0.040279351 -0.048576951 1.2009149 5082331
-0.028915275 -0.051416289 1.2027807 4950745
-0.019595936 -0.053152096 1.2003134 4884953
-0.010408138 -0.053142913 1.2001128 4753366
-7.8924e-005 -0.052046124 1.2013122 4884692
0.010508373 -0.053668801 1.200467 4884692
0.019268658 -0.052946426 1.2011214 4884692
0.029466454 -0.05175595 1.2035769 4950484
0.040405601 -0.052706156 1.2017984 4950488
0.049185555 -0.052446183 1.2027913 4950489
0.059792858 -0.050998669 1.2038417 5411037
0.068775691 -0.050753206 1.2049078 5542623
0.082892343 -0.048736483 1.2049068 5213404
0.090670921 -0.05161741 1.2049063 5081558
0.098979592 -0.053857915 1.2025057 5015248
-0.071054868 -0.043510914 1.1969168 4685772
-0.048827596 -0.043046914 1.1980063 5542365
-0.039857242 -0.043227263 1.1980577 4951002
-0.031092264 -0.044254102 1.1969142 4884951
-0.021830089 -0.046127316 1.1969136 4753366
