# .PCD v0.7 - Point Cloud Data file format
VERSION 0.7
FIELDS x y z rgba
SIZE 4 4 4 4
TYPE F F F U
COUNT 1 1 1 1
WIDTH 174
HEIGHT 1
VIEWPOINT 0 0 0 1 0 0 0
POINTS 174
DATA ascii
-0.39594594 0.07941854 1.1039033 5134174
-0.38908449 0.079034224 1.1048065 5134176
-0.3972595 0.083935618 1.1038512 4871515
-0.40168747 0.060431387 1.1096864 4936281
-0.39105359 0.059778687 1.1110847 5199967
-0.38629553 0.060641471 1.1117418 5397348
-0.41086373 0.065600023 1.1083022 4673880
-0.40297723 0.066501826 1.1074419 4870232
-0.39376467 0.06824699 1.1094403 5068382
-0.38433614 0.070335552 1.1113032 5068384
-0.37710109 0.073215589 1.1133084 4476504
-0.41276419 0.074871793 1.1069221 4607822
-0.4056935 0.076178417 1.1065537 4673623
-0.39484158 0.077384368 1.1080316 5134174
-0.38482794 0.080109641 1.1094394 4739419
-0.37735492 0.081216067 1.1117622 4081746
-0.41466254 0.083036244 1.1085734 4410445
-0.40631378 0.085651174 1.1067288 4213839
-0.39634711 0.087979183 1.1081195 4345429
-0.3864468 0.089354604 1.1094754 4016211
-0.37859562 0.090422809 1.1117144 3621193
-0.40668756 0.091114283 1.1068277 3884109
-0.3977057 0.093740866 1.1080953 3752784
-0.38752604 0.095517918 1.1094993 3621192
-0.38022038 0.095734656 1.110478 3686459
-0.40907675 0.04667991 1.1188526 4673626
-0.40061539 0.047295574 1.1171297 4870741
-0.39149815 0.047761988 1.1185428 5265754
-0.38183728 0.050237466 1.1201664 5397604
-0.37438777 0.054361586 1.1242579 4608350
-0.41113383 0.055482518 1.1148535 4673629
-0.40240964 0.05550554 1.1138293 4870744
-0.39384493 0.055465508 1.1146324 5134174
-0.38224855 0.059595618 1.1169472 5397606
-0.37485525 0.061721478 1.1221941 4476760
-0.36975694 0.066749275 1.1252117 4015442
-0.41997284 0.062271718 1.1184025 3883351
-0.41589287 0.063040704 1.1137189 4475995
-0.3824209 0.066195965 1.1164457 5068641
-0.37431929 0.070898622 1.119724 4082513
-0.36929625 0.072957873 1.1249373 3752531
-0.41869134 0.072695285 1.1123979 4079443
-0.37392735 0.080228478 1.1194724 3621705
-0.36950442 0.078611374 1.1231459 3751503
-0.37664005 0.087447509 1.1177938 3490378
-0.3961257 0.030406155 1.1318123 5002588
-0.39300206 0.030951452 1.1322432 5528419
-0.40819359 0.038044579 1.1304131 4739163
-0.40022919 0.036529925 1.128461 5002333
-0.39089686 0.037848733 1.1296836 5397092
-0.38243324 0.041380554 1.1322764 5332066
-0.37695733 0.043497488 1.1347212 4740695
-0.40957993 0.041863333 1.1250341 4082256
-0.4023627 0.041959342 1.1242317 5068120
-0.38035128 0.046332713 1.1293004 5200736
-0.37319431 0.05098686 1.1325362 4345175
-0.36690265 0.054036621 1.1357702 4278096
-0.37177718 0.06087796 1.1296847 4147028
-0.36753204 0.061125729 1.1343783 3819087
-0.36852282 0.068607539 1.1306744 3687502
-0.38850319 0.019587182 1.1436342 5528423
-0.38439035 0.020851873 1.1442163 5397348
-0.39922535 0.025722537 1.1369909 4804702
-0.38985479 0.027152594 1.1376927 5462626
-0.38112333 0.029317085 1.1415178 5003105
-0.37396064 0.034170214 1.1435456 4804440
-0.41008496 0.034040246 1.1371167 3817824
-0.40308604 0.031478316 1.1339421 4673622
-0.38742602 0.034212079 1.136102 5660265
-0.3804813 0.03700361 1.1371028 5069150
-0.37240985 0.04126117 1.140312 4475986
-0.36783591 0.046413999 1.1410613 4014924
-0.37047878 0.048027452 1.1387348 4606547
-0.36536562 0.051387977 1.1400118 3620428
-0.39464146 0.011556845 1.1496626 4079956
-0.38772339 0.011773029 1.1482831 5266270
-0.38238165 0.013146941 1.1513386 5002845
-0.3982507 0.017197892 1.1473171 4079963
-0.39010695 0.015991092 1.1463504 5330781
-0.38043201 0.019929171 1.1494081 5002331
-0.3780286 0.026431676 1.148243 5001816
-0.37460279 0.029919535 1.1500051 4540755
-0.37127131 0.037478216 1.1494434 4213074
-0.38851362 0.0017631818 1.1623226 5265766
-0.39017269 0.0060300082 1.1593343 5068639
-0.38189691 0.0091580339 1.160041 4214103
-0.39855918 0.010957778 1.1531614 1580089
-0.37827939 0.016353544 1.1566818 4145996
-0.37651578 0.022534296 1.156412 4212054
-0.39499938 -0.00044909678 1.1644262 3618132
-0.38945052 -0.00059513003 1.1651611 5199718
-0.3832086 0.0016092174 1.1660523 4214875
-0.37650424 -0.058079921 1.1814682 528927
-0.37138993 -0.057865217 1.1821553 1517876
-0.37212703 -0.068091221 1.1938893 4419983
-0.38780496 -0.063892335 1.1898972 1651559
-0.38220516 -0.062122401 1.1875193 1782104
-0.36967489 -0.062477179 1.1870519 4154236
-0.36573243 -0.058346093 1.1915458 3028033
-0.38123652 -0.054838542 1.1930367 2369321
-0.3731108 -0.053508956 1.1905218 2040105
-0.3839339 -0.035814129 1.1891583 4146252
-0.3879821 -0.068962671 1.1998276 5077683
-0.38070679 -0.070307687 1.1994143 4617364
-0.37144029 -0.0690732 1.2006819 4549258
-0.36684695 -0.062788278 1.1987734 6582660
-0.39043698 -0.057741333 1.1957692 7695014
-0.38365671 -0.052764755 1.1974803 2040625
-0.37587053 -0.0501577 1.1979154 2172202
-0.36840421 -0.053895082 1.198808 2760198
-0.38161623 -0.079810873 1.2084537 4683677
-0.37605229 -0.078839578 1.2092211 3831442
-0.39010042 -0.074292168 1.2063206 3299734
-0.38265347 -0.075227879 1.2058715 4683420
-0.37432382 -0.074286647 1.2079605 3960460
-0.37750113 -0.1530768 1.2201278 3829135
-0.36964875 -0.15121683 1.2212241 4223637
-0.36349407 -0.15059818 1.2220606 3960467
-0.37991485 -0.14397781 1.2200539 3498881
-0.37171608 -0.14208031 1.2207937 3895695
-0.36433351 -0.13944171 1.2222524 3631246
-0.38133854 -0.13285835 1.2171394 3499128
-0.37412649 -0.13241355 1.2181119 4025235
-0.36594266 -0.13002303 1.221141 3499655
-0.38209939 -0.12346153 1.2152753 3826560
-0.37557936 -0.12237123 1.2166779 4156303
-0.36803776 -0.12162255 1.2202256 3630985
-0.38390124 -0.1141288 1.2183168 3893387
-0.3773101 -0.11265303 1.217665 4157333
-0.37049183 -0.11095893 1.2206935 3762828
-0.3839699 -0.10554239 1.2205597 3762325
-0.3783665 -0.10194339 1.2177035 4420507
-0.37257737 -0.10111208 1.2208518 3828877
-0.38747993 -0.092117533 1.2204576 4222878
-0.37966216 -0.092603505 1.2177178 4552347
-0.37393299 -0.09203729 1.2214564 3631755
-0.38981387 -0.084469855 1.2147033 3627913
-0.38080624 -0.084629357 1.2138128 4683676
-0.37442568 -0.082220018 1.2176945 3892613
-0.37442708 -0.074197933 1.2146097 3563127
-0.3780899 -0.16319075 1.2252527 3033484
-0.37010241 -0.16281252 1.2287437 2897991
-0.36034307 -0.16029194 1.2296172 3891064
-0.3533254 -0.15830791 1.2322878 2638186
-0.38340172 -0.15488304 1.2233297 666715
-0.37237322 -0.15523806 1.2247887 4813457
-0.35962075 -0.15001902 1.226629 3499654
-0.35312444 -0.14878121 1.2312459 3561592
-0.38601235 -0.14376976 1.2232845 6722
-0.36139423 -0.14064585 1.2266479 3694979
-0.35528919 -0.13933215 1.229515 3233144
-0.36165002 -0.13012749 1.2269 3104639
-0.357501 -0.12940498 1.2306832 2640231
-0.36400229 -0.12067933 1.2268438 2907007
-0.36032608 -0.12018228 1.2319342 3099492
-0.38801092 -0.11242963 1.223871 4089741
-0.36609182 -0.11131561 1.2271807 3496061
-0.36268803 -0.10960352 1.2323662 4278874
-0.38714966 -0.10406362 1.2242134 2972810
-0.36865506 -0.10126066 1.2281287 3757171
-0.36522299 -0.10179655 1.232241 3748927
-0.38701817 -0.098172322 1.2243911 3630740
-0.36916006 -0.093881175 1.226886 3953004
-0.37033176 -0.16921058 1.2337631 984897
-0.36076874 -0.16359995 1.2351893 4350584
-0.35494408 -0.13821846 1.2373284 4674411
-0.35678199 -0.12990049 1.2396648 6974583
-0.36040613 -0.1192736 1.2394713 3815753
-0.3928833 -0.11402901 1.2322613 5799072
-0.36084744 -0.10961889 1.2366476 5064001
-0.35543039 -0.14442056 1.2495416 7039097
-0.35682783 -0.13879624 1.2505177 7565430
-0.3589558 -0.1303668 1.2501273 8223350
-0.36004105 -0.12214631 1.245497 9076613
