# .PCD v0.7 - Point Cloud Data file format
VERSION 0.7
FIELDS x y z rgba
SIZE 4 4 4 4
TYPE F F F U
COUNT 1 1 1 1
WIDTH 174
HEIGHT 1
VIEWPOINT 0 0 0 1 0 0 0
POINTS 174
DATA ascii
-0.39989638 0.073087536 1.1040096 5134174
-0.39302015 0.072234295 1.1041887 5134176
-0.4008956 0.077684656 1.1039933 4871515
-0.40627003 0.054645106 1.1108049 4936281
-0.39561725 0.053265795 1.1110822 5199967
-0.39076829 0.053800933 1.1112108 5397348
-0.41516632 0.060425952 1.1102831 4673880
-0.40737471 0.060755685 1.1085708 4870232
-0.39790308 0.061877586 1.10954 5068382
-0.38820824 0.06332463 1.1103437 5068384
-0.38061956 0.065718047 1.1115034 4476504
-0.4165647 0.069786049 1.1088994 4607822
-0.40950173 0.070584752 1.107753 4673623
-0.39849687 0.071045093 1.1080434 5134174
-0.38822702 0.073078841 1.108318 4739419
-0.38048962 0.073691435 1.1098089 4081746
-0.4177112 0.078088805 1.1105542 4410445
-0.40944952 0.08007925 1.1077747 4213839
-0.39925528 0.081719801 1.1080464 4345429
-0.3891958 0.082414396 1.1083125 4016211
-0.38109496 0.082960889 1.109681 3621193
-0.4094356 0.085555986 1.1077868 3884109
-0.40021092 0.087561883 1.1080338 3752784
-0.38984168 0.088638119 1.1083088 3621192
-0.38247555 0.0883542 1.108502 3686459
-0.4135561 0.041593619 1.1210176 4673626
-0.40530658 0.041583963 1.1183932 4870741
-0.3960799 0.041428059 1.1188201 5265754
-0.38615382 0.043240905 1.1193525 5397604
-0.37804314 0.046892531 1.1225346 4608350
-0.41542327 0.050456002 1.1170574 4673629
-0.40687859 0.049847625 1.1151134 4870744
-0.39830011 0.049216069 1.1150043 5134174
-0.38626677 0.052553467 1.1159804 5397606
-0.37822458 0.054234006 1.120363 4476760
-0.37249941 0.058936059 1.1227063 4015442
-0.42334422 0.057906277 1.1213666 3883351
-0.41974792 0.058312476 1.1162602 4475995
-0.38603967 0.059140913 1.115348 5068641
-0.37732995 0.063310869 1.1176394 4082513
-0.37164685 0.06509167 1.1222417 3752531
-0.42200446 0.068118647 1.1150215 4079443
-0.37632939 0.0725848 1.1171328 3621705
-0.37165865 0.070717163 1.1203527 3751503
-0.37870601 0.079950154 1.1155856 3490378
-0.40043277 0.024650777 1.1329018 5002588
-0.39725095 0.02498102 1.1329862 5528419
-0.41202965 0.03309869 1.1326149 4739163
-0.40444353 0.030995781 1.1298645 5002333
-0.39496559 0.031671904 1.1300596 5397092
-0.38605058 0.034637883 1.1316581 5332066
-0.38021174 0.036401108 1.1334589 4740695
-0.413721 0.036921442 1.1273267 4082256
-0.40664217 0.036495611 1.1257615 5068120
-0.38396618 0.039383873 1.1283648 5200736
-0.3762013 0.043571427 1.1307151 4345175
-0.36940467 0.046219811 1.1331925 4278096
-0.37442476 0.053292289 1.1275023 4147028
-0.36969307 0.053313099 1.1317123 3819087
-0.37056136 0.060787536 1.1279629 3687502
-0.39234331 0.013506604 1.1440946 5528423
-0.38811484 0.014486944 1.144208 5397348
-0.40327165 0.020278735 1.1384864 4804702
-0.3938041 0.021055004 1.1381572 5462626
-0.3845847 0.022657534 1.1409838 5003105
-0.37693024 0.027024338 1.1421282 4804440
-0.41345975 0.029342694 1.1395717 3817824
-0.40703422 0.026244296 1.1357327 4673622
-0.39108261 0.02789993 1.1361558 5660265
-0.38389581 0.03020989 1.1363498 5069150
-0.37525392 0.033936985 1.1385858 4475986
-0.3702839 0.038765386 1.1387269 4014924
-0.3730447 0.040524796 1.1366574 4606547
-0.36760592 0.043535754 1.137307 3620428
-0.39833388 0.0060241707 1.1509234 4079956
-0.39160556 0.0057303011 1.1488132 5266270
-0.38588506 0.0067714322 1.1512525 5002845
-0.40177944 0.01186852 1.1488446 4079963
-0.39388847 0.010075355 1.1470476 5330781
-0.38369426 0.013368336 1.1489705 5002331
-0.38099036 0.019666163 1.1474075 5001816
-0.37716436 0.022930713 1.1487155 4540755
-0.37340283 0.030225893 1.1476297 4213074
-0.39156669 -0.003978882 1.1630843 5265766
-0.39324108 0.00034726225 1.1601913 5068639
-0.38474262 0.0028943587 1.1599439 4214103
-0.40188488 0.0057575386 1.1548308 1580089
-0.38102272 0.0097635482 1.1560551 4145996
-0.37887928 0.015799547 1.1554575 4212054
-0.39792514 -0.0056951009 1.1659143 3618132
-0.39235252 -0.0062207114 1.1660597 5199718
-0.3859148 -0.0044485349 1.1662328 4214875
-0.38169608 -0.064214423 1.1822214 528927
-0.37653494 -0.064350337 1.1823568 1517876
-0.37670583 -0.074314781 1.1943352 4419983
-0.39239734 -0.069083169 1.1919329 1651559
-0.38697737 -0.06774991 1.1889344 1782104
-0.37462369 -0.068994924 1.1871489 4154236
-0.36994779 -0.065082707 1.191103 3028033
-0.38492528 -0.060467429 1.1941487 2369321
-0.37704483 -0.059753694 1.1907563 2040105
-0.38671467 -0.041362897 1.1901411 4146252
-0.39185354 -0.073973022 1.2019402 5077683
-0.384774 -0.075834155 1.2007886 4617364
-0.37536231 -0.075236782 1.2010375 4549258
-0.37058106 -0.069322027 1.1985084 6582660
-0.39395601 -0.062671073 1.1979078 7695014
-0.38670644 -0.058159113 1.1987751 2040625
-0.37875846 -0.056101315 1.1983216 2172202
-0.37151298 -0.060341686 1.1985031 2760198
-0.38535577 -0.085107505 1.21009 4683677
-0.3796882 -0.08451926 1.2102404 3831442
-0.39362207 -0.079037987 1.2087424 3299734
-0.3863481 -0.080503553 1.2075275 4683420
-0.37779748 -0.080119796 1.208699 3960460
-0.38503674 -0.15829039 1.2229462 3829135
-0.37700319 -0.1569721 1.2231604 4223637
-0.37076643 -0.15677616 1.2233248 3960467
-0.3868157 -0.14904605 1.2229192 3498881
-0.37847435 -0.14772029 1.2227414 3895695
-0.37081459 -0.14558664 1.2233475 3631246
-0.38777953 -0.13790062 1.2199167 3499128
-0.38049129 -0.13795057 1.2201084 4025235
-0.37188509 -0.13609637 1.2221965 3499655
-0.388091 -0.12850374 1.2179279 3826560
-0.38139877 -0.12785435 1.2186056 4156303
-0.37348628 -0.12758431 1.2213151 3630985
-0.38891247 -0.11902089 1.2209277 3893387
-0.38234398 -0.11802407 1.2195466 4157333
-0.37513995 -0.11676817 1.221795 3762828
-0.38815174 -0.11041712 1.2229668 3762325
-0.38265437 -0.10726729 1.2194504 4420507
-0.3765173 -0.10679746 1.2219468 3828877
-0.39072496 -0.096781343 1.2229284 4222878
-0.38329843 -0.097860195 1.2193868 4552347
-0.37717557 -0.097641334 1.2224827 3631755
-0.39313433 -0.089078672 1.2172796 3627913
-0.38430664 -0.089887023 1.2154427 4683676
-0.37739614 -0.087873578 1.2185692 3892613
-0.37717962 -0.079920411 1.215318 3563127
-0.38576269 -0.16825649 1.2283363 3033484
-0.37743941 -0.16838828 1.2309507 2897991
-0.36749312 -0.16654909 1.2307259 3891064
-0.36010993 -0.16502367 1.2325907 2638186
-0.39066899 -0.15962577 1.2267966 666715
-0.37959793 -0.16073507 1.2270855 4813457
-0.36639431 -0.15640053 1.2274421 3499654
-0.35937026 -0.15555227 1.2313142 3561592
-0.39250231 -0.14835809 1.2267725 6722
-0.36750954 -0.14692646 1.2274331 3694979
-0.3610563 -0.14600214 1.2296054 3233144
-0.36701599 -0.1364136 1.2274686 3104639
-0.36244491 -0.13592669 1.2307727 2640231
-0.36870822 -0.12682508 1.2274446 2907007
-0.36448115 -0.12650934 1.2321035 3099492
-0.39227575 -0.11694972 1.2268459 4089741
-0.37010339 -0.11733318 1.2277855 3496061
-0.36605313 -0.11578489 1.2325398 4278874
-0.39081192 -0.10866099 1.2269021 2972810
-0.37185547 -0.10710894 1.2287681 3757171
-0.36804634 -0.10782144 1.2325045 3748927
-0.39025903 -0.10279159 1.2269292 3630740
-0.37198457 -0.099732466 1.2274165 3953004
-0.3775658 -0.17467526 1.2361121 984897
-0.36754334 -0.16973162 1.2363864 4350584
-0.35979852 -0.14479397 1.2373104 4674411
-0.36080095 -0.13633168 1.2396364 6974583
-0.36368877 -0.12547994 1.2395837 3815753
-0.39631671 -0.11807048 1.2357402 5799072
-0.3637687 -0.11586331 1.2366011 5064001
-0.35939366 -0.15075526 1.2496459 7039097
-0.36028978 -0.14503182 1.250635 7565430
-0.36186516 -0.13648041 1.2502785 8223350
-0.36287612 -0.12827699 1.2456012 9076613
