# .PCD v0.7 - Point Cloud Data file format
VERSION 0.7
FIELDS x y z rgba
SIZE 4 4 4 4
TYPE F F F U
COUNT 1 1 1 1
WIDTH 1130
HEIGHT 1
VIEWPOINT 0 0 0 1 0 0 0
POINTS 1130
DATA ascii
-0.12748381 -0.07580819 1.1138449 3697068
0.15433149 -0.065932035 1.1108067 3765679
0.1574637 -0.068324976 1.10589 3830452
0.17044008 -0.070586078 1.106354 11387079
-0.1266294 -0.067995004 1.1116692 3631022
-0.12454423 -0.064731158 1.1111342 3500456
0.15345493 -0.059015233 1.1079819 3830449
0.16011406 -0.059332043 1.1053247 5207985
0.16676141 -0.060210865 1.1091814 10334913
-0.12709931 -0.055993196 1.1138268 3434161
0.1523757 -0.050105806 1.1078105 3893939
0.15945645 -0.050414264 1.1068208 8428221
-0.12750039 -0.045994096 1.1174709 6194370
-0.12298121 -0.043788377 1.1182231 4421311
0.15000881 -0.038347438 1.1099969 5734064
0.15642412 -0.041875355 1.1108983 10203587
-0.12180769 -0.037091732 1.1182331 6852289
0.14832802 -0.032450423 1.1079671 8955077
0.015058049 0.093964592 1.1154373 9737616
-0.082247108 -0.21156816 1.1244684 7635861
-0.078782722 -0.21199566 1.1270424 8100012
-0.092666261 -0.20191413 1.1274683 10535920
-0.085640937 -0.20440692 1.1249149 5996227
-0.078868344 -0.20840628 1.1270665 6394567
-0.10314265 -0.19107395 1.1198065 8431615
-0.096016519 -0.19336595 1.1223757 1526185
-0.089672744 -0.19563463 1.1262847 1262491
0.13389504 -0.18749113 1.1216072 11717846
-0.11189749 -0.18272589 1.1200873 7571711
-0.10482284 -0.18483603 1.1214447 1917611
-0.097689688 -0.18721172 1.1250222 2379673
-0.090795897 -0.19001746 1.1274917 2644619
0.13532019 -0.18058187 1.1216118 5010097
0.14246716 -0.17742333 1.1182995 10599906
0.14951462 -0.1760374 1.1172655 14081762
-0.10502902 -0.17602578 1.1241598 2709143
0.13610968 -0.1699596 1.1216558 2909858
0.14264466 -0.1693017 1.1176686 4026283
0.15014575 -0.16928908 1.1137886 12307424
-0.11238211 -0.16241118 1.1202236 2775446
-0.10782499 -0.16653609 1.1229891 2775442
0.14370306 -0.16033165 1.1185139 3105445
0.14849405 -0.15935157 1.1133922 2578854
-0.11452868 -0.15527582 1.1224781 2775449
-0.11013871 -0.15760712 1.1268631 2906778
0.14583492 -0.15048656 1.1199185 3564451
0.14905803 -0.14940406 1.115839 3433893
-0.11855652 -0.14669974 1.1237768 2840984
0.14717758 -0.14227904 1.1215338 3565217
0.1507668 -0.14003956 1.1161178 3499430
-0.12373378 -0.13486893 1.1206894 2841497
-0.12055237 -0.13661137 1.1265975 2907290
0.15284963 -0.12937967 1.1184622 3237547
-0.12409703 -0.12542933 1.122357 2973083
-0.12123861 -0.12587261 1.1266809 3038877
0.15574047 -0.11962938 1.119628 3827369
0.15821333 -0.11846528 1.113386 3564710
-0.12535913 -0.11549631 1.1237082 3039391
-0.12257475 -0.11736979 1.1274346 3170977
0.15576376 -0.10953633 1.119507 3565735
0.15800929 -0.10991172 1.1134435 3500198
-0.12562437 -0.10732275 1.1259086 3170977
0.15579863 -0.10050989 1.1188941 3631790
0.15699178 -0.10217831 1.1215202 3434923
-0.12605724 -0.096770056 1.1249839 3302823
0.1551939 -0.089069799 1.1191463 3566513
-0.12629977 -0.086762458 1.1237173 3368614
0.15406974 -0.079838037 1.1192706 3632560
-0.12594509 -0.079054549 1.1250888 3565995
0.15259618 -0.069693618 1.1180987 3895728
-0.12332829 -0.063949361 1.1267127 3697842
0.14998302 -0.059786201 1.1167605 4158132
-0.12189773 -0.05560023 1.1254891 3502262
0.14862974 -0.049155362 1.1180612 4027837
-0.11949594 -0.046021335 1.1248983 3698611
0.1436094 -0.037854116 1.1222632 4619197
0.14934039 -0.040779807 1.1165545 4946612
-0.12600383 -0.039710525 1.1213285 7180220
-0.11830311 -0.03657477 1.128348 4815032
0.1433523 -0.031372182 1.1216426 5209534
0.14783999 -0.02946195 1.1142004 8425655
0.016350215 0.08994776 1.1183801 9474444
-0.054843843 -0.22133505 1.1333594 8300241
-0.073339522 -0.21355787 1.1302549 7642055
-0.065779246 -0.21404812 1.1321905 4815810
-0.058902465 -0.21734399 1.1334903 5210825
-0.082766831 -0.20186502 1.1302098 932767
-0.075674854 -0.20515084 1.1316884 2382238
-0.066928446 -0.20799682 1.1337581 2251168
0.11640366 -0.20033891 1.1289908 6518691
0.12217568 -0.19916423 1.1274173 11319227
-0.084605269 -0.19517836 1.1321661 2447513
-0.079075463 -0.19853181 1.1341347 2513045
0.12383258 -0.19090223 1.1278002 4617903
0.1307956 -0.19073138 1.12467 10929103
-0.094330475 -0.18437928 1.132075 2971544
-0.08831773 -0.1880047 1.1324407 2774929
0.12566681 -0.18158369 1.1271945 2909086
0.13048615 -0.18050335 1.1247404 3105187
-0.10221338 -0.1713641 1.1309062 2709911
-0.097412229 -0.17632559 1.1331036 2644371
0.1317859 -0.17065802 1.1253818 3368356
-0.10465305 -0.16481811 1.132829 2775444
-0.099565737 -0.16882628 1.1335196 2709910
0.13599361 -0.16069457 1.1263169 3368613
0.14008512 -0.15761939 1.1246277 3499683
-0.10807743 -0.15632579 1.1326523 2841497
0.13767688 -0.1532115 1.1287191 3237027
0.14226884 -0.150373 1.1259483 3302821
-0.11430564 -0.14487532 1.1319566 2645144
-0.11071477 -0.14653286 1.1343927 2775964
0.14517206 -0.14037199 1.1267817 3237542
0.14915027 -0.13669005 1.1258509 3106215
-0.11631236 -0.13652824 1.1329435 2907291
0.14632961 -0.1307925 1.1272947 3499683
0.14934248 -0.12872866 1.1257038 3303338
-0.11750916 -0.12663481 1.133981 3039134
0.15076083 -0.12020276 1.1259874 3499947
-0.12305773 -0.11244918 1.1318122 3236770
-0.12070993 -0.11670645 1.1350591 3236770
0.15225147 -0.10965935 1.1264191 3500458
-0.12321227 -0.10597117 1.1318557 3237027
-0.121374 -0.10631585 1.1358068 3302821
0.15437742 -0.099059723 1.1268954 3632048
-0.12344407 -0.096254148 1.1319209 3302824
-0.12159369 -0.0971063 1.1358685 3302569
0.152436 -0.09021426 1.1268964 3632047
-0.12409217 -0.087195307 1.1319932 3434408
-0.12126832 -0.084786229 1.1359351 3434665
0.14877227 -0.079249993 1.1266955 4026292
-0.12390768 -0.076820113 1.1320515 3631531
-0.12209771 -0.075978503 1.1360105 3631531
0.14865279 -0.071263179 1.1253731 4157366
-0.1240622 -0.070342109 1.132095 4025255
-0.12097589 -0.065159202 1.1343321 3632304
0.1478236 -0.059487354 1.1250219 4289211
-0.11774682 -0.056083262 1.1337309 3568048
0.14443007 -0.048802253 1.125843 4094399
0.14689966 -0.053140335 1.1270856 4224702
-0.11662795 -0.04999809 1.1320237 3764911
-0.11322691 -0.045617234 1.1344619 3895729
0.14169481 -0.040449679 1.1267539 4487616
-0.11819453 -0.031945348 1.1351757 6458567
-0.11318757 -0.035594769 1.1344218 3895996
0.14133364 -0.029410914 1.1257757 5735616
0.14810447 -0.025991693 1.1252185 9477559
-0.11779348 -0.029258855 1.136182 6852289
-0.1145441 -0.029180773 1.1360971 5933254
0.049546614 0.076427788 1.1284301 9474701
-0.017538393 -0.23097315 1.1443257 7248329
0.015305908 -0.23177056 1.1426581 5801654
0.02328304 -0.23044558 1.1419232 5210039
0.036120646 -0.23077922 1.1429179 6328255
0.043782488 -0.2305951 1.1427178 7379645
0.05533316 -0.23019582 1.142417 8430007
0.063132398 -0.22820748 1.1382228 8625323
-0.055824988 -0.22371159 1.1373723 9678537
-0.04483477 -0.22349311 1.1436137 4422071
-0.035447709 -0.2239539 1.1448387 2778029
-0.025647296 -0.22553384 1.1445718 2513574
-0.017972892 -0.22806217 1.1443548 2315684
0.011962201 -0.22807315 1.1435688 2120102
0.024002243 -0.22778383 1.1432544 2185635
0.037110716 -0.2263733 1.1429187 2186146
0.04260958 -0.22733667 1.1427685 2316696
0.057881027 -0.22477862 1.1423831 4486314
0.065374993 -0.22419007 1.1401892 5997746
0.076469474 -0.22096883 1.1407748 6063288
0.08512985 -0.2193035 1.141701 6589614
0.093234718 -0.21932784 1.141488 8757678
-0.06154497 -0.21188204 1.1375946 1855898
-0.054682657 -0.21424833 1.1406392 2249885
-0.046842851 -0.21639776 1.1444564 2381985
-0.038648255 -0.21833408 1.1449569 3039902
0.078976609 -0.21386418 1.1418957 2841504
0.084983572 -0.21317208 1.1417421 3302564
0.094455428 -0.21067934 1.1401747 4420011
0.1041178 -0.20958436 1.1355451 6984117
0.11342562 -0.20658946 1.1330324 6254993
-0.072914876 -0.20163783 1.1387557 2710418
-0.065021381 -0.20473711 1.1421118 2775447
-0.0581747 -0.20682141 1.1447395 2906776
0.096738338 -0.20273563 1.1410968 3171492
0.105138 -0.20114088 1.1380849 3237285
0.1133301 -0.199701 1.1336485 3629215
-0.075861409 -0.19478473 1.1428763 2775191
-0.06757988 -0.19809547 1.145173 2906012
0.10691518 -0.19190069 1.1396284 3040421
0.11372606 -0.19003083 1.1360738 3105703
0.11955816 -0.19012347 1.1329716 2777257
-0.091644406 -0.18105601 1.1385726 2710677
-0.084696539 -0.1847986 1.141898 2709909
-0.078331627 -0.18827173 1.1441813 2709910
0.11477133 -0.18164816 1.1396776 3368100
0.12219047 -0.17960483 1.1351007 3302561
-0.092946403 -0.1745621 1.1417586 2710421
-0.087988749 -0.17732334 1.1457019 2644886
0.11668174 -0.17384771 1.1411492 3040936
0.12459138 -0.1705438 1.1388739 3237031
0.13084689 -0.16747209 1.1358142 3368615
-0.10298063 -0.16174605 1.1389878 2776209
-0.097320355 -0.16612458 1.1435642 2841240
0.1264753 -0.16202408 1.140964 3237287
0.13274001 -0.15961188 1.1356695 3302822
-0.1040203 -0.15514728 1.1435902 2710683
-0.099175349 -0.15834299 1.1462446 2841499
0.13486783 -0.15115835 1.1382207 3237541
0.13967231 -0.14830157 1.1342987 3237798
-0.10633589 -0.14664903 1.1443125 2907293
0.13641065 -0.1423701 1.1408229 3237797
0.1409498 -0.13968343 1.1357181 3303334
-0.11302418 -0.13508235 1.1405572 2907805
-0.11062855 -0.13670215 1.1465437 2907805
0.1426331 -0.13029441 1.1382877 3434407
-0.11370493 -0.12579913 1.1421559 3039392
-0.11091953 -0.12695079 1.147411 3039391
0.14434405 -0.12067714 1.1381742 3500202
0.14828049 -0.11763129 1.1326588 3631274
-0.11702239 -0.1167213 1.1441656 3170979
0.1461059 -0.11037891 1.1403184 3631791
0.14933109 -0.10969355 1.1344581 3566510
-0.11764213 -0.10639133 1.1454262 3105957
0.14498691 -0.099280447 1.1391927 3632305
0.15009136 -0.10021459 1.1330508 3501227
-0.11832245 -0.096363805 1.1432185 3237546
0.14429028 -0.090217605 1.1383871 3698099
0.14878124 -0.09045548 1.1332114 3698094
-0.11792592 -0.086604975 1.1435057 3434923
0.14531907 -0.0809201 1.1389624 3895479
0.14745048 -0.082838163 1.1328925 3895477
-0.11778029 -0.07614544 1.1441848 3566256
0.14534324 -0.06962277 1.1403643 4027579
0.14773443 -0.068966888 1.1369709 4157882
-0.11701842 -0.067209698 1.1434627 3567024
0.1430639 -0.060133692 1.139972 4159422
0.14727814 -0.060149524 1.1354361 4289724
-0.11499736 -0.057306711 1.141273 3567791
-0.11180193 -0.05533126 1.1465365 3764403
0.1410767 -0.05013115 1.1385943 4356797
-0.11043463 -0.046319481 1.140458 3830196
0.13816258 -0.040609505 1.1377951 4619718
-0.10916113 -0.0354001 1.1428295 3896507
0.13380344 -0.028821513 1.1384704 4817095
0.13825747 -0.029270239 1.1351273 4948420
-0.11695493 -0.026418537 1.1441802 6916535
-0.10946579 -0.026766926 1.1436735 5210049
0.13286039 -0.022465333 1.1406457 5013440
0.13724734 -0.021926992 1.1381997 5998788
0.030722743 0.049203709 1.1396197 5859448
0.038864817 0.04948926 1.1375498 6122362
0.044496994 0.049733058 1.1404045 6319482
0.055677176 0.051241875 1.1441216 5330522
0.031158272 0.05367285 1.1381111 5792108
0.038944967 0.054708987 1.1373794 5527648
0.04439288 0.054097429 1.1404338 5067354
-0.011719702 -0.23082599 1.1471748 4354997
-0.0042877346 -0.23168857 1.1489751 4684224
0.0055582337 -0.23114769 1.1472527 4289976
0.016461864 -0.22857964 1.1464485 2054307
0.026900301 -0.22887799 1.1461726 2777510
0.032413512 -0.22984388 1.146022 4026798
0.048874579 -0.22944832 1.1455921 5604271
0.052676208 -0.22770938 1.1455029 4881326
-0.030936031 -0.22093153 1.1477396 3039902
-0.022956254 -0.22166122 1.1480259 2710943
-0.014373442 -0.22338337 1.1505954 2645152
-0.0043448601 -0.22602393 1.1536795 2514339
0.0055739405 -0.22567834 1.1528877 2514851
0.015385985 -0.22292592 1.1511129 2842787
0.025197744 -0.22225153 1.1486585 2908579
0.034866791 -0.22162741 1.1488975 3039651
0.045100875 -0.22209221 1.1497375 2908578
0.054418102 -0.2209945 1.1492494 2778020
0.064343549 -0.21907844 1.1466782 2646433
0.073940299 -0.22152337 1.1449822 5012145
0.085493594 -0.22252718 1.1446728 8955830
-0.044152819 -0.2128295 1.1484218 2841242
-0.034212537 -0.21467775 1.150198 2775960
-0.025128132 -0.21574804 1.1518869 2841500
-0.015576186 -0.21771634 1.1553588 2907551
0.016083438 -0.2162182 1.1545366 3105184
0.025283139 -0.21562847 1.1542987 3170722
0.035228305 -0.21538946 1.154039 3302053
0.045344461 -0.21459338 1.1537782 3170723
0.055820167 -0.21341994 1.1535102 3105188
0.065082751 -0.21239214 1.1515584 3170467
0.07457687 -0.21192819 1.1474248 3236258
0.08458294 -0.20823143 1.1452283 3171236
-0.061037324 -0.20188391 1.148646 2906776
-0.054427229 -0.20396966 1.149603 2907033
-0.045861937 -0.20477399 1.1530651 2841497
-0.036431745 -0.20863211 1.1559618 2775704
0.065984242 -0.20690832 1.153283 3105443
0.0748244 -0.20669588 1.1530522 3105443
0.085490927 -0.20271224 1.1515328 3105956
0.0936912 -0.1996197 1.1477982 3105956
-0.072273239 -0.19117002 1.1490062 2644884
-0.065044329 -0.19458582 1.1517967 2775705
-0.056539662 -0.19727269 1.1542248 2841497
0.088925958 -0.19529693 1.1527513 3172006
0.096496172 -0.19272543 1.1515678 3040421
0.10223415 -0.19022021 1.1489315 2974628
-0.081261978 -0.18259893 1.1492945 2645144
-0.07450068 -0.18422577 1.152167 2710425
-0.069096036 -0.18682829 1.1535224 2776216
0.10550024 -0.18150122 1.1491489 3171493
0.11034044 -0.17913252 1.1458851 3237026
-0.084422223 -0.17467256 1.1520149 2710424
-0.077900045 -0.17675243 1.1557896 2710937
0.10834166 -0.1749222 1.1523656 3302823
0.11448888 -0.17066687 1.1490711 3172005
0.12018432 -0.16738278 1.1480991 3172006
-0.093430266 -0.1634865 1.1497303 2841498
-0.088848636 -0.16593072 1.15452 2907290
0.11691812 -0.16365603 1.1522089 3303592
0.12304699 -0.16011664 1.1507357 3237544
0.12891594 -0.15558048 1.1439402 3303337
-0.095351078 -0.15508434 1.1515468 2973342
-0.090523414 -0.15813389 1.1576896 3038879
0.12650889 -0.15227206 1.1513596 3237544
0.13067594 -0.14911127 1.1467344 3303336
-0.10366636 -0.14372309 1.1511198 2973342
-0.097410999 -0.14676848 1.1554387 2973600
0.13389714 -0.13991386 1.1479063 3368872
-0.10539575 -0.13590862 1.1525663 3039392
-0.099802613 -0.13663171 1.1580641 3236259
0.1350181 -0.13045593 1.149685 3500460
0.13923529 -0.12787281 1.1438379 3434923
-0.10671113 -0.12629825 1.1531955 3170978
0.13587043 -0.12151006 1.1506342 3500719
0.1404151 -0.11887731 1.1471963 3500718
-0.11361293 -0.11527634 1.1505538 3237029
-0.10961235 -0.11659134 1.156443 3237286
0.14061427 -0.11003177 1.1500179 3697329
-0.11382242 -0.10649426 1.1506128 3237543
-0.11107851 -0.10604335 1.1580462 3172263
0.14160126 -0.10089077 1.1495421 3697843
-0.11427616 -0.096885614 1.1536844 3303340
-0.11209659 -0.095794156 1.1586356 3303852
0.14113705 -0.090456024 1.150018 3764149
-0.11465087 -0.087109327 1.1507525 3500716
-0.1117576 -0.085726596 1.1586879 3501229
0.14379025 -0.079943091 1.1485833 3764661
-0.11447711 -0.079050303 1.1507971 3566512
-0.11127494 -0.075579673 1.1550994 3632306
0.14056437 -0.069808669 1.1486288 3896764
-0.110903 -0.065947399 1.1551483 3698357
0.13440137 -0.059928317 1.1510477 4291265
0.13811567 -0.060971066 1.1454179 4225217
-0.1095173 -0.05690141 1.1548032 3764408
0.13493691 -0.050305247 1.1504253 4554434
0.137376 -0.049931973 1.1443614 4488640
-0.10679789 -0.046126246 1.1555977 3895997
-0.10267165 -0.042847924 1.1587105 4027323
0.13426174 -0.03951402 1.1495084 4817354
-0.10557407 -0.036537018 1.152156 3962044
-0.10147486 -0.035272352 1.1579249 4093118
0.12472489 -0.027429357 1.1528335 5014224
0.13007556 -0.030006878 1.1486758 4751563
-0.10476006 -0.026094198 1.1508644 4290235
-0.09976542 -0.025876403 1.1552696 4158908
-0.093551882 -0.023457959 1.1585891 4028609
0.12284752 -0.020422228 1.151147 4817874
0.12938361 -0.019945085 1.1457541 5145287
-0.097597331 -0.019160189 1.1531194 4487616
-0.092171803 -0.016394608 1.1572621 4356800
0.11369462 -0.0081224516 1.15124 5276623
0.12000657 -0.010958582 1.1473413 5604813
0.12939712 -0.011941209 1.1456914 6720449
-0.090202495 -0.0093680248 1.1585869 5671109
0.11174124 -0.0026120543 1.1527538 5802961
0.11801565 -0.0032029077 1.1484888 6787017
0.035347737 0.01134517 1.1554164 12972031
-0.020159749 0.019940689 1.1549255 5869264
0.012361258 0.017060176 1.1560547 7515376
0.019859619 0.016871676 1.1558567 8764660
0.029471556 0.016660281 1.1556031 10146554
0.036126275 0.015787907 1.155423 10870005
-0.078207396 0.026900351 1.1504898 8028800
-0.073094912 0.027389318 1.1503586 7305855
-0.015746815 0.021177419 1.1568179 5671370
-0.012431761 0.02125708 1.1567314 5869265
0.010773635 0.021814734 1.1561254 6988787
0.015193709 0.021920942 1.15601 7185904
0.10117423 0.032835186 1.1538187 6314850
-0.071994871 0.032419518 1.1503603 8028802
0.097995803 0.036298037 1.1539233 6117979
0.073590666 0.046291709 1.1466221 5593178
0.075785473 0.046344459 1.1465647 5658970
-0.0099286735 -0.22057401 1.1591946 2973083
-0.0043580811 -0.22154996 1.1590425 2973595
0.0050722705 -0.22089739 1.1594657 2973598
-0.030152144 -0.2099618 1.1597903 2842012
-0.023743315 -0.21119508 1.1596144 2776219
-0.014308715 -0.21345976 1.1608773 2907806
-0.0046438612 -0.21461815 1.1622511 2907807
0.0059254086 -0.21490605 1.1621474 2973599
0.014674675 -0.21233793 1.1592656 3039136
0.025405612 -0.21109411 1.1596583 3170723
0.035357721 -0.21073109 1.1587323 3236770
0.045122217 -0.21003109 1.1578133 3170979
0.054158323 -0.20960051 1.1575787 3170980
0.060771585 -0.20777684 1.1574161 3171236
-0.04145208 -0.20135479 1.1601394 2842012
-0.034654915 -0.20346744 1.1614031 2842011
-0.024966316 -0.20550093 1.1621437 2842012
-0.016608426 -0.20676029 1.1634555 2907805
0.029877186 -0.20703524 1.1622332 3302309
0.035828069 -0.20572753 1.1609417 3302308
0.044437818 -0.20539036 1.1593601 3171236
0.055174544 -0.20569171 1.1575758 3171236
0.065805033 -0.20407358 1.1589738 3105443
0.075558245 -0.20191139 1.1580639 3171492
0.082032494 -0.19986713 1.156906 3040420
-0.062784366 -0.19076924 1.160764 2841497
-0.053934023 -0.19331008 1.1610496 2907291
-0.045402162 -0.19576558 1.1621602 2907549
-0.038647518 -0.19680321 1.1640948 2907551
0.078567527 -0.19472888 1.1610297 3040420
0.085486323 -0.1927079 1.158965 3106213
0.09318535 -0.18990672 1.1566738 3106214
-0.064389206 -0.18433271 1.162846 2907290
-0.057698153 -0.18706217 1.1641542 2973340
0.089481451 -0.18555757 1.160799 3302823
0.0954035 -0.18301356 1.1582581 3237030
0.10146317 -0.17946142 1.1582985 3237031
-0.082110681 -0.17125691 1.1613903 2841497
-0.073621653 -0.17453718 1.1616809 2842012
-0.067387387 -0.17664072 1.1639719 2907547
0.10643969 -0.17164949 1.1573603 3368361
0.11141914 -0.16827099 1.1563268 3237285
-0.083730236 -0.1653768 1.1614686 2973085
-0.076876402 -0.16545537 1.1640259 3039135
0.10855446 -0.16445547 1.1564252 3368615
0.1150147 -0.16097382 1.1570044 3237799
0.11948396 -0.15753391 1.1561804 3303337
-0.091431119 -0.15261397 1.1617485 2973857
-0.085880421 -0.15602201 1.1631382 3039137
-0.079865694 -0.15677503 1.1654209 3104930
0.11685712 -0.15343601 1.158275 3172264
0.12297229 -0.15038876 1.1567992 3238059
-0.092791155 -0.14444879 1.1628343 3039650
-0.088648044 -0.14796567 1.1657051 3105700
0.12601577 -0.14057931 1.1582668 3369132
0.13017531 -0.14062969 1.1560026 3434410
-0.095731221 -0.13595876 1.1636777 3171236
0.12774009 -0.13242045 1.1593176 3500719
0.13102385 -0.13002872 1.1580455 3435183
-0.10320733 -0.12404165 1.1622317 3302823
-0.098441765 -0.12592518 1.1647627 3171495
0.13153978 -0.11991486 1.1579118 3566514
-0.10512084 -0.1154597 1.1637893 3368873
-0.10136987 -0.11655815 1.1654301 3368875
0.13400783 -0.11065304 1.1568848 3697588
-0.10620876 -0.10642523 1.1650853 3303850
0.13541459 -0.10103454 1.1595359 3763892
0.1385316 -0.10025343 1.156029 3698099
-0.10782302 -0.096248396 1.1641227 3435181
-0.10189643 -0.096611619 1.1663656 3435438
0.13620704 -0.090889834 1.1601485 3829942
0.13896397 -0.090255402 1.1572218 3764149
-0.10700777 -0.086555451 1.1645604 3501229
0.13588843 -0.077533931 1.1602381 3896505
0.14029317 -0.080296792 1.1579231 3830455
-0.10665715 -0.076680131 1.1641496 3632563
-0.10245399 -0.073238797 1.1665226 3567542
0.13329238 -0.070418499 1.1577773 4027837
0.13856715 -0.073838875 1.156189 3896505
-0.10614388 -0.066605017 1.1639923 3829940
-0.1026133 -0.066560842 1.1665674 3699127
0.13159494 -0.060851302 1.1591187 4291009
-0.10598139 -0.056453589 1.1635163 3895737
-0.10223922 -0.055574648 1.1666245 4027576
0.13163401 -0.050804164 1.1585119 4422849
-0.10498016 -0.049726367 1.1627307 4158911
-0.1005309 -0.045932662 1.1646377 4093372
0.13133235 -0.041060943 1.158079 4817355
-0.097020991 -0.036443491 1.1641417 4093630
-0.092283487 -0.032903716 1.1665012 4094397
0.12364677 -0.030499659 1.1590676 5080014
0.12817635 -0.033580184 1.1567069 4883149
-0.095125027 -0.02877292 1.1625996 4028348
-0.0906436 -0.026117153 1.1639986 4028864
0.11891567 -0.020963989 1.1588053 4949202
-0.087303452 -0.01644358 1.164288 4029123
-0.083083183 -0.014122136 1.166374 3963586
0.11262228 -0.01125358 1.1599189 5146069
0.11609709 -0.015558437 1.1571338 5080276
-0.086730696 -0.0085944384 1.1625019 5342665
-0.079558909 -0.0062991455 1.166329 4882633
-0.016228678 -0.0010080636 1.1646984 6070261
-0.0095528848 -0.0008476451 1.1645241 6528744
-0.0028770845 -0.0006872192 1.1643498 8827627
0.012699777 -0.00031289458 1.1639431 10340848
0.021457065 -0.00073881447 1.1637105 8895736
0.028976081 -0.0012581125 1.1635098 6266608
0.10327694 0.0013136268 1.1605742 5475287
0.10779633 -0.0020854473 1.1587676 5475028
-0.07628312 -0.0002143383 1.1642793 5999306
-0.069652826 0.0010548159 1.164113 5540557
-0.061186664 0.0045985505 1.1632454 5803727
-0.048448391 0.0066317618 1.1655909 4950220
-0.039464325 0.0057228059 1.1653495 5016280
-0.029740477 0.0053478777 1.1646917 5411294
-0.019746499 0.0055868328 1.1625901 5806569
-0.0097209793 0.0058295503 1.1639689 7120874
-0.00014005229 0.0068027526 1.1643234 12379901
0.010394532 0.0065484494 1.1615181 13891069
0.020192413 0.0065497085 1.160587 12969723
0.03015919 0.0070203841 1.1612126 9946095
0.04024123 0.0070283115 1.1613508 10013177
0.049920842 0.0091436356 1.1608686 7449069
0.056586415 0.011135601 1.1628604 5411552
0.10023569 0.0051407069 1.1591768 6526426
-0.046588384 0.011625931 1.1655724 6264275
-0.039082944 0.012626864 1.1628807 5803990
-0.029565668 0.013495885 1.1611354 5345755
-0.019594589 0.014997646 1.1608828 5412839
-0.010010855 0.015817851 1.1611363 5676266
-0.00089466944 0.015099496 1.1632506 7253489
0.0088876542 0.0151655 1.1611363 8436213
0.018888345 0.013180509 1.1598612 12051453
0.033197239 0.017963648 1.1595147 10082302
0.041050583 0.017412491 1.1593051 10607102
0.049550623 0.016771182 1.159078 7515119
0.056634746 0.016318582 1.160223 6068200
-0.007935157 0.021414474 1.1606157 6001365
-0.0034998525 0.021521062 1.1604999 6396124
0.10879751 0.029990718 1.1576028 6447199
-0.0011242051 -0.21075074 1.1670262 3039391
0.0064403489 -0.21000674 1.1683326 3039135
0.017855279 -0.21029465 1.1665306 3104930
-0.03041807 -0.20028031 1.1678591 2776478
-0.023971314 -0.20103477 1.169686 2842271
-0.013977824 -0.20244922 1.1715976 2907807
-0.0046982262 -0.20408955 1.171858 2908063
0.0053639421 -0.20470516 1.1726947 2973600
0.015643295 -0.20347226 1.1719655 3105187
0.025533373 -0.20287716 1.1707895 3236773
0.035183109 -0.20130092 1.169865 3237029
0.046128109 -0.20112401 1.1696454 3171237
0.055736512 -0.20182765 1.167088 3171236
0.065199248 -0.20003633 1.1662734 3105444
0.07398241 -0.19833021 1.1651297 3171493
-0.042732611 -0.19172487 1.1714357 2841758
-0.034561478 -0.19384196 1.1720085 2907551
-0.025555765 -0.19475147 1.1745911 2842271
-0.014816755 -0.19569036 1.1754804 2908064
-0.0080455989 -0.19665273 1.1752967 2973857
0.013311435 -0.1961395 1.174739 3105444
0.026151773 -0.19483088 1.1744099 3237030
0.036185138 -0.19500029 1.1733451 3302823
0.045819424 -0.19398631 1.1729752 3171495
0.055130139 -0.19234964 1.1722722 3105703
0.064835228 -0.19237374 1.1718085 3105703
0.074574888 -0.19162852 1.1696565 3105702
0.082771346 -0.18890771 1.1666712 3105958
-0.054229707 -0.18429042 1.1702293 2973598
-0.046083622 -0.18584536 1.1743605 2907551
-0.036100663 -0.18748263 1.1760892 2908065
0.076245524 -0.18320344 1.1731653 3237288
0.084979661 -0.18226321 1.1704963 3302823
0.093511634 -0.1799947 1.1673008 3237287
-0.063865863 -0.17325842 1.1717601 3105183
-0.056241028 -0.17647234 1.1748019 2974112
-0.047843508 -0.17848304 1.1764523 2842786
0.08637397 -0.17548272 1.1729463 3171750
0.09487772 -0.17165826 1.1714125 3172008
0.10278385 -0.16968313 1.166882 3303081
-0.07227464 -0.1637603 1.1698475 3104930
-0.065838724 -0.16596785 1.1756672 3170978
0.09720096 -0.16326475 1.1727364 3303337
0.10487929 -0.16154484 1.1702945 3368873
0.11170184 -0.16005243 1.1669186 3237543
-0.082355216 -0.15122433 1.1721891 3040164
-0.075517014 -0.15482554 1.173111 3105701
-0.06892506 -0.15911356 1.1771238 3302822
0.1062953 -0.15250278 1.1725632 3303597
0.11352188 -0.1498716 1.1680242 3238059
0.12047539 -0.14663434 1.1662244 3303852
-0.084917396 -0.14495686 1.1734061 3106213
-0.076997049 -0.1468381 1.1774105 3172007
0.11431445 -0.14080831 1.1722238 3369387
0.12214284 -0.14035518 1.1682196 3435181
-0.092374958 -0.13487904 1.171218 3237030
-0.085675806 -0.13542116 1.1753737 3237800
-0.079158619 -0.13873336 1.1775166 3303594
0.11599334 -0.13471876 1.1724168 3500972
0.12421048 -0.13021977 1.1689773 3500976
0.12869753 -0.12717533 1.1641263 3500977
-0.093687825 -0.12566249 1.173087 3237545
-0.088882357 -0.12723973 1.1769527 3303852
0.12585574 -0.12068101 1.1722434 3566772
0.12907907 -0.12090755 1.1681558 3566515
-0.096426561 -0.11601681 1.1733565 3369389
0.1264848 -0.11112966 1.172285 3763639
0.12969582 -0.11008368 1.1673163 3763639
-0.10358756 -0.10233467 1.1717106 3435181
-0.098045409 -0.10591184 1.1747825 3435438
0.12686272 -0.10003068 1.1723427 3895737
0.13170573 -0.099759437 1.1670387 3764149
-0.10321403 -0.095854439 1.1728072 3435438
-0.097724028 -0.096381433 1.1767229 3501231
0.12672859 -0.094408602 1.1723803 3961530
0.13187356 -0.090268515 1.1670921 3961528
0.13890284 -0.08670225 1.1641047 3895735
-0.10313765 -0.086602457 1.1734618 3501489
-0.098801948 -0.086295471 1.1762333 3501490
0.12629943 -0.07641793 1.1725012 4159679
0.13199452 -0.080927014 1.1675951 3962041
0.13884957 -0.084468655 1.1641197 3895735
-0.10380774 -0.079268456 1.1725237 3501747
-0.099008121 -0.075980023 1.1750853 3567541
0.12539805 -0.070064247 1.1725636 4225473
0.12899636 -0.070453256 1.1684651 4159424
-0.097505189 -0.0657821 1.1740409 3764919
0.12493667 -0.061199844 1.1726296 4422597
0.12875576 -0.060367782 1.1685328 4357059
-0.097250424 -0.055999625 1.1739223 3896505
-0.092384085 -0.055796631 1.1783689 3962298
0.12455844 -0.050583355 1.1727042 4685767
0.12851518 -0.050282307 1.1686007 4422851
-0.096055731 -0.046830144 1.1721175 4027836
-0.090947457 -0.044978146 1.1773057 4028094
0.12237638 -0.040024966 1.1707073 4948684
0.12818879 -0.041749157 1.1656601 4751818
-0.094595522 -0.03867624 1.1705283 4093632
-0.08895614 -0.035129249 1.1762501 4094399
0.11543999 -0.029801331 1.1730702 5080784
0.1196496 -0.030735373 1.1681522 5211343
-0.08594989 -0.026602149 1.17474 4094402
-0.079429388 -0.023398481 1.1772256 4226244
-0.072955802 -0.021577917 1.1780671 4620744
-0.019028017 -0.019156933 1.1766658 5412064
0.003453075 -0.018616691 1.1760788 6463211
0.011611335 -0.022259109 1.1758424 6397929
0.021277539 -0.021385901 1.1755939 6397929
0.030461039 -0.019253463 1.1753658 6003432
0.11215088 -0.02058202 1.1707118 5081042
0.11728835 -0.023527563 1.1650569 5081041
-0.078391321 -0.015524939 1.172111 4160963
-0.070203356 -0.014427118 1.1771809 4752075
-0.055212349 -0.011025973 1.1776655 4949201
-0.048454605 -0.011426114 1.1774856 5016022
-0.038869999 -0.012311287 1.1765616 5213659
-0.029038699 -0.012975641 1.1757351 5411552
-0.019168811 -0.013523534 1.1759034 5740773
-0.0090456456 -0.013291739 1.1764394 6003172
0.0010591354 -0.013043195 1.1757754 6331366
0.011082215 -0.01275932 1.172913 6989552
0.021188555 -0.012523338 1.1730492 6792432
0.031251445 -0.012269624 1.1721363 5937640
0.039771445 -0.011164851 1.1741701 5806054
0.050475605 -0.0096112937 1.174899 5674725
0.0571931 -0.0083247945 1.1747304 5674983
0.10305868 -0.0097540021 1.1735173 5146841
0.10897228 -0.011636123 1.1676342 5080789
-0.075245559 -0.0069229156 1.1702135 4554184
-0.071741782 -0.006032221 1.173128 4751049
-0.056425929 -0.0054164007 1.1757307 4818129
-0.049008802 -0.0052304938 1.1747367 5015507
-0.039563812 -0.0049669743 1.1710892 5147609
-0.029496389 -0.004711844 1.1695259 5346018
-0.019783957 -0.0048783645 1.1718819 5937898
-0.0093175862 -0.005374983 1.1718264 6462952
0.0010911822 -0.0043709576 1.1706699 8303605
0.010435229 -0.0042426288 1.1694092 8501495
0.020288581 -0.0049786493 1.1683325 7252467
0.031599693 -0.0041695759 1.1688799 6069484
0.040739115 -0.0028678179 1.1695093 6135528
0.050935537 -0.0030274242 1.1723378 5741031
0.060356334 -0.0026157945 1.1736817 5543655
0.069824964 -0.0010977909 1.1744426 5477092
0.079852186 0.00047017634 1.174189 5739747
0.091223575 0.00049340725 1.1738905 5280481
0.10040402 -0.0018871427 1.1699413 5015513
0.1058761 -0.003712751 1.167478 4949463
-0.068706773 -6.1132014e-005 1.1700836 4818122
-0.059302732 0.0011581182 1.1698442 5147606
-0.050637066 0.0021113157 1.1696223 4818639
-0.041912213 0.00058276206 1.169384 5344472
0.0027320841 0.0022143126 1.1682216 12971007
0.0072111664 0.0017632172 1.1681013 12905215
0.031772848 0.0023534521 1.16746 5807584
0.045170136 0.0026753992 1.1671101 6004710
0.051207975 0.0037783012 1.1669583 5807083
0.059991412 0.0064516664 1.1688781 5477863
0.068567067 0.0062051862 1.1711856 5542628
0.08053001 0.0034866184 1.1741896 5673698
0.091006339 0.0057077855 1.1724274 5804766
0.096526377 0.0039095283 1.1657691 5147865
0.062766761 0.01427266 1.1667187 5412324
-0.0011494905 -0.19943464 1.1791 3039650
0.005310813 -0.19992444 1.1789274 3039650
-0.021639394 -0.19202493 1.1796832 2842271
-0.014872225 -0.19186231 1.1795065 2973857
-0.00449422 -0.19271317 1.1804924 2973857
0.0053267796 -0.19423896 1.1814889 3039395
0.015914258 -0.19204439 1.1804755 3171237
0.025162393 -0.19039878 1.1795312 3237030
0.035500951 -0.18960288 1.1797366 3302569
0.043832831 -0.18954252 1.1793129 3237546
-0.041546337 -0.18202093 1.1802669 2908065
-0.033950478 -0.18280599 1.1800627 2973857
-0.025205502 -0.18436688 1.1808238 2973857
-0.015390435 -0.18604019 1.181674 2973858
-0.0070337541 -0.18668136 1.1833336 3105444
0.024652969 -0.18591991 1.1825062 3237030
0.03631087 -0.18412952 1.182211 3302825
0.045218088 -0.18345815 1.1816734 3171754
0.055037268 -0.18372926 1.1797211 3171752
0.065348975 -0.18305394 1.178866 3171753
0.073696338 -0.17973197 1.1782551 3237546
0.081827812 -0.17712095 1.1770571 3303592
-0.052943103 -0.17283377 1.180622 2908579
-0.044650197 -0.1748185 1.1823928 2908579
-0.034762695 -0.17605738 1.1830351 3105444
-0.026046297 -0.17762372 1.183888 3105443
0.068572007 -0.17580307 1.1814146 3303339
0.076511234 -0.17332923 1.1798874 3303082
0.084797524 -0.17100692 1.177588 3237545
0.090635397 -0.16787833 1.1768821 3303850
-0.062235132 -0.16176835 1.1809334 3302822
-0.05546505 -0.1659275 1.1829811 3040165
-0.048205897 -0.16954784 1.1845191 3040167
0.07967265 -0.16647483 1.18118 3303598
0.085611604 -0.16232955 1.1801077 3238061
0.094070673 -0.16005015 1.1779511 3303596
0.10167179 -0.15745325 1.1766559 3369131
-0.072261132 -0.15147313 1.1812593 3171751
-0.065715812 -0.15495946 1.1824785 3368615
-0.058660977 -0.15847225 1.1848609 3171751
0.10336795 -0.15084559 1.1781521 3369134
-0.0744031 -0.14446914 1.1813582 3369130
-0.068162486 -0.14629994 1.1841843 3434922
0.10430329 -0.14116538 1.1797346 3435183
-0.076297402 -0.13592273 1.1827939 3434923
0.10688863 -0.13400736 1.1798627 3501232
0.11355421 -0.13070975 1.1790959 3435694
0.12017258 -0.12878686 1.1763446 3501232
-0.084789433 -0.12497775 1.18275 3369646
-0.078941181 -0.12860353 1.1842415 3435182
0.11709619 -0.12140091 1.1804718 3567282
0.12112906 -0.12075457 1.1781873 3567027
-0.093504637 -0.11247312 1.1820546 3501231
-0.088756591 -0.11630925 1.1846576 3435439
0.11690716 -0.11347668 1.1805249 3829686
0.12189475 -0.11053133 1.1786336 3829431
-0.093585379 -0.10908844 1.1820773 3501231
-0.089235 -0.10575391 1.1836506 3567024
0.12398878 -0.10110128 1.1790806 3830201
-0.09392181 -0.094985627 1.1821721 3632818
-0.09062463 -0.095640495 1.1840822 3698612
0.12583455 -0.090438835 1.1784301 3896507
-0.09415058 -0.085395716 1.1822364 3633333
-0.090229884 -0.085516162 1.1849338 3764919
0.12541361 -0.080234304 1.1780032 4093886
-0.094811656 -0.0766064 1.1823072 3633334
-0.090714552 -0.075595662 1.185407 3830201
0.12220115 -0.070688918 1.1788681 4291523
-0.090577386 -0.065277137 1.1839323 3896506
0.12144543 -0.060215451 1.1783292 4619975
-0.087525755 -0.055650491 1.1839585 4028348
0.11536787 -0.048950769 1.1809583 5146320
0.11982039 -0.051058598 1.1798282 4883148
-0.086071052 -0.046188191 1.1825488 3962814
-0.081058413 -0.044725601 1.1849984 3963072
0.11412647 -0.040140793 1.179544 5146577
0.11787362 -0.041660137 1.1774356 5080527
-0.084920786 -0.037083969 1.1822883 4028607
-0.078731552 -0.035202302 1.1842712 4291526
-0.028840145 -0.032027908 1.1848478 5147865
-0.02137653 -0.031622015 1.1846544 5344731
-0.0051021054 -0.030324772 1.184235 5345501
0.0016879067 -0.030161604 1.1840576 5739743
0.011879729 -0.032140076 1.1824442 5936862
0.020938218 -0.03193289 1.182541 5871068
0.031138297 -0.030586578 1.1832818 5739228
0.049217992 -0.029019423 1.1828166 5213656
0.11203678 -0.031306021 1.1795527 4949970
-0.077188715 -0.027697861 1.1821424 4422856
-0.068827383 -0.022745386 1.1837718 4686797
-0.058485903 -0.021369569 1.1836905 4884690
-0.048022345 -0.022566922 1.184909 4950486
-0.03757713 -0.023069583 1.1837981 5213659
-0.02903386 -0.024023607 1.1817006 5279707
-0.018841675 -0.024919003 1.1818277 5345244
-0.008724058 -0.023042537 1.1814845 5411808
0.0011505056 -0.023917988 1.1810178 5806052
0.010531675 -0.026812814 1.1798444 6068964
0.022571169 -0.026899792 1.1795278 6068963
0.032569379 -0.024284363 1.1802045 6003173
0.041002925 -0.022368632 1.180872 5608417
0.051212974 -0.022136599 1.1812055 5411038
0.058109313 -0.022009663 1.1826258 5279709
0.10270739 -0.019174509 1.1805487 5212630
0.10838981 -0.022617951 1.1786343 5015248
-0.065313168 -0.016970418 1.1818959 4949712
-0.058545999 -0.016807795 1.1817192 4949713
-0.048395239 -0.01656387 1.1814541 5016279
-0.038987428 -0.016714074 1.1812062 5213659
-0.030322539 -0.017258428 1.1809753 5345501
0.042411074 -0.01494617 1.1790797 5871590
0.050856583 -0.014178783 1.1788625 5871847
0.061106645 -0.011712648 1.1806091 5543139
0.068368226 -0.010410644 1.1807121 5280225
0.092920989 -0.0098463073 1.1817858 5411294
0.098745927 -0.011103101 1.1790788 5279196
0.070392303 -0.0052427799 1.178404 5411556
0.079938762 -0.0033200607 1.178165 5412066
0.091217376 -0.0030490309 1.1778705 5477344
0.098038368 -0.0051428601 1.1776787 5213404
0.0063547017 -0.18966326 1.1869655 3105189
-0.014179157 -0.18169552 1.1885535 3039906
-0.0044220518 -0.18359903 1.1887144 3039908
0.0051842714 -0.18454236 1.1903619 3105447
0.015700579 -0.18349531 1.1875079 3105702
0.024729202 -0.18202391 1.1865295 3171750
0.03369993 -0.18139508 1.1862978 3237289
0.045113571 -0.17926109 1.1860111 3237548
0.055332854 -0.1790155 1.1857443 3171752
0.064416662 -0.17879722 1.1855071 3171752
-0.042113155 -0.17090146 1.1883523 3039909
-0.034227677 -0.17144939 1.1890311 3105701
-0.025969652 -0.17391261 1.1904565 3105443
-0.016209489 -0.17908305 1.1916238 3040163
0.014529406 -0.17743212 1.1908267 3105960
0.025895653 -0.17604402 1.1905367 3105958
0.034930792 -0.17430967 1.1895097 3237545
0.045268551 -0.17299262 1.1881511 3237547
0.055284694 -0.17243554 1.1873862 3237544
0.065339446 -0.17196718 1.1872092 3237545
0.073912509 -0.16976559 1.1859796 3303339
-0.053579263 -0.1617441 1.1887091 3172009
-0.045023359 -0.16471976 1.1908672 3105961
-0.03559833 -0.16672057 1.1922082 3171752
0.048457775 -0.16612601 1.1900046 3303337
0.055293471 -0.16596174 1.1898261 3303593
0.065360963 -0.16474241 1.1895692 3303594
0.074467622 -0.16189972 1.188097 3303596
0.081177481 -0.16021055 1.1851801 3238062
-0.061163075 -0.15340266 1.1889591 3434409
-0.055308908 -0.15504439 1.1916199 3237547
-0.046887495 -0.15722153 1.1925623 3237805
0.075287603 -0.15458503 1.1893704 3238318
0.084479578 -0.15142287 1.188028 3238572
0.09454836 -0.15095511 1.1860858 3434926
0.10099914 -0.15018769 1.1847206 3369134
-0.063685641 -0.14443699 1.1903111 3435179
-0.057636715 -0.14631824 1.1924664 3369388
0.088982597 -0.14462671 1.1890714 3500977
0.094490319 -0.14094764 1.1879489 3435186
0.09986677 -0.14081988 1.1848074 3500720
-0.07245826 -0.13390078 1.1903747 3566511
-0.066646919 -0.13665217 1.1918727 3566767
-0.059341669 -0.1390686 1.193 3500977
0.095784537 -0.13328476 1.1884618 3501234
0.10353834 -0.13063753 1.1855233 3501490
-0.082387418 -0.12095439 1.189714 3566770
-0.075453639 -0.12538989 1.1921058 3632306
-0.068673439 -0.13017042 1.1932992 3632563
0.10518064 -0.12194383 1.187372 3699127
0.11253358 -0.12046541 1.1850696 3633076
-0.083702259 -0.11540265 1.1907827 3566770
-0.077600673 -0.11617502 1.1936188 3763892
0.10589384 -0.11286196 1.1888208 3633335
0.11245047 -0.11049297 1.1862178 3764407
-0.084027134 -0.10533948 1.1926531 3698868
-0.079639606 -0.10585408 1.1937351 3699126
0.10617805 -0.10088195 1.1888863 3962811
0.11268524 -0.10080618 1.1875489 3830969
0.12033669 -0.10082132 1.1845134 3830714
-0.085486718 -0.095403202 1.1908743 3699126
-0.080131419 -0.09585657 1.1938089 3830712
0.11316164 -0.090855479 1.1881638 4028606
0.12123219 -0.090733722 1.1845514 3962300
-0.085115254 -0.085910678 1.1915995 3830970
-0.080161683 -0.085485965 1.1938729 3962813
0.11323292 -0.081796803 1.1888173 4291522
0.12100464 -0.081172802 1.1849793 4094399
-0.085653707 -0.07585264 1.1917893 3962044
-0.080712453 -0.076050967 1.1939448 4093630
0.11455271 -0.071015783 1.1885815 4554438
0.11931553 -0.071621753 1.1847181 4357059
-0.0852798 -0.065794662 1.1914595 4093886
-0.080651045 -0.064972252 1.1940106 4291009
0.11245346 -0.06051458 1.1880782 4686026
0.11839958 -0.060441192 1.1848103 4685769
-0.083877698 -0.058483101 1.1901335 4159935
-0.078862816 -0.055912543 1.1928756 4225985
0.10498182 -0.050737344 1.1892231 5015248
0.1110258 -0.051848922 1.1863899 5014991
-0.076102123 -0.046020307 1.1921235 4292037
-0.070630886 -0.048115619 1.1938502 4619977
-0.048008338 -0.040730163 1.1933011 5279449
-0.040033363 -0.04053852 1.1930929 5016538
-0.027474063 -0.041377012 1.192758 4950743
-0.017917706 -0.042824291 1.1924982 4950488
-0.0088295247 -0.042449381 1.1922619 5147351
0.0015912484 -0.041248709 1.1919956 5278422
0.012185514 -0.043303318 1.1908157 5212886
0.021493133 -0.042411044 1.1897154 5278423
0.03145311 -0.041337457 1.1899605 5147094
0.042390428 -0.04149003 1.1909229 4885460
0.051816694 -0.03975416 1.1899583 4950741
0.060928859 -0.039024577 1.190451 5016279
0.10322113 -0.040914115 1.1879286 5212370
0.11057192 -0.041877165 1.1851288 5212369
-0.074190728 -0.039004337 1.1919985 4423370
-0.072205395 -0.035758041 1.1915659 4554187
-0.047668748 -0.035696268 1.1930561 5147610
-0.037879266 -0.034719884 1.191071 5081818
-0.028724553 -0.036775261 1.1908182 5016538
-0.017611289 -0.035072081 1.1906701 5278938
-0.0085251871 -0.0342471 1.1904366 5344730
0.0019314038 -0.034867346 1.1890912 5673948
0.012177121 -0.036854453 1.1877429 5805277
0.021260928 -0.036636163 1.1875058 5541848
0.031453114 -0.035254724 1.1872466 5475544
0.041618202 -0.032737486 1.186995 5213397
0.05229985 -0.033108734 1.1874185 5082070
0.06201072 -0.032104857 1.1888642 5016536
0.070933916 -0.02972687 1.190245 5213915
0.081652425 -0.028491907 1.1899711 5279453
0.092600405 -0.028684929 1.1896824 5213659
0.10205947 -0.031367458 1.1878171 5212628
0.10861129 -0.031127602 1.1852458 5146833
-0.072064854 -0.029786907 1.189998 4554443
-0.046900645 -0.027363807 1.189352 5016281
-0.039611928 -0.028097838 1.1891562 5147611
-0.0084782112 -0.028258875 1.1883377 5411294
0.062191397 -0.022014678 1.1865201 5148123
0.070913859 -0.021810979 1.1864923 5213915
0.080989547 -0.021809042 1.1877675 5213917
0.091752902 -0.021488413 1.1880637 5213659
0.099742845 -0.023016281 1.1858615 5212887
0.092308186 -0.014471978 1.1857753 5279708
0.09685009 -0.014362834 1.1856567 5411037
-0.01043074 -0.17972082 1.1964699 3106213
-0.004710529 -0.17958334 1.1963205 3105959
0.0065820534 -0.1799663 1.1960218 3105706
0.017026266 -0.179061 1.195753 3105960
-0.021462942 -0.17311552 1.1967999 3105700
-0.013988575 -0.17419176 1.1973473 3105957
-0.0048314855 -0.17397171 1.1971083 3106216
0.0054978933 -0.17385018 1.1976881 3106217
0.016116258 -0.17307836 1.1972425 3171752
0.023988603 -0.17239264 1.1967021 3303337
0.035112534 -0.16946584 1.1953366 3369130
0.041976783 -0.16930088 1.1951573 3369132
-0.034316212 -0.16221064 1.1975372 3171753
-0.024527228 -0.16440782 1.1996543 3171752
-0.014179474 -0.16445658 1.2014631 3172010
-0.0049444512 -0.16552147 1.2021645 3172012
0.0050983941 -0.16487035 1.2027005 3237802
0.01572891 -0.16390865 1.2018815 3303338
0.024933234 -0.163717 1.2018411 3369133
0.035191186 -0.16322359 1.1998541 3369388
0.045294054 -0.16263977 1.1989017 3303853
0.054492503 -0.16122791 1.1966285 3369643
0.064535141 -0.16016963 1.1948559 3303851
-0.052326046 -0.15095586 1.1977452 3303598
-0.0441093 -0.15360007 1.1992283 3303341
-0.035418443 -0.15516001 1.2024204 3303340
-0.025969846 -0.1563969 1.2050229 3369132
-0.017758584 -0.15808578 1.204797 3303600
0.015639443 -0.1572832 1.2039249 3303598
0.028307661 -0.15697879 1.2035942 3435186
0.035793424 -0.1567989 1.2033987 3369391
0.045582503 -0.15656365 1.2031431 3369392
0.055303819 -0.1534088 1.2022915 3369390
0.064746991 -0.15208299 1.1984657 3435184
0.073989168 -0.15021056 1.194433 3369392
-0.053423874 -0.14398193 1.1986167 3369646
-0.046115413 -0.14616717 1.2032133 3303853
-0.038708247 -0.1493677 1.2054002 3173034
0.057065569 -0.1452219 1.2029107 3566773
0.065197699 -0.14371118 1.2020394 3566516
0.074881203 -0.14157103 1.1988637 3500977
0.084736437 -0.14196506 1.1958858 3500975
-0.063892007 -0.13225842 1.1981627 3632562
-0.054866761 -0.13514203 1.2009093 3501236
-0.047233224 -0.13517421 1.2052659 3501494
0.076984458 -0.13246711 1.2024653 3698612
0.084492534 -0.13260627 1.1999028 3567283
0.093219966 -0.12993148 1.196986 3567283
0.10048415 -0.12667254 1.1938806 3501747
-0.071313232 -0.12278546 1.1984153 3895478
-0.065608099 -0.12520821 1.2007517 3698613
-0.05659239 -0.12598231 1.2046784 3633080
0.078265995 -0.12580837 1.2024722 3699128
0.084745482 -0.1224606 1.2023224 3830713
0.094179794 -0.12183636 1.200878 3699126
0.1007889 -0.12025283 1.1939117 3633333
-0.07281182 -0.114806 1.1985031 3961271
-0.065926582 -0.11513826 1.2033222 3896247
-0.059055902 -0.11758143 1.206128 3764921
0.084473431 -0.11551555 1.2023718 3962300
0.095257744 -0.11273985 1.2016348 3896506
0.10260455 -0.11062448 1.1959233 3764920
-0.074356452 -0.10553262 1.2001008 3830712
-0.067376271 -0.10497981 1.2050894 4093627
0.097974524 -0.10181993 1.2021008 4028352
0.10321036 -0.10104783 1.1966327 3962812
-0.074989177 -0.09523198 1.2006803 3962556
-0.068383701 -0.096250191 1.2060583 4028606
0.097199924 -0.091431417 1.2021843 4357317
0.10350739 -0.091439761 1.1980172 4225985
0.10870827 -0.087542623 1.1939029 4225985
-0.074712634 -0.086214229 1.2007279 4028606
-0.069788098 -0.08633253 1.2066001 4094655
0.097534813 -0.083387487 1.2022245 4554695
0.10319466 -0.08105924 1.1974884 4554182
0.10927076 -0.079131946 1.1939393 4619462
-0.075688921 -0.075571038 1.1992884 4159424
-0.06757725 -0.074435115 1.2053833 4160448
-0.061279349 -0.072680041 1.2064598 4554440
0.097676672 -0.070012897 1.2023022 4620747
0.10321026 -0.070881754 1.1999009 4686026
0.10947013 -0.07149338 1.1939806 4619977
-0.075312041 -0.065892473 1.1988666 4291265
-0.067115374 -0.065742306 1.2039043 4357573
-0.061444245 -0.065767869 1.2065063 4751563
0.012581507 -0.061299376 1.2045897 4818903
0.020240892 -0.060346857 1.2043943 4819160
0.095630661 -0.061532181 1.2024076 4752590
0.10298844 -0.061682723 1.1999626 4817869
0.10813496 -0.063510008 1.1940643 4752076
-0.073554292 -0.056261871 1.1988791 4291778
-0.067487724 -0.055439215 1.2023052 4554440
-0.061636619 -0.057703681 1.2065604 4883149
-0.043331541 -0.050160758 1.2021242 5674209
-0.037592292 -0.05002284 1.2019744 5082331
-0.026118794 -0.052599784 1.2035247 4950745
-0.016828513 -0.054096293 1.2008041 4884953
-0.0076519474 -0.053865284 1.2003645 4753366
0.0026760371 -0.052528109 1.2013018 4884692
0.013273258 -0.053890936 1.2001705 4884692
0.022027958 -0.052962415 1.2006016 4884692
0.032255262 -0.051542372 1.2027987 4950484
0.043163639 -0.052218813 1.2007297 4950488
0.05195789 -0.051754143 1.2014954 4950489
0.062551528 -0.050058763 1.202279 5411037
0.071550779 -0.04960417 1.2031125 5542623
0.085610479 -0.047249105 1.2027576 5213404
0.093452856 -0.049942374 1.2025354 5081558
0.10174687 -0.051968094 1.1999043 5015248
-0.068573989 -0.045673005 1.1988128 4685772
-0.0463432 -0.044682074 1.1993265 5542365
-0.03737282 -0.044647288 1.1991432 4951002
-0.0286188 -0.045456406 1.197765 4884951
-0.019317785 -0.04710665 1.1975107 4753366
-0.0056165792 -0.045632333 1.19716 4950484
0.0032565687 -0.045705367 1.1969266 5015763
0.033308145 -0.045842011 1.1961366 5015764
0.040172391 -0.045677058 1.1959574 4885461
0.052079722 -0.044409435 1.1956525 4884950
0.06288556 -0.043098263 1.1972235 5082072
0.072306529 -0.041752499 1.1999394 5542624
0.081971429 -0.042694513 1.2020806 5279197
0.092013754 -0.041185293 1.1990252 5213144
0.099263027 -0.043493692 1.1944191 5212627
0.066266961 -0.03588945 1.1953318 5016538
0.071946211 -0.034035377 1.195194 5213917
0.081420742 -0.031326711 1.1949617 5345245
0.091837309 -0.033391334 1.1953425 5213917
0.18322642 -0.033376448 1.200279 13158081
-0.0049521364 -0.16063616 1.2084467 3303598
0.0077579608 -0.16033071 1.2081149 3303850
-0.033630207 -0.1506855 1.2092603 3303853
-0.023818327 -0.15204868 1.2093517 3304111
-0.014157282 -0.15394774 1.2108352 3303857
-0.0050601233 -0.15405831 1.2112406 3303856
0.0053691976 -0.1538408 1.2112182 3369903
0.015653193 -0.15204549 1.207958 3435441
0.024736227 -0.15274024 1.2077153 3435187
0.03519259 -0.1518513 1.2074461 3500978
0.045695238 -0.15132356 1.2071736 3369649
0.052358322 -0.14954434 1.2070094 3435441
-0.041973785 -0.14340733 1.2095238 3370159
-0.035407774 -0.14402054 1.2093476 3370416
-0.02499325 -0.1440483 1.2113248 3436469
-0.014545133 -0.14413863 1.2138009 3502005
-0.0052633509 -0.14391559 1.2135586 3501749
0.0052617071 -0.14714645 1.2132624 3501493
0.015573555 -0.14325644 1.2117649 3567542
0.024889167 -0.1431514 1.2124588 3567541
0.035260823 -0.14275309 1.211001 3633333
0.04553216 -0.14218897 1.2081712 3567541
0.054081343 -0.14124733 1.2070147 3633079
0.064060181 -0.13882162 1.2067674 3632566
-0.042561144 -0.13494045 1.2095907 3501750
-0.035636589 -0.13506174 1.2119091 3567798
-0.027165683 -0.13541982 1.2141854 3633848
-0.013523344 -0.13830778 1.2138096 3633591
-0.0065620057 -0.1381405 1.2136278 3699128
0.015454531 -0.13645017 1.21306 3830714
0.025896531 -0.13619924 1.2127873 3764921
0.03536661 -0.13502154 1.2125459 3830712
0.045885045 -0.13385151 1.2119195 3830713
0.054574907 -0.13334039 1.2113848 3830458
0.064839534 -0.13281426 1.2091528 3764409
0.072874837 -0.13107295 1.2071389 3764407
-0.051832929 -0.12429217 1.2098989 3698874
-0.045146294 -0.12483117 1.2119709 3764923
-0.036504269 -0.12533475 1.214492 3765435
-0.029987941 -0.12941335 1.214296 3699641
0.063603319 -0.12716429 1.2118522 3896252
0.073550612 -0.1224378 1.2089999 3831226
0.080825284 -0.12156691 1.2064323 3830458
-0.054676361 -0.1149182 1.2108206 3896508
-0.045430757 -0.11468805 1.2147912 4028352
-0.037524633 -0.11519482 1.2145805 4094143
0.074559584 -0.11249831 1.2080811 4159936
0.08381059 -0.11100958 1.2064182 4028352
0.091808431 -0.10944887 1.2062176 3962559
-0.062920898 -0.10536075 1.2103055 4093628
-0.056001179 -0.10526381 1.2108746 4028352
-0.045647375 -0.10537546 1.214541 4094401
-0.038961716 -0.10361674 1.2146888 4225986
0.075863682 -0.10330462 1.2103114 4357317
0.084084406 -0.10208278 1.2092789 4225732
0.092830047 -0.10138665 1.2062399 4159938
-0.064143702 -0.095642507 1.2103968 4028609
-0.055931047 -0.095526896 1.2115459 3963330
-0.046505883 -0.095382296 1.214937 4160708
-0.040017247 -0.098300301 1.2147489 4292035
0.078186981 -0.089653462 1.2116977 4620236
0.083664306 -0.092244774 1.2101487 4488649
0.092052497 -0.092651531 1.2063136 4357318
