# .PCD v0.7 - Point Cloud Data file format
VERSION 0.7
FIELDS x y z rgba
SIZE 4 4 4 4
TYPE F F F U
COUNT 1 1 1 1
WIDTH 174
HEIGHT 1
VIEWPOINT 0 0 0 1 0 0 0
POINTS 174
DATA ascii
-0.40278298 0.076723039 1.1029283 5134174
-0.39597821 0.075531304 1.1023645 5134176
-0.40355545 0.081363648 1.102945 4871515
-0.40924603 0.058698151 1.1106907 4936281
-0.39870676 0.056794513 1.1098182 5199967
-0.39385322 0.057089489 1.1094041 5397348
-0.41785681 0.064907596 1.1110535 4673880
-0.41029567 0.064830393 1.1084896 4870232
-0.40073201 0.065491229 1.1083927 5068382
-0.3909494 0.066463813 1.1081015 5068384
-0.38317266 0.068490207 1.1083796 4476504
-0.41894755 0.074309334 1.1096753 4607822
-0.41202453 0.074743122 1.1077462 4673623
-0.40104577 0.074659392 1.1068174 5134174
-0.39072266 0.076183349 1.1059271 4739419
-0.38284734 0.076427594 1.1065481 4081746
-0.41950297 0.082677007 1.111307 4410445
-0.41151333 0.084222928 1.1076032 4213839
-0.40128455 0.085357934 1.1067251 4345429
-0.39123565 0.085554853 1.105872 4016211
-0.38301629 0.085713655 1.1063323 3621193
-0.41123456 0.089691997 1.1075221 3884109
-0.4019534 0.091239765 1.1067199 3752784
-0.39157766 0.091802537 1.1058352 3621192
-0.38425764 0.091155186 1.1052221 3686459
-0.4159773 0.046141233 1.1218594 4673626
-0.40807879 0.045692023 1.1183445 4870741
-0.39887977 0.045082744 1.1177571 5265754
-0.38888007 0.046406087 1.1171645 5397604
-0.38030085 0.049686018 1.1193743 4608350
-0.41784233 0.05504005 1.1179808 4673629
-0.4096044 0.053985927 1.1151197 4870744
-0.40113106 0.052927736 1.1140786 5134174
-0.388917 0.05567399 1.11367 5397606
-0.38036782 0.057002399 1.1171132 4476760
-0.37419894 0.061440412 1.1187339 4015442
-0.42487013 0.062922955 1.1230094 3883351
-0.42184547 0.063092157 1.1175325 4475995
-0.38844445 0.062234435 1.1129063 5068641
-0.37934414 0.065992191 1.1141562 4082513
-0.3731077 0.067540407 1.1180754 3752531
-0.42375055 0.072983682 1.1163855 4079443
-0.37796059 0.075198621 1.1133876 3621705
-0.37305763 0.07313779 1.1161053 3751503
-0.38013652 0.082654953 1.1119879 3490378
-0.40245059 0.028702915 1.1325108 5002588
-0.39926678 0.028875601 1.1322393 5528419
-0.4135879 0.037712783 1.1333591 4739163
-0.40646264 0.035204563 1.129827 5002333
-0.39699981 0.035411119 1.1289676 5397092
-0.38783035 0.037948407 1.1295265 5332066
-0.38175005 0.039439633 1.1306447 4740695
-0.41566789 0.041554745 1.1282258 4082256
-0.40883443 0.040760037 1.1258991 5068120
-0.38589704 0.04254739 1.1259451 5200736
-0.3777273 0.046370324 1.1273571 4345175
-0.3705788 0.048705634 1.1290276 4278096
-0.37585127 0.055953924 1.1238062 4147028
-0.37068743 0.055787276 1.1274695 3819087
-0.37160438 0.063252702 1.123714 3687502
-0.39371839 0.017298009 1.1429312 5528423
-0.3894611 0.018068273 1.1425626 5397348
-0.40486133 0.024540819 1.138446 4804702
-0.39546201 0.024841964 1.1370651 5462626
-0.38592011 0.026016358 1.1388336 5003105
-0.37798479 0.030010138 1.1390563 4804440
-0.41441873 0.034111474 1.1404929 3817824
-0.40861395 0.030654397 1.136023 4673622
-0.39265233 0.031520132 1.1346623 5660265
-0.38538539 0.033472221 1.1340263 5069150
-0.37637988 0.036790423 1.135236 4475986
-0.37119818 0.041367225 1.1347491 4014924
-0.37408307 0.043238077 1.1329664 4606547
-0.36846721 0.045982275 1.1329638 3620428
-0.39926991 0.010200232 1.1505015 4079956
-0.3928383 0.0095485672 1.1476697 5266270
-0.38683963 0.010331742 1.1494474 5002845
-0.40263894 0.016184643 1.1487166 4079963
-0.39509073 0.013981417 1.1460932 5330781
-0.38459978 0.016785398 1.1468284 5002331
-0.38178539 0.022923004 1.1448724 5001816
-0.37768552 0.026008036 1.1456971 4540755
-0.37372044 0.033094555 1.1440824 4213074
-0.39168832 1.1615455e-005 1.1620103 5265766
-0.39346227 0.0043825787 1.159247 5068639
-0.38493064 0.0065013301 1.1580243 4214103
-0.40237555 0.010154603 1.1547796 1580089
-0.38133749 0.013132755 1.1536356 4145996
-0.37898529 0.019047655 1.1527052 4212054
-0.39776984 -0.0013544299 1.1655505 3618132
-0.39224714 -0.0021545794 1.1650913 5199718
-0.38575196 -0.00070259534 1.1645259 4214875
-0.38267192 -0.060419444 1.1809516 528927
-0.37754005 -0.060810074 1.180521 1517876
-0.37686417 -0.070617482 1.1926107 4419983
-0.39245504 -0.064640254 1.1918609 1651559
-0.38734221 -0.063611954 1.1882628 1782104
-0.37533617 -0.065489337 1.185151 4154236
-0.37006873 -0.061769761 1.1885011 3028033
-0.38437775 -0.05638187 1.1930972 2369321
-0.37689579 -0.056098994 1.1888475 2040105
-0.3856779 -0.037258618 1.1889915 4146252
-0.39104351 -0.069437496 1.2018281 5077683
-0.38423264 -0.071660981 1.1999365 4617364
-0.37483341 -0.07152918 1.1991391 4549258
-0.37008217 -0.065888286 1.1960011 6582660
-0.39303276 -0.058091421 1.1978626 7695014
-0.38552302 -0.053935688 1.197852 2040625
-0.37758419 -0.052280582 1.1964933 2172202
-0.37057567 -0.056873374 1.195948 2760198
-0.38422754 -0.080788091 1.2093993 4683677
-0.3785564 -0.080480494 1.2089158 3831442
-0.39229041 -0.074331015 1.2088673 3299734
-0.38527453 -0.076169826 1.2068847 4683420
-0.37663826 -0.076198131 1.2071025 3960460
-0.386011 -0.15374619 1.2233653 3829135
-0.377949 -0.15282634 1.2226728 4223637
-0.37173015 -0.15293866 1.2221473 3960467
-0.387335 -0.14442579 1.2233794 3498881
-0.37901047 -0.14351822 1.2222633 3895695
-0.37123689 -0.14176103 1.221988 3631246
-0.38808751 -0.13328096 1.220315 3499128
-0.38083372 -0.13369079 1.219705 4025235
-0.37197015 -0.13224295 1.220803 3499655
-0.38816443 -0.12390333 1.2182155 3826560
-0.38141486 -0.12357959 1.2181424 4156303
-0.37324744 -0.12367237 1.2199607 3630985
-0.38819164 -0.11435802 1.2211283 3893387
-0.38177592 -0.11370449 1.2190169 4157333
-0.37431535 -0.11278267 1.2204384 3762828
-0.38679677 -0.10578015 1.2229272 3762325
-0.38157696 -0.10294734 1.2187754 4420507
-0.37518591 -0.10275479 1.2205739 3828877
-0.38869914 -0.092034683 1.2229437 4222878
-0.38177055 -0.093521193 1.2186257 4552347
-0.37533942 -0.093571767 1.2210256 3631755
-0.39134508 -0.084286243 1.2174659 3627913
-0.38282397 -0.085552946 1.2146834 4683676
-0.37552118 -0.083850056 1.2169971 3892613
-0.37528309 -0.07595478 1.2136092 3563127
-0.38661507 -0.16360229 1.2289685 3033484
-0.37806967 -0.16411783 1.2306539 2897991
-0.36813241 -0.16277774 1.2293062 3891064
-0.36052343 -0.16160004 1.2303222 2638186
-0.39124045 -0.15475643 1.2278334 666715
-0.38027167 -0.15641107 1.2269219 4813457
-0.36691642 -0.15273415 1.2257522 3499654
-0.35947448 -0.15219212 1.2288139 3561592
-0.3925207 -0.14341258 1.2278224 6722
-0.36756849 -0.14321709 1.2257073 3694979
-0.3608776 -0.14258999 1.2271413 3233144
-0.36656862 -0.13274202 1.2255124 3104639
-0.361642 -0.13244544 1.2282854 2640231
-0.36778966 -0.12308213 1.2255142 2907007
-0.36306286 -0.12292407 1.2296742 3099492
-0.39077598 -0.11205547 1.2273448 4089741
-0.36868006 -0.11352938 1.2258475 3496061
-0.36405891 -0.11213051 1.2301011 4278874
-0.38891765 -0.10384959 1.2271011 2972810
-0.36981854 -0.10322025 1.2268456 3757171
-0.36565819 -0.10407878 1.2301519 3748927
-0.38808328 -0.098014981 1.226969 3630740
-0.3697412 -0.095862255 1.2253931 3953004
-0.37792677 -0.17033194 1.2359024 984897
-0.36770922 -0.16588958 1.2349904 4350584
-0.35871848 -0.14135866 1.23464 4674411
-0.35904899 -0.13283123 1.2369201 6974583
-0.3613992 -0.1218507 1.2370036 3815753
-0.39385739 -0.1128733 1.236647 5799072
-0.36134568 -0.11227636 1.2338874 5064001
-0.35723889 -0.14719269 1.2469542 7039097
-0.35774356 -0.14142098 1.2479398 7565430
-0.35893533 -0.13280642 1.2476156 8223350
-0.36006144 -0.12461638 1.2429413 9076613
