# .PCD v0.7 - Point Cloud Data file format
VERSION 0.7
FIELDS x y z rgba
SIZE 4 4 4 4
TYPE F F F U
COUNT 1 1 1 1
WIDTH 174
HEIGHT 1
VIEWPOINT 0 0 0 1 0 0 0
POINTS 174
DATA ascii
-0.40591913 0.077061959 1.1055402 5134174
-0.39906251 0.076133192 1.1051314 5134176
-0.40686345 0.081669554 1.1056427 4871515
-0.41190749 0.058632627 1.1127111 4936281
-0.4012858 0.057136312 1.1120772 5199967
-0.39643747 0.057618059 1.1118 5397348
-0.42074931 0.064513206 1.1129858 4673880
-0.41312668 0.064773388 1.1106241 4870232
-0.40359482 0.065784931 1.1107981 5068382
-0.39385083 0.067120597 1.1107911 5068384
-0.38616443 0.069422223 1.1113236 4476504
-0.42215219 0.073899157 1.1117952 4607822
-0.41520244 0.074631356 1.1100625 4673623
-0.40420777 0.07497061 1.1094259 5134174
-0.39392874 0.076891184 1.1088473 4739419
-0.38608664 0.077407748 1.109684 4081746
-0.42305982 0.082199551 1.1136031 4410445
-0.41503987 0.084124222 1.1101508 4213839
-0.40484095 0.085652471 1.1095729 4345429
-0.39478761 0.08623635 1.1089936 4016211
-0.38659444 0.086683944 1.1096771 3621193
-0.41496229 0.089600191 1.1102028 3884109
-0.4057273 0.091504402 1.1096848 3752784
-0.39536017 0.092466481 1.1090912 3621192
-0.38800776 0.092101581 1.1086594 3686459
-0.41845492 0.045574754 1.1234044 4673626
-0.41045687 0.045498334 1.1200926 4870741
-0.40122944 0.045239426 1.1197376 5265754
-0.39127377 0.046940647 1.1194433 5397604
-0.38288224 0.050477676 1.1219565 4608350
-0.42054793 0.054489829 1.1196827 4673629
-0.41220525 0.053805821 1.1170194 4870744
-0.40367436 0.053082794 1.1161815 5134174
-0.39156416 0.056281984 1.1161628 5397606
-0.38316217 0.057838745 1.1198629 4476760
-0.37720627 0.062458895 1.1217495 4015442
-0.42799124 0.061988413 1.1247013 3883351
-0.42483419 0.062398903 1.1193125 4475995
-0.39131582 0.062871695 1.1155629 5068641
-0.38239664 0.066928081 1.1171417 4082513
-0.37632552 0.068608657 1.1212608 3752531
-0.42707476 0.072238915 1.1183423 4079443
-0.3813363 0.076194637 1.1166219 3621705
-0.37643221 0.074249685 1.1194217 3751503
-0.3837505 0.083597951 1.1153361 3490378
-0.40457058 0.028391862 1.1340106 5002588
-0.40138939 0.028687073 1.1338284 5528419
-0.41605282 0.036966376 1.1347674 4739163
-0.40875036 0.034805104 1.1313704 5002333
-0.39928263 0.035377383 1.1307695 5397092
-0.39023119 0.038233534 1.1316315 5332066
-0.3842414 0.03991849 1.1329459 4740695
-0.41814041 0.040851593 1.1296699 4082256
-0.41122422 0.040362708 1.1275091 5068120
-0.38837785 0.042984381 1.1282096 5200736
-0.38039494 0.047068059 1.129927 4345175
-0.37338364 0.049622051 1.1318414 4278096
-0.3787846 0.056795955 1.1266487 4147028
-0.37371466 0.05673027 1.1304439 3819087
-0.37481055 0.064244978 1.1268375 3687502
-0.39569375 0.017067162 1.1443963 5528423
-0.39145985 0.018000891 1.1441594 5397348
-0.40697801 0.024003724 1.1397821 4804702
-0.39756373 0.024680665 1.1386603 5462626
-0.38812098 0.026159866 1.14071 5003105
-0.38034776 0.030434119 1.1412365 4804440
-0.41693377 0.033167474 1.1417918 3817824
-0.41089097 0.030032495 1.1374007 4673622
-0.39494261 0.031512506 1.1364875 5660265
-0.38773909 0.033743165 1.1360911 5069150
-0.37889725 0.037357926 1.1376171 4475986
-0.37387812 0.042131133 1.1373742 4014924
-0.37678334 0.043937579 1.1355584 4606547
-0.37127501 0.046884172 1.135769 3620428
-0.4011721 0.0095924009 1.1516504 4079956
-0.3946496 0.0092438459 1.1489774 5266270
-0.38873217 0.010202663 1.1509326 5002845
-0.4047136 0.015490865 1.1499139 4079963
-0.39702344 0.013627985 1.1474435 5330781
-0.38666633 0.016794583 1.1485232 5002331
-0.38403198 0.023075866 1.1467847 5001816
-0.38007218 0.026287848 1.1477892 4540755
-0.37633237 0.03355097 1.1464443 4213074
-0.39351803 -0.00058519468 1.163121 5265766
-0.39538085 0.003782982 1.1604123 5068639
-0.38690498 0.0062403455 1.1594671 4214103
-0.4043836 0.0093311071 1.1558417 1580089
-0.38344803 0.013101598 1.1553296 4145996
-0.38129368 0.019118978 1.1545984 4212054
-0.39963424 -0.0022565983 1.1664649 3618132
-0.39407563 -0.0028434377 1.1661353 5199718
-0.38762638 -0.0011422634 1.1657773 4214875
-0.38275835 -0.061082847 1.1809042 528927
-0.37760606 -0.061275512 1.1806022 1517876
-0.37687981 -0.071338199 1.1924773 4419983
-0.39265716 -0.065917723 1.1914481 1651559
-0.38749459 -0.064617708 1.1880126 1782104
-0.37535062 -0.065980673 1.1851808 4154236
-0.37031332 -0.06215255 1.1887552 3028033
-0.38492665 -0.057402 1.1930894 2369321
-0.37735283 -0.056744643 1.1890489 2040105
-0.3868289 -0.038246173 1.1893905 4146252
-0.39132699 -0.070897371 1.2013367 5077683
-0.38439164 -0.072824903 1.1995775 4617364
-0.37498629 -0.072331116 1.199035 4549258
-0.37036803 -0.066447109 1.1961555 6582660
-0.39363265 -0.059539825 1.1975812 7695014
-0.38628459 -0.05511371 1.1978668 2040625
-0.37838015 -0.053137936 1.1967591 2172202
-0.37119421 -0.057457522 1.1962963 2760198
-0.38429272 -0.082169563 1.2088251 4683677
-0.37862632 -0.081643716 1.2085006 3831442
-0.39257324 -0.076000161 1.2082258 3299734
-0.38544494 -0.077533744 1.20639 4683420
-0.37682214 -0.077252038 1.206838 3960460
-0.38372812 -0.15545742 1.2210596 3829135
-0.37569058 -0.15422764 1.2206043 4223637
-0.36946034 -0.15410031 1.220243 3960467
-0.38539705 -0.14619456 1.2212522 3498881
-0.3770858 -0.14495733 1.2203804 3895695
-0.3693783 -0.14291154 1.2203535 3631246
-0.38648307 -0.13501449 1.2184254 3499128
-0.3792057 -0.13514459 1.2180004 4025235
-0.37043336 -0.13340092 1.2193681 3499655
-0.38685361 -0.12559836 1.2165406 3826560
-0.38012108 -0.12502685 1.2166554 4156303
-0.37200564 -0.12486497 1.218689 3630985
-0.38731045 -0.11613284 1.2196699 3893387
-0.38087091 -0.11519525 1.2177465 4157333
-0.37348896 -0.11403606 1.2193878 3762828
-0.38628194 -0.10755528 1.221702 3762325
-0.38106513 -0.10443532 1.2177573 4420507
-0.37473434 -0.10405272 1.2197301 3828877
-0.38869292 -0.093892723 1.2219831 4222878
-0.38160449 -0.095021628 1.217819 4552347
-0.37524018 -0.094894879 1.2203882 3631755
-0.39148194 -0.086117171 1.2166159 3627913
-0.38285053 -0.087005086 1.214034 4683676
-0.3756783 -0.085092664 1.2165806 3892613
-0.37564579 -0.077115156 1.2133825 3563127
-0.38411078 -0.16546024 1.2264168 3033484
-0.37559867 -0.16570376 1.228318 2897991
-0.36568642 -0.16397002 1.2272677 3891064
-0.35815522 -0.16254005 1.2285136 2638186
-0.38903037 -0.15676446 1.2253618 666715
-0.3779878 -0.15799542 1.2247063 4813457
-0.36475244 -0.15380657 1.223979 3499654
-0.35741749 -0.15306674 1.2272502 3561592
-0.39073002 -0.14547788 1.2255771 6722
-0.36575589 -0.14432129 1.2241352 3694979
-0.35913223 -0.14348494 1.2257617 3233144
-0.36514077 -0.13381505 1.2242076 3104639
-0.36030197 -0.13340531 1.2271174 2640231
-0.3667191 -0.12420899 1.2243985 2907007
-0.3621107 -0.12397812 1.228686 3099492
-0.39013848 -0.11407553 1.2258663 4089741
-0.36797175 -0.11470582 1.2249271 3496061
-0.36351737 -0.1132414 1.2293339 4278874
-0.38858032 -0.10580382 1.2258608 2972810
-0.36951751 -0.10447192 1.2261308 3757171
-0.36541513 -0.10525693 1.2295266 3748927
-0.38795993 -0.099941164 1.2258852 3630740
-0.36967573 -0.09708336 1.2248502 3953004
-0.37536111 -0.17203231 1.2334243 984897
-0.36529529 -0.16719946 1.2328882 4350584
-0.35721511 -0.14235541 1.2333417 4674411
-0.3579208 -0.13390273 1.2358073 6974583
-0.36067829 -0.12302043 1.2360799 3815753
-0.39342719 -0.11522765 1.2350615 5799072
-0.36089948 -0.11337869 1.233187 5064001
-0.35583925 -0.14842452 1.2455539 7039097
-0.35658312 -0.14270031 1.246658 7565430
-0.35808498 -0.13412972 1.2464998 8223350
-0.35939294 -0.12587672 1.2419863 9076613
