# .PCD v0.7 - Point Cloud Data file format
VERSION 0.7
FIELDS x y z rgba
SIZE 4 4 4 4
TYPE F F F U
COUNT 1 1 1 1
WIDTH 1130
HEIGHT 1
VIEWPOINT 0 0 0 1 0 0 0
POINTS 1130
DATA ascii
-0.12356202 -0.16326585 1.1047556 4750553
-0.11981187 -0.16535255 1.1067092 1196192
-0.12586886 -0.15610309 1.1015218 3036848
-0.12180375 -0.15819581 1.1066704 1789334
0.16197124 -0.14507365 1.0988181 12898004
-0.12514463 -0.14516638 1.1028159 2776475
0.16215539 -0.13597527 1.0976186 9087435
0.16774923 -0.13118657 1.0940646 13488846
-0.12774101 -0.13450862 1.102529 3038106
0.16164705 -0.12534621 1.0965158 4354994
0.1693798 -0.12315416 1.09395 13752800
-0.1299004 -0.12484971 1.1039118 2973083
0.16132072 -0.11557125 1.0973266 2121388
-0.13525322 -0.1115093 1.0994241 3301280
-0.13164705 -0.11631159 1.1030456 3039132
0.1617493 -0.10751341 1.0950924 2646946
0.17783368 -0.10173009 1.0965698 13817039
-0.13545635 -0.10521574 1.0993615 3366820
-0.1328055 -0.10554786 1.1043175 3105183
0.15979195 -0.095287167 1.0985337 3631271
0.17881745 -0.099592783 1.0965291 13817037
-0.13581747 -0.094027206 1.0992503 3499424
-0.13302466 -0.094919585 1.1030093 3302563
0.15911302 -0.085059993 1.0976795 3369127
-0.13330013 -0.085424982 1.1026143 3434147
0.16073564 -0.075409189 1.0985161 2908578
0.16636664 -0.072617687 1.0964737 8233160
-0.1383391 -0.074454084 1.0999478 3365295
-0.13292766 -0.075462952 1.1028488 3499689
0.16121319 -0.065813869 1.0981442 4024485
0.16609505 -0.064203426 1.0963901 11192030
-0.13705334 -0.065508217 1.1019733 2181536
-0.1318118 -0.065186113 1.1030738 3433908
0.16030934 -0.060381766 1.1004571 2708114
-0.13562903 -0.057197962 1.1058606 8233201
-0.13180014 -0.058211561 1.1040862 3564980
0.0049697272 0.11924048 1.097418 9935247
0.010649621 0.12032518 1.0973022 9934992
-0.11374926 -0.17398882 1.115383 929696
-0.10951415 -0.17418355 1.1176155 1984411
0.15256739 -0.16150495 1.112667 13424882
-0.11511164 -0.16448784 1.1130152 2512540
-0.11037087 -0.16620278 1.1162136 2906513
0.15365431 -0.15556845 1.1101395 8955594
0.159197 -0.15408182 1.1064656 14080986
-0.12270377 -0.15063539 1.1136088 2381461
-0.1193895 -0.15569361 1.1155392 2776212
0.15354133 -0.1459787 1.1088047 3697834
-0.12332615 -0.14472304 1.1143916 2841752
-0.12099924 -0.14894018 1.1175605 2906774
0.15508318 -0.13600293 1.1091514 2646183
-0.12553579 -0.13421714 1.1153455 2907034
-0.12134331 -0.13827959 1.1174545 2775704
0.15539834 -0.12724307 1.1101536 3696546
0.15729475 -0.12264936 1.1095035 3761571
-0.12688476 -0.12481825 1.1138582 2973083
0.15876329 -0.11650571 1.1087451 3368880
-0.12831753 -0.11465646 1.113233 3039134
0.15867776 -0.10489854 1.1082304 3500454
-0.12883714 -0.10422136 1.1128325 3171232
0.15735337 -0.096488312 1.1091793 3631529
-0.12968981 -0.095482454 1.112056 3302564
0.15543431 -0.086194195 1.1048194 3697839
0.15591437 -0.086400509 1.1078135 3763633
-0.13010848 -0.084928162 1.1127527 3368355
0.15611169 -0.075136267 1.1074054 3436468
0.17030415 -0.071051836 1.1073874 10992842
-0.12810689 -0.07444156 1.1126055 3697068
0.15363124 -0.062224645 1.1116016 3765679
0.15682223 -0.064671233 1.1067495 3830452
0.16981298 -0.066814184 1.1073518 11387079
-0.12730059 -0.066658132 1.1103082 3631022
-0.12523863 -0.063385919 1.1097357 3500456
0.15271932 -0.055362798 1.1086565 3830449
0.15940174 -0.055666603 1.1060569 5207985
0.1660254 -0.056425594 1.1099792 10334913
-0.1278879 -0.054626979 1.1122642 3434161
0.15156704 -0.046466861 1.10833 3893939
0.15865776 -0.04673139 1.1074008 8428221
-0.12840146 -0.044573221 1.1157398 6194370
-0.12390699 -0.042317182 1.1164908 4421311
0.14908469 -0.034694735 1.110304 5734064
0.1555219 -0.038152806 1.1113132 10203587
-0.12278961 -0.035611555 1.1163996 6852289
0.14737082 -0.028846286 1.1081643 8955077
0.012993643 0.096538365 1.1125129 9737616
-0.081822574 -0.20962015 1.1258153 7635861
-0.078375265 -0.20997593 1.1284229 8100012
-0.092345543 -0.20000701 1.1285746 10535920
-0.085279584 -0.20248161 1.1261173 5996227
-0.078491084 -0.20638752 1.1283872 6394567
-0.10285108 -0.18938328 1.1206539 8431615
-0.095726639 -0.19157225 1.1233159 1526185
-0.089395322 -0.19372259 1.127311 1262491
0.13412663 -0.18375936 1.1242427 11717846
-0.11167736 -0.18110634 1.1207289 7571711
-0.10459628 -0.1831338 1.1221761 1917611
-0.097472124 -0.18538988 1.1258475 2379673
-0.090574935 -0.18809611 1.1284165 2644619
0.1354939 -0.17683908 1.1241447 5010097
0.14264029 -0.17367476 1.1208365 10599906
0.14968386 -0.1722462 1.1198347 14081762
-0.10489765 -0.17428228 1.1247438 2709143
0.1361942 -0.16621122 1.1240199 2909858
0.14275488 -0.16556334 1.1200734 4026283
0.15028614 -0.16555071 1.1162523 12307424
-0.11233283 -0.16079697 1.1205269 2775446
-0.10776348 -0.16483715 1.1233953 2775442
0.1437315 -0.15657198 1.1207792 3105445
0.14855462 -0.15563539 1.1156795 2578854
-0.11455678 -0.15364408 1.1226468 2775449
-0.1101824 -0.1558658 1.1271037 2906778
0.1457698 -0.14668743 1.1220379 3564451
0.14901599 -0.14564468 1.1179664 3433893
-0.11866636 -0.14508235 1.1237726 2840984
0.14703092 -0.13844344 1.1235282 3565217
0.15064418 -0.1362627 1.1181043 3499430
-0.12391771 -0.13334815 1.1204506 2841497
-0.12076878 -0.13496639 1.1264112 2907290
0.15261915 -0.1255485 1.1202891 3237547
-0.12437304 -0.12388588 1.1219597 2973083
-0.1215454 -0.12423392 1.1263124 3038877
0.15541902 -0.1157562 1.1213166 3827369
0.15793151 -0.11467368 1.1150757 3564710
-0.12572879 -0.11394311 1.1231372 3039391
-0.12295853 -0.11573151 1.1269156 3170977
0.15535891 -0.10566667 1.1210295 3565735
0.15765554 -0.10612237 1.1149907 3500198
-0.12607983 -0.10573711 1.1252006 3170977
0.15532318 -0.096651524 1.1202685 3631790
0.15650937 -0.098266453 1.1229309 3434923
-0.12659353 -0.095205054 1.1240989 3302823
0.15462086 -0.085214369 1.1203275 3566513
-0.12690967 -0.085221998 1.1226659 3368614
0.15341863 -0.075991698 1.120291 3632560
-0.12663034 -0.077489898 1.1239129 3565995
0.15186962 -0.065880731 1.1189408 3895728
-0.12415285 -0.062338449 1.1253083 3697842
0.14918444 -0.056019131 1.1174192 4158132
-0.12278249 -0.053998657 1.1239586 3502262
0.14773208 -0.045380268 1.1185341 4027837
-0.12045624 -0.044410702 1.1232288 3698611
0.14258426 -0.034054648 1.1225103 4619197
0.14838463 -0.037024811 1.1168953 4946612
-0.12698814 -0.038214762 1.1195049 7180220
-0.11936984 -0.034899049 1.1265316 4815032
0.14227793 -0.027586192 1.121781 5209534
0.14680839 -0.025760248 1.1143435 8425655
0.014295958 0.092581466 1.1155314 9474444
-0.054410003 -0.21900696 1.1350793 8300241
-0.07294485 -0.21143898 1.1317029 7642055
-0.065396331 -0.21183324 1.1337053 4815810
-0.058502764 -0.21504888 1.1351128 5210825
-0.082468919 -0.19982891 1.1313919 932767
-0.075361669 -0.20302971 1.1329796 2382238
-0.066608466 -0.20576702 1.1351639 2251168
0.11668526 -0.19663236 1.1317003 6518691
0.12245955 -0.19543466 1.1301527 11319227
-0.084378652 -0.1931269 1.1332234 2447513
-0.078836784 -0.19640058 1.1352899 2513045
0.12404423 -0.18715374 1.1304123 4617903
0.1310302 -0.18697514 1.1273341 10929103
-0.094192773 -0.18241373 1.1328787 2971544
-0.08815302 -0.18598148 1.1333508 2774929
0.12580526 -0.17783114 1.1296676 2909086
0.1306347 -0.17675033 1.1272336 3105187
-0.10217468 -0.16948684 1.1314343 2709911
-0.0973498 -0.17437071 1.1337506 2644371
0.13184699 -0.16688512 1.127723 3368356
-0.10468415 -0.16293114 1.13323 2775444
-0.099569149 -0.16688412 1.1340263 2709910
0.13596371 -0.15687232 1.1285267 3368613
0.14004263 -0.15379062 1.126819 3499683
-0.10817789 -0.15447226 1.1328868 2841497
0.13756527 -0.14933684 1.1308184 3237027
0.14215514 -0.14650528 1.128037 3302821
-0.11449591 -0.14308801 1.1319542 2645144
-0.11091075 -0.14467484 1.1344452 2775964
0.14496797 -0.13646767 1.1287283 3237542
0.14892253 -0.13276786 1.127768 3106215
-0.11658009 -0.13474318 1.1327878 2907291
0.1460413 -0.12687159 1.1290925 3499683
0.14904934 -0.12480859 1.1274914 3303338
-0.11786775 -0.1248446 1.1336529 3039134
0.15039408 -0.11626746 1.1276456 3499947
-0.12351733 -0.11074406 1.1312077 3236770
-0.12115984 -0.11492742 1.1345425 3236770
0.15179306 -0.10570612 1.1279151 3500458
-0.12372635 -0.10426775 1.1311433 3237027
-0.12191667 -0.10453197 1.1351136 3302821
0.15382648 -0.095082439 1.1282336 3632048
-0.12403988 -0.094553292 1.1310467 3302824
-0.12221383 -0.095324844 1.1350222 3302569
0.15181124 -0.086254947 1.1280736 3632047
-0.12476423 -0.085500307 1.1309646 3434408
-0.121992 -0.083003014 1.1348883 3434665
0.14805767 -0.075326949 1.1276637 4026292
-0.12466695 -0.075124368 1.1308535 3631531
-0.12289555 -0.074202605 1.1348121 3631531
0.14788193 -0.067364201 1.1262091 4157366
-0.12487597 -0.068648055 1.1307892 4025255
-0.12185095 -0.063403152 1.1329646 3632304
0.14695713 -0.055603176 1.1256577 4289211
-0.1186932 -0.054311208 1.1322392 3568048
0.14346802 -0.044935241 1.1262761 4094399
0.14596382 -0.049231246 1.1276093 4224702
-0.11761173 -0.048245572 1.1304408 3764911
-0.11426688 -0.043796606 1.132833 3895729
0.14065586 -0.036592375 1.127028 4487616
-0.11935409 -0.030157514 1.1332829 6458567
-0.11431102 -0.033776168 1.1326282 3895996
0.1402102 -0.025574595 1.1258653 5735616
0.14695644 -0.022107616 1.1253048 9477559
-0.11898353 -0.027451575 1.1342478 6852289
-0.11573435 -0.027347311 1.134187 5933254
0.047523461 0.079510435 1.1260612 9474701
-0.017113447 -0.22814687 1.1464931 7248329
0.015748562 -0.22869267 1.1450949 5801654
0.023719918 -0.22731227 1.1444005 5210039
0.036551569 -0.22752056 1.1455005 6328255
0.044212952 -0.2272747 1.1453573 7379645
0.055761907 -0.22678238 1.1451399 8430007
0.063577272 -0.22479697 1.1409744 8625323
-0.055403046 -0.22132558 1.139123 9678537
-0.044464894 -0.22091149 1.1454453 4422071
-0.035084318 -0.22127242 1.1467508 2778029
-0.025269236 -0.22277328 1.1465863 2513574
-0.017572489 -0.22523959 1.1464709 2315684
0.012366945 -0.22500935 1.1459185 2120102
0.024406262 -0.22462302 1.1456932 2185635
0.037504733 -0.22310697 1.1454365 2186146
0.043012477 -0.22402596 1.1453451 2316696
0.058264591 -0.22134504 1.1450366 4486314
0.065770537 -0.22072895 1.1428918 5997746
0.076832704 -0.21740445 1.1435108 6063288
0.085471243 -0.21565072 1.1444768 6589614
0.093577474 -0.21560976 1.1443274 8757678
-0.061223313 -0.20954296 1.1391057 1855898
-0.054365821 -0.21180065 1.1422423 2249885
-0.046538837 -0.21382058 1.1461554 2381985
-0.038332578 -0.21567878 1.1467516 3039902
0.079271398 -0.21026137 1.1445339 2841504
0.085273392 -0.20952091 1.1444159 3302564
0.094736204 -0.20697391 1.1428815 4420011
0.10442552 -0.20587298 1.13831 6984117
0.11372761 -0.20284083 1.1358209 6254993
-0.072687313 -0.19937798 1.1400094 2710418
-0.064795054 -0.20235467 1.1434776 2775447
-0.05795224 -0.20433742 1.1461924 2906776
0.096945241 -0.19899704 1.1436905 3171492
0.1053549 -0.19738065 1.1407182 3237285
0.11356961 -0.19594423 1.1363227 3629215
-0.075723626 -0.19248347 1.1439935 2775191
-0.067433178 -0.19568568 1.1464088 2906012
0.10704249 -0.18810165 1.1421232 3040421
0.11386547 -0.18623258 1.1385914 3105703
0.11972258 -0.18632658 1.1355368 2777257
-0.091586202 -0.17896166 1.1393415 2710677
-0.084633879 -0.1825901 1.1427821 2709909
-0.078258462 -0.18597114 1.1451718 2709910
0.11481202 -0.17778337 1.1420648 3368100
0.12224989 -0.17575248 1.1375128 3302561
-0.092967659 -0.17242765 1.1424098 2710421
-0.088018544 -0.17508167 1.1464366 2644886
0.11664543 -0.16994387 1.1434226 3040936
0.12454496 -0.16661072 1.1411549 3237031
0.13079867 -0.16353661 1.1380939 3368615
-0.10308638 -0.15974444 1.1393503 2776209
-0.097426184 -0.16399908 1.1440421 2841240
0.12634097 -0.15804218 1.1431191 3237287
0.1326271 -0.15566404 1.1378345 3302822
-0.10421765 -0.15308014 1.1438352 2710683
-0.099367365 -0.15619062 1.1465795 2841499
0.13466386 -0.14715207 1.1402626 3237541
0.13947526 -0.1443193 1.1363318 3237798
-0.10660986 -0.14459112 1.1443994 2907293
0.13611248 -0.13830952 1.1427317 3237797
0.14066935 -0.1356685 1.137619 3303334
-0.1133646 -0.13314478 1.140402 2907805
-0.11100309 -0.13464579 1.146433 2907805
0.14225367 -0.12622467 1.1400466 3434407
-0.11413559 -0.12384271 1.1418424 3039392
-0.11138245 -0.12488433 1.1471373 3039391
0.14388502 -0.11659637 1.1397882 3500202
0.14783949 -0.11360808 1.1342542 3631274
-0.11754467 -0.11476162 1.1436764 3170979
0.14554363 -0.10624976 1.1417762 3631791
0.14880937 -0.10563326 1.1359305 3566510
-0.1182607 -0.10441799 1.1447618 3105957
0.1443409 -0.09518116 1.1404592 3632305
0.14950153 -0.096172549 1.1343734 3501227
-0.11900733 -0.094434164 1.1423842 3237546
0.14357492 -0.086138994 1.1394989 3698099
0.14810863 -0.086423583 1.1343631 3698094
-0.11869464 -0.084668927 1.1425136 3434923
0.14452139 -0.076824903 1.1399291 3895479
0.14671683 -0.078824088 1.1339085 3895477
-0.11864186 -0.074198797 1.1430216 3566256
0.14444 -0.065506302 1.141145 4027579
0.14685246 -0.064885885 1.13776 4157882
-0.11794903 -0.065269962 1.1421584 3567024
0.14208457 -0.056044627 1.1405786 4159422
0.14633465 -0.056099076 1.1360766 4289724
-0.11599351 -0.055387411 1.1398218 3567791
-0.11285654 -0.053298857 1.1450766 3764403
0.14002481 -0.046083257 1.139021 4356797
-0.11151647 -0.044376694 1.1388614 3830196
0.13703765 -0.036601078 1.1380424 4619718
-0.11035313 -0.033409473 1.1410627 3896507
0.13257489 -0.024841025 1.1384896 4817095
0.1370589 -0.025306694 1.1351892 4948420
-0.11823223 -0.024473451 1.1422044 6916535
-0.11073665 -0.024766512 1.1417621 5210049
0.13156152 -0.018458262 1.1405526 5013440
0.13596307 -0.017922878 1.1381322 5998788
0.028839657 0.052314699 1.1375505 5859448
0.036995225 0.052635387 1.1355398 6122362
0.042602345 0.052973762 1.1384338 6319482
0.053739682 0.054638177 1.1422126 5330522
0.029249765 0.05676204 1.1359719 5792108
0.037033081 0.057852075 1.1352841 5527648
0.042461522 0.057337001 1.1383904 5067354
-0.011318974 -0.2279036 1.1493846 4354997
-0.0038945731 -0.22867343 1.1512569 4684224
0.0059598833 -0.22807731 1.1496025 4289976
0.0168477 -0.22543031 1.1488411 2054307
0.027290124 -0.22564453 1.1486516 2777510
0.032812241 -0.22656594 1.1485598 4026798
0.049272314 -0.22603774 1.1482519 5604271
0.053059865 -0.2242683 1.1481636 4881326
-0.030621223 -0.2181647 1.1496367 3039902
-0.022638146 -0.21882182 1.1499971 2710943
-0.014061891 -0.22042869 1.1526614 2645152
-0.0040363669 -0.22293307 1.1558667 2514339
0.0058851698 -0.22251634 1.1551466 2514851
0.015687631 -0.2197102 1.1534033 2842787
0.025512571 -0.2189929 1.1510147 2908579
0.035173863 -0.21828288 1.1513187 3039651
0.04540449 -0.21864694 1.152246 2908578
0.05471579 -0.21747833 1.1518126 2778020
0.064644948 -0.21552052 1.1492876 2646433
0.074274957 -0.21791139 1.1477069 5012145
0.085838333 -0.21882203 1.1475041 8955830
-0.043910276 -0.21016505 1.1500823 2841242
-0.033969294 -0.21189947 1.1519661 2775960
-0.024889939 -0.21286476 1.1537433 2841500
-0.015349716 -0.21469471 1.1573215 2907551
0.016301807 -0.21294156 1.1567215 3105184
0.025497854 -0.21227774 1.1565455 3170722
0.035442423 -0.21195862 1.1563594 3302053
0.045553319 -0.21108106 1.1561644 3170723
0.056020644 -0.20982331 1.1559589 3105188
0.065289505 -0.20874904 1.1540626 3170467
0.074811898 -0.20827237 1.149996 3236258
0.084803827 -0.20452735 1.147817 3171236
-0.060886934 -0.19936097 1.1499947 2906776
-0.054267429 -0.20137458 1.1510375 2907033
-0.045723457 -0.20204927 1.1545788 2841497
-0.036284603 -0.20577917 1.1576121 2775704
0.066131413 -0.20323023 1.1557037 3105443
0.074971035 -0.20294657 1.1555383 3105443
0.085615613 -0.19889797 1.1540366 3105956
0.093819104 -0.19579759 1.1503156 3105956
-0.072214529 -0.18873839 1.1500909 2644884
-0.06497968 -0.19204648 1.1529936 2775705
-0.056472376 -0.19462086 1.1555316 2841497
0.08897876 -0.19143479 1.1551597 3172006
0.096536353 -0.18881887 1.153993 3040421
0.10227393 -0.18630862 1.1513606 2974628
-0.081276603 -0.18024033 1.1501678 2645144
-0.074524954 -0.1817624 1.1531193 2710425
-0.069109656 -0.18429637 1.1545595 2776216
0.10546517 -0.17755982 1.1514599 3171493
0.11031115 -0.17520395 1.1481954 3237026
-0.084524482 -0.17229754 1.1527327 2710424
-0.078015283 -0.17425978 1.1565919 2710937
0.1082259 -0.17090505 1.1545898 3302823
0.11436328 -0.16665229 1.1512736 3172005
0.1200386 -0.16333637 1.1502922 3172006
-0.093607321 -0.16122732 1.1501942 2841498
-0.08904355 -0.16355366 1.155059 2907290
0.11670884 -0.15957056 1.1543145 3303592
0.12281942 -0.15600392 1.1528311 3237544
0.12870397 -0.15153015 1.1460077 3303337
-0.095612645 -0.15281309 1.151857 2973342
-0.090808533 -0.15572041 1.1580865 3038879
0.12621057 -0.14812106 1.1533526 3237544
0.1303876 -0.14500128 1.1487086 3303336
-0.10401896 -0.14153138 1.1511781 2973342
-0.097772822 -0.14445232 1.1555952 2973600
0.13352241 -0.13575888 1.1497539 3368872
-0.10582504 -0.13370919 1.1524822 3039392
-0.10026984 -0.13429452 1.1580347 3236259
0.13455012 -0.12626386 1.1513854 3500460
0.13879183 -0.12374128 1.1455296 3434923
-0.10722565 -0.12410132 1.1529428 3170978
0.13532007 -0.11729673 1.1521937 3500719
0.13986972 -0.11468223 1.1487485 3500718
-0.11419819 -0.11318319 1.1500664 3237029
-0.1102336 -0.11436743 1.1560073 3237286
0.13997257 -0.10579024 1.1514255 3697329
-0.11448155 -0.10440343 1.149979 3237543
-0.11180053 -0.1038074 1.1574252 3172263
0.14088684 -0.09665022 1.150807 3697843
-0.11503995 -0.094749898 1.1528883 3303340
-0.11290891 -0.093558922 1.1578377 3303852
0.14033163 -0.086213388 1.1511074 3764149
-0.11547311 -0.085026532 1.1497931 3500716
-0.11265453 -0.083489344 1.157727 3501229
0.14290819 -0.075703248 1.1495204 3764661
-0.11536706 -0.076966688 1.1497064 3566512
-0.11222824 -0.07339891 1.1539757 3632306
0.13959742 -0.065597191 1.1493739 3896764
-0.11193725 -0.063764319 1.1538688 3698357
0.13333306 -0.055731181 1.1515816 4291265
0.13710049 -0.056834552 1.145999 4225217
-0.11062453 -0.054713767 1.1533856 3764408
0.13379303 -0.04611541 1.1508051 4554434
0.13627695 -0.045820948 1.144755 4488640
-0.10800167 -0.043904327 1.1540238 3895997
-0.1039278 -0.040540487 1.1571143 4027323
0.13303497 -0.035346795 1.1497054 4817354
-0.10683079 -0.034362793 1.1504344 3962044
-0.10278819 -0.032968931 1.1562134 4093118
0.12337137 -0.023290612 1.1527566 5014224
0.12877619 -0.025890455 1.1486838 4751563
-0.10609389 -0.023936026 1.1489773 4290235
-0.10113635 -0.023603618 1.1534171 4158908
-0.094969764 -0.0210784 1.1567447 4028609
0.12144892 -0.016328275 1.1509404 4817874
0.12802336 -0.015884176 1.1455915 5145287
-0.099007487 -0.01690542 1.1511737 4487616
-0.093638301 -0.014026307 1.1553123 4356800
0.11219307 -0.0041067749 1.1507595 5276623
0.11855923 -0.0069527701 1.1469573 5604813
0.12797046 -0.0078825727 1.1453971 6720449
-0.091738373 -0.0069624782 1.1565366 5671109
0.11018176 0.0014109313 1.1521672 5802961
0.11649451 0.00080349296 1.1479614 6787017
0.033655521 0.014760956 1.154004 12972031
-0.02191624 0.022875771 1.1529391 5869264
0.010617731 0.02029033 1.154369 7515376
0.018118741 0.020162269 1.1542326 8764660
0.027733818 0.020028338 1.1540574 10146554
0.034396812 0.019209661 1.1539435 10870005
-0.079983041 0.029268742 1.1479372 8028800
-0.074873932 0.029798888 1.1478378 7305855
-0.017528951 0.024180785 1.1548451 5671370
-0.014214093 0.024287157 1.1547831 5869265
0.0089899059 0.02503176 1.154349 6988787
0.013409714 0.025173575 1.1542664 7185904
0.099310666 0.036779881 1.1525658 6314850
-0.073816031 0.034837574 1.1477652 8028802
0.09610267 0.040216878 1.1525886 6117979
0.071673527 0.049881935 1.1449338 5593178
0.0738682 0.049952358 1.1448927 5658970
-0.0097091123 -0.21744102 1.1612476 2973083
-0.0041295271 -0.21837205 1.161155 2973595
0.0052913884 -0.21763259 1.1616409 2973598
-0.030024678 -0.20699255 1.1615108 2842012
-0.023604572 -0.20817409 1.1614053 2776219
-0.014161684 -0.21033758 1.1627787 2907806
-0.0044986866 -0.2113912 1.1642468 2907807
0.0060731117 -0.21159105 1.1642301 2973599
0.014823187 -0.20899636 1.1613748 3039136
0.025539897 -0.20765521 1.1618305 3170723
0.035495657 -0.20722294 1.1609763 3236770
0.045260943 -0.20645525 1.160122 3170979
0.054294713 -0.2059519 1.1599507 3170980
0.06089358 -0.20407507 1.1598097 3171236
-0.041398585 -0.19847721 1.1616302 2842012
-0.034594234 -0.20051107 1.1629814 2842011
-0.024895154 -0.20244981 1.1638308 2842012
-0.0165377 -0.2036165 1.1652284 2907805
0.029956821 -0.20351684 1.164373 3302309
0.03590662 -0.20218003 1.1631066 3302308
0.044525526 -0.20179577 1.1615868 3171236
0.055278212 -0.20203519 1.1598915 3171236
0.065883383 -0.20030418 1.1613454 3105443
0.075625084 -0.19807449 1.1604761 3171492
0.082090996 -0.1959946 1.1593351 3040420
-0.062822901 -0.18806429 1.161914 2841497
-0.053954169 -0.19052491 1.1623105 2907291
-0.045411162 -0.19288935 1.1635277 2907549
-0.038663633 -0.19383773 1.1655319 2907551
0.0785506 -0.190819 1.1633465 3040420
0.085468419 -0.1887735 1.1613028 3106213
0.093161687 -0.185945 1.1590259 3106214
-0.064497948 -0.18160835 1.1638772 2907290
-0.057794914 -0.18425909 1.1652822 2973340
0.089388959 -0.1815604 1.1630499 3302823
0.095309503 -0.17900822 1.1605138 3237030
0.10133876 -0.17540459 1.1605428 3237031
-0.082316026 -0.16870908 1.1620682 2841497
-0.073802434 -0.17191195 1.162479 2842012
-0.067569159 -0.17392465 1.1648529 2907547
0.10625708 -0.1675671 1.159515 3368361
0.11121616 -0.16416389 1.1584648 3237285
-0.083985247 -0.16284244 1.1620371 2973085
-0.077151485 -0.16282088 1.1646488 3039135
0.10831899 -0.16037171 1.1584781 3368615
0.1147451 -0.15682632 1.1590501 3237799
0.11919185 -0.15336257 1.1582046 3303337
-0.091794528 -0.15014257 1.1620468 2973857
-0.086226732 -0.15348011 1.1635356 3039137
-0.080224216 -0.15414451 1.1658772 3104930
0.1165143 -0.14925332 1.1602108 3172264
0.1226153 -0.14617889 1.1587328 3238059
-0.093231335 -0.14197253 1.1629874 3039650
-0.089081876 -0.14540654 1.1659479 3105700
0.12556493 -0.1363212 1.1600622 3369132
0.12974259 -0.1363734 1.1578317 3434410
-0.096248873 -0.13349506 1.1636679 3171236
0.12721261 -0.12813185 1.160992 3500719
0.13048625 -0.12573352 1.1597064 3435183
-0.10381264 -0.12166716 1.1619676 3302823
-0.099051721 -0.12346841 1.1645664 3171495
0.13091865 -0.11561921 1.15941 3566514
-0.10581011 -0.11307737 1.1633687 3368873
-0.10206322 -0.11411688 1.1650567 3368875
0.13331726 -0.10635487 1.15825 3697588
-0.10698377 -0.10403243 1.1645074 3303850
0.1346225 -0.096682578 1.1607533 3763892
0.13776058 -0.095932662 1.1572584 3698099
-0.10867535 -0.093886815 1.1633648 3435181
-0.10276391 -0.094162881 1.1656595 3435438
0.13532524 -0.086522833 1.1612048 3829942
0.13809988 -0.085913107 1.1582897 3764149
-0.10794467 -0.084181428 1.1636491 3501229
0.13489428 -0.073170438 1.1610721 3896505
0.13934018 -0.075933412 1.1588373 3830455
-0.10767337 -0.074311554 1.1630785 3632563
-0.10351808 -0.070796207 1.1654272 3567542
0.13225845 -0.066118613 1.1584743 4027837
0.13757405 -0.069519691 1.1569836 3896505
-0.1072431 -0.06423638 1.1627593 3829940
-0.10373355 -0.06412001 1.1653609 3699127
0.13047048 -0.056545466 1.1596447 4291009
-0.10716172 -0.054093104 1.1621176 3895737
-0.10345178 -0.053131577 1.1652399 4027576
0.1304304 -0.046509661 1.1588728 4422849
-0.10621054 -0.047371417 1.1612291 4158911
-0.10180843 -0.043509319 1.163108 4093372
0.13005073 -0.036777761 1.1582773 4817355
-0.098374128 -0.034000102 1.1624831 4093630
-0.093685254 -0.03038203 1.1648209 4094397
0.12226953 -0.026267305 1.1590319 5080014
0.12684327 -0.029347561 1.1567576 4883149
-0.096530199 -0.02634003 1.1608297 4028348
-0.092082359 -0.023623742 1.1622198 4028864
0.11746111 -0.016777724 1.1585757 4949202
-0.088825598 -0.01391872 1.1623759 4029123
-0.084641561 -0.011527643 1.1644561 3963586
0.11107814 -0.007104136 1.1594801 5146069
0.11461078 -0.011424437 1.1567935 5080276
-0.088304326 -0.0060953498 1.1604654 5342665
-0.081182554 -0.0036767945 1.1643099 4882633
-0.017887834 0.0021242276 1.1630859 6070261
-0.011212436 0.0023384392 1.162961 6528744
-0.0045370385 0.0025526434 1.1628361 8827627
0.011038886 0.0030524582 1.1625447 10340848
0.019800998 0.00269714 1.1623875 8895736
0.027325446 0.0022384673 1.1622541 6266608
0.10162316 0.0053923428 1.1598556 5475287
0.10618499 0.0020025894 1.1581405 5475028
-0.077941597 0.0024011731 1.1621859 5999306
-0.071321025 0.0037236586 1.1620504 5540557
-0.062878177 0.0073244348 1.1611905 5803727
-0.050176345 0.0095038861 1.1636014 4950220
-0.041183364 0.0086673871 1.163445 5016280
-0.03145181 0.0083642825 1.1628693 5411294
-0.021443821 0.0086535811 1.1608419 5806569
-0.011431932 0.0090039596 1.1622947 7120874
-0.001862593 0.01006414 1.1627078 12379901
0.0086956713 0.009853296 1.1599892 13891069
0.018500276 0.0099224523 1.1591345 12969723
0.028457496 0.010487914 1.1598301 9946095
0.038537703 0.010583706 1.1600467 10013177
0.048202813 0.012772918 1.1596053 7449069
0.054835495 0.01485379 1.1616157 5411552
0.098561205 0.0091700405 1.1583718 6526426
-0.048358068 0.014512688 1.1635152 6264275
-0.040840141 0.015533023 1.1608658 5803990
-0.031316921 0.016454063 1.1591809 5345755
-0.021357048 0.018036067 1.1589812 5412839
-0.011782819 0.018941648 1.1592958 5676266
-0.002678005 0.018335469 1.1614926 7253489
0.0071198884 0.018449828 1.1594539 8436213
0.017146623 0.016529165 1.1582897 12051453
0.031417333 0.021427259 1.1579759 10082302
0.039276425 0.020939432 1.1578367 10607102
0.047783062 0.020366654 1.1576864 7515119
0.054861411 0.019993052 1.1588939 6068200
-0.0097499173 0.0245464 1.1586994 6001365
-0.005314881 0.024688713 1.1586164 6396124
0.1069272 0.034062669 1.1564555 6447199
-0.0010494702 -0.20741627 1.1689848 3039391
0.0064979997 -0.20658676 1.1703377 3039135
0.017928872 -0.20680727 1.1686296 3104930
-0.030435525 -0.19718263 1.1694169 2776478
-0.023997381 -0.19785228 1.171306 2842271
-0.014007894 -0.19915029 1.1733185 2907807
-0.0047172643 -0.20070732 1.1736782 2908063
0.0053427452 -0.2012237 1.1746033 2973600
0.015616892 -0.19991571 1.1739341 3105187
0.025510665 -0.19925603 1.1728256 3236773
0.035153914 -0.1976133 1.1719506 3237029
0.046098456 -0.1973471 1.1718134 3171237
0.055732388 -0.19801101 1.1693429 3171236
0.065185979 -0.19615303 1.1685725 3105444
0.073963374 -0.1943914 1.1674694 3171493
-0.042849142 -0.18867454 1.172756 2841758
-0.034665391 -0.19071251 1.1734273 2907551
-0.025673162 -0.19150305 1.1760947 2842271
-0.014934063 -0.19233605 1.1770828 2908064
-0.0081538614 -0.19324377 1.1769679 2973857
0.013201889 -0.19255848 1.1765683 3105444
0.026033044 -0.19114649 1.1763177 3237030
0.036075607 -0.19124818 1.175334 3302823
0.045703709 -0.19015864 1.1750226 3171495
0.055005703 -0.18845475 1.1743654 3105703
0.064714029 -0.18840405 1.1739777 3105703
0.074463882 -0.18761158 1.1718898 3105702
0.082660727 -0.18487063 1.168924 3105958
-0.054398052 -0.18135872 1.1713378 2973598
-0.046272278 -0.1827765 1.1755574 2907551
-0.036289997 -0.18430039 1.1773906 2908065
0.07603614 -0.17911622 1.1752722 3237288
0.084783003 -0.17814577 1.1726563 3302823
0.093320802 -0.17585763 1.1694906 3237287
-0.064137936 -0.1703853 1.1726115 3105183
-0.056510873 -0.17348406 1.1757653 2974112
-0.04811018 -0.17539608 1.1775138 2842786
0.086101107 -0.17131442 1.1750052 3171750
0.094584487 -0.16744359 1.1734749 3172008
0.10250952 -0.16547598 1.1689743 3303081
-0.072610378 -0.16099156 1.1704773 3104930
-0.066202603 -0.16304865 1.1763825 3170978
0.096826911 -0.15901007 1.1746784 3303337
0.10450972 -0.15726532 1.1722684 3368873
0.11134612 -0.15577061 1.1689218 3237543
-0.082813673 -0.1485049 1.1725336 3040164
-0.075953104 -0.15203232 1.1735678 3105701
-0.069357581 -0.15619785 1.1777021 3302822
0.10583206 -0.14817557 1.1743989 3303597
0.11307216 -0.14555794 1.1698737 3238059
0.12001243 -0.14229172 1.1680751 3303852
-0.085437715 -0.14224029 1.1736273 3106213
-0.077533923 -0.14398831 1.1777236 3172007
0.11375561 -0.13642061 1.1739295 3369387
0.12161145 -0.13596676 1.1699795 3435181
-0.092961676 -0.13226338 1.1712154 3237030
-0.086291403 -0.13268037 1.1754315 3237800
-0.079763941 -0.13590154 1.1776794 3303594
0.11538194 -0.13031468 1.1740353 3500972
0.12358823 -0.12580311 1.1705863 3500976
0.128088 -0.12280066 1.1657209 3500977
-0.094366327 -0.1230289 1.172922 3237545
-0.089578651 -0.12450168 1.1768506 3303852
0.12512773 -0.11619844 1.1737076 3566772
0.12838516 -0.11646461 1.1696496 3566515
-0.097187646 -0.11340368 1.1730114 3369389
0.12567657 -0.10664269 1.1735969 3763639
0.12891804 -0.10565112 1.1686368 3763639
-0.1044495 -0.099811658 1.1710845 3435181
-0.098902166 -0.1032908 1.1742581 3435438
0.12596121 -0.095541455 1.1734747 3895737
0.1308437 -0.095316134 1.1682049 3764149
-0.10413884 -0.093311369 1.1720773 3435438
-0.098675869 -0.093727462 1.1760437 3501231
0.12577981 -0.089920849 1.1734188 3961530
0.13093176 -0.085824527 1.1681033 3961528
0.13795447 -0.082248196 1.1651125 3895735
-0.10414501 -0.084049582 1.17258 3501489
-0.099834152 -0.083660394 1.1753798 3501490
0.12519932 -0.071934909 1.1732399 4159679
0.13097063 -0.076475345 1.1684535 3962041
0.13788241 -0.08001519 1.1650903 3895735
-0.10486892 -0.076737911 1.1715161 3501747
-0.10011743 -0.07336729 1.1740605 3567541
0.1242444 -0.065588936 1.1731907 4225473
0.12787822 -0.066014558 1.1691275 4159424
-0.098691575 -0.06317547 1.17286 3764919
0.1237084 -0.056728888 1.1731073 4422597
0.12755278 -0.055931732 1.1690272 4357059
-0.098517656 -0.053394448 1.1725824 3896505
-0.093688615 -0.053077254 1.1770627 3962298
0.12324087 -0.046116196 1.173004 4685767
0.12722737 -0.04584891 1.168927 4422851
-0.097385377 -0.044245988 1.1706362 4027836
-0.092334084 -0.042265855 1.1758329 4028094
0.12098652 -0.035610881 1.1708167 4948684
0.12685299 -0.037368212 1.165844 4751818
-0.095980823 -0.036107145 1.1689243 4093632
-0.090416849 -0.032419048 1.1746308 4094399
0.11394639 -0.025409117 1.1729567 5080784
0.11820254 -0.026387937 1.1680876 5211343
-0.087470107 -0.023892656 1.1730039 4094402
-0.080996543 -0.020593412 1.1754872 4226244
-0.074545279 -0.018704407 1.176349 4620744
-0.020630192 -0.015849032 1.1753284 5412064
0.0018495461 -0.015127674 1.1749078 6463211
0.010039587 -0.018704094 1.174795 6397929
0.019699821 -0.017753057 1.1746075 6397929
0.028866697 -0.015546769 1.1744158 6003432
0.11059912 -0.016257979 1.1704211 5081042
0.11580574 -0.019252144 1.1648558 5081041
-0.079983793 -0.01279629 1.170252 4160963
-0.071845755 -0.011546001 1.1753666 4752075
-0.056888022 -0.008010231 1.1759119 4949201
-0.050125957 -0.0083558857 1.1757914 5016022
-0.040527254 -0.0091747046 1.1749568 5213659
-0.030684497 -0.0097690374 1.1742179 5411552
-0.02081202 -0.010230295 1.1744723 5740773
-0.01069572 -0.0099038184 1.1750833 6003172
-0.00058841892 -0.0095804185 1.174494 6331366
0.0094543258 -0.0092584565 1.1717055 6989552
0.019556941 -0.0089344904 1.1719166 6792432
0.029624283 -0.0086103678 1.1710781 5937640
0.038118355 -0.0074001178 1.1731598 5806054
0.048803028 -0.0057439953 1.1739463 5674725
0.055510666 -0.0044034645 1.1738089 5674983
0.10139477 -0.0054629818 1.1729771 5146841
0.10737037 -0.0073910579 1.1671721 5080789
-0.076895095 -0.0042001382 1.1682376 4554184
-0.073422119 -0.0032320619 1.1711642 4751049
-0.058133073 -0.0024436414 1.1738757 4818129
-0.050710112 -0.0022111088 1.1729367 5015507
-0.041239008 -0.0019272715 1.169359 5147609
-0.031161994 -0.0016123652 1.1678702 5346018
-0.021467503 -0.001657784 1.1703043 5937898
-0.010997228 -0.0020663738 1.1703385 6462952
-0.00058837421 -0.00099313259 1.1692468 8303605
0.0087639811 -0.00080618262 1.168057 8501495
0.018631373 -0.0014760867 1.1670694 7252467
0.029930627 -0.00056216121 1.1676915 6069484
0.039053567 0.00082727522 1.1683707 6135528
0.04922821 0.00080063939 1.1712807 5741031
0.058634277 0.0013142154 1.1726911 5543655
0.068083555 0.0029248297 1.1735008 5477092
0.078099012 0.0045734718 1.1732994 5739747
0.089471817 0.0046883449 1.1730893 5280481
0.098702878 0.002321355 1.1692514 5015513
0.1042094 0.00050211698 1.1668612 4949463
-0.070413075 0.0027138442 1.1680456 4818122
-0.061017953 0.0040087849 1.1678594 5147606
-0.052359067 0.0050317496 1.1676896 4818639
-0.043620121 0.0035736039 1.1675444 5344472
0.00101679 0.0055647939 1.1667033 12971007
0.0055003008 0.0051498264 1.1666253 12905215
0.030060504 0.0059379414 1.1661658 5807584
0.043456987 0.0063678175 1.1659151 6004710
0.04948641 0.0075193048 1.1657922 5807083
0.058231685 0.010298252 1.1677361 5477863
0.066790536 0.010162465 1.1701142 5542628
0.078751579 0.007595174 1.1732556 5673698
0.08922261 0.009875983 1.1715388 5804766
0.094810136 0.0080156922 1.1649543 5147865
0.060958598 0.018106066 1.16547 5412324
-0.0012651216 -0.1959043 1.1808702 3039650
0.0052002147 -0.19634202 1.180756 3039650
-0.021820232 -0.18866023 1.1811714 2842271
-0.015053473 -0.18844309 1.1810448 2973857
-0.0046768636 -0.18918952 1.1821254 2973857
0.0051483363 -0.19061536 1.1832235 3039395
0.015724804 -0.18834791 1.1822566 3171237
0.024966057 -0.18663955 1.1813575 3237030
0.035295643 -0.18575266 1.1816303 3302569
0.043629829 -0.18562853 1.1812707 3237546
-0.041814111 -0.17881733 1.1814351 2908065
-0.034210578 -0.17954114 1.181303 2973857
-0.02545917 -0.18101507 1.182158 2973857
-0.01563751 -0.18259081 1.183112 2973858
-0.0072891898 -0.18313372 1.1848471 3105444
0.024395626 -0.18211699 1.1842543 3237030
0.036040127 -0.18023278 1.1840205 3302825
0.044945411 -0.17949472 1.1835414 3171754
0.054781687 -0.17971447 1.1816703 3171752
0.065093853 -0.17896575 1.1808846 3171753
0.073417738 -0.17558351 1.1802843 3237546
0.081536338 -0.17292354 1.1791068 3303592
-0.053289734 -0.16972268 1.1815501 2908579
-0.044994839 -0.17160763 1.183418 2908579
-0.035102736 -0.17275183 1.1841576 3105444
-0.026380584 -0.17422992 1.1851041 3105443
0.068235829 -0.17164694 1.1833385 3303339
0.076165967 -0.16913119 1.1818328 3303082
0.084450528 -0.16677663 1.1795601 3237545
0.090267465 -0.16361061 1.1788483 3303850
-0.062676132 -0.15873291 1.1816068 3302822
-0.055887952 -0.16280031 1.1837754 3040165
-0.048611231 -0.16633317 1.1854293 3040167
0.079259619 -0.16222993 1.1830368 3303598
0.085172035 -0.15805253 1.1819428 3238061
0.0936286 -0.15573707 1.1798149 3303596
0.10121776 -0.15309733 1.1785364 3369131
-0.072790101 -0.14851922 1.1816851 3171751
-0.066225752 -0.15192939 1.1830125 3368615
-0.059160911 -0.15534262 1.1855074 3171751
0.10284672 -0.14645186 1.1799368 3369134
-0.074991263 -0.14153299 1.1816518 3369130
-0.068758182 -0.14326414 1.1845562 3434922
0.10368851 -0.13673942 1.1813669 3435183
-0.076968275 -0.13298056 1.1829318 3434923
0.10621282 -0.12955856 1.1813973 3501232
0.11285648 -0.12621751 1.1806282 3435694
0.11948016 -0.12428389 1.1778973 3501232
-0.085550889 -0.12211026 1.1826415 3369646
-0.079684541 -0.12566131 1.1842382 3435182
0.11630949 -0.11685763 1.1818782 3567282
0.12035482 -0.11621463 1.1796149 3567027
-0.094364531 -0.10969314 1.1816725 3501231
-0.089605376 -0.11344562 1.184375 3435439
0.11605381 -0.10893548 1.1817995 3829686
0.12103146 -0.10597931 1.1798987 3829431
-0.094473742 -0.10630935 1.1816388 3501231
-0.090164006 -0.10291266 1.1831908 3567024
0.12304296 -0.096525766 1.1802068 3830201
-0.094928794 -0.092210248 1.1814986 3632818
-0.091641523 -0.092805691 1.183445 3698612
0.12480465 -0.085860133 1.1793952 3896507
-0.095238224 -0.082622856 1.1814033 3633333
-0.091338187 -0.082665764 1.1841327 3764919
0.12430181 -0.075667918 1.178797 4093886
-0.095973298 -0.073839486 1.1813242 3633334
-0.091909505 -0.072743312 1.1844388 3830201
0.12100291 -0.066137254 1.1794796 4291523
-0.091846906 -0.06244956 1.1827955 3896506
0.12016396 -0.055680823 1.1787624 4619975
-0.088876158 -0.05279823 1.1826869 4028348
0.11397178 -0.044426538 1.1811582 5146320
0.11845058 -0.046514742 1.1800977 4883148
-0.087489471 -0.043348312 1.181133 3962814
-0.082508817 -0.041803248 1.1835972 3963072
0.11266803 -0.035651799 1.1795894 5146577
0.11644437 -0.037173647 1.1775357 5080527
-0.086413331 -0.034240153 1.1807315 4028607
-0.080255955 -0.032273747 1.1827315 4291526
-0.030398972 -0.028666914 1.1836445 5147865
-0.022937715 -0.028200909 1.1835026 5344731
-0.0066718888 -0.026772626 1.1831887 5345501
0.00011771545 -0.026554756 1.1830617 5739743
0.010338197 -0.028472826 1.1815605 5936862
0.019393584 -0.028187193 1.1817245 5871068
0.029575856 -0.026742369 1.1825224 5739228
0.047644943 -0.025029652 1.1821724 5213656
0.11050456 -0.026836134 1.1794363 4949970
-0.078759074 -0.024792403 1.1804914 4422856
-0.070452623 -0.019743063 1.1821041 4686797
-0.060122699 -0.018281035 1.1820809 4884690
-0.049659483 -0.019369371 1.1834004 4950486
-0.039201941 -0.019801505 1.1823792 5213659
-0.030634627 -0.020717241 1.1803645 5279707
-0.020436645 -0.021523885 1.1805857 5345244
-0.010332659 -0.019567475 1.1802906 5411808
-0.00044773147 -0.020366617 1.1799153 5806052
0.0089663221 -0.023200564 1.1788629 6068964
0.021008257 -0.023190513 1.1786416 6068963
0.03097857 -0.020479552 1.1793531 6003173
0.039390247 -0.018481612 1.1800547 5608417
0.049595032 -0.018157482 1.1804639 5411038
0.056478582 -0.017948732 1.1819355 5279709
0.10106648 -0.014769539 1.1801596 5212630
0.10679249 -0.018195547 1.1783465 5015248
-0.06697204 -0.013970017 1.1801609 4949712
-0.060205273 -0.013752885 1.1800343 4949713
-0.050055124 -0.013427176 1.1798444 5016279
-0.040644713 -0.01350157 1.1796722 5213659
-0.031974018 -0.01397606 1.1795179 5345501
0.04075047 -0.011077859 1.1781512 5871590
0.049190726 -0.01024247 1.1779875 5871847
0.05940564 -0.0076611042 1.179773 5543139
0.06665504 -0.0062959865 1.1799111 5280225
0.091192931 -0.0055057108 1.1811666 5411294
0.09704946 -0.0067572445 1.1785263 5279196
0.068654083 -0.0011496916 1.1775341 5411556
0.07818573 0.00084982812 1.1773379 5412066
0.089463666 0.0012117252 1.1771269 5477344
0.096303232 -0.00082699209 1.1770227 5213404
0.0060944967 -0.1859419 1.1886318 3105189
-0.014517203 -0.17812377 1.1899283 3039906
-0.0047461092 -0.17994151 1.1901966 3039908
0.0048543932 -0.18077609 1.1919342 3105447
0.015383887 -0.17968675 1.1891454 3105702
0.024407372 -0.17815502 1.1882133 3171750
0.033374086 -0.17745394 1.1880412 3237289
0.044771403 -0.17522812 1.1878084 3237548
0.054990076 -0.17490022 1.1876172 3171752
0.064073339 -0.17460874 1.1874472 3171752
-0.04253798 -0.16757199 1.1893318 3039909
-0.034653828 -0.16804177 1.1900809 3105701
-0.026387069 -0.17041108 1.1916109 3105443
-0.016593587 -0.17547862 1.1929393 3040163
0.014135782 -0.17358012 1.1923547 3105960
0.025491972 -0.17210051 1.1921304 3105958
0.034520157 -0.17030664 1.1911455 3237545
0.044856995 -0.16892433 1.189846 3237547
0.054873887 -0.16829485 1.1891501 3237544
0.064925462 -0.16774413 1.1890438 3237545
0.073489308 -0.16549031 1.187845 3303339
-0.054082714 -0.15850767 1.1894484 3172009
-0.045519613 -0.16137479 1.1917218 3105961
-0.036089126 -0.16327325 1.1931689 3171752
0.047973905 -0.16200142 1.1916111 3303337
0.054809194 -0.16178207 1.1914831 3303593
0.064867854 -0.16048172 1.1912847 3303594
0.073961824 -0.15758634 1.1898369 3303596
0.080680251 -0.15588832 1.186945 3238062
-0.061737739 -0.15022792 1.1895018 3434409
-0.055891335 -0.15177605 1.1922349 3237547
-0.047459759 -0.15386586 1.1932787 3237805
0.074710518 -0.15024506 1.1909959 3238318
0.083886072 -0.14702743 1.1896733 3238572
0.093965694 -0.14650612 1.1878023 3434926
0.10042045 -0.14570644 1.186475 3369134
-0.064345807 -0.14126301 1.1906863 3435179
-0.058298647 -0.14305726 1.1929194 3369388
0.088323712 -0.14017707 1.1906399 3500977
0.093809217 -0.13647029 1.1894999 3435186
0.099209152 -0.13634843 1.1863986 3500720
-0.073206417 -0.13080204 1.1905081 3566511
-0.067384347 -0.13347906 1.1920964 3566767
-0.060068332 -0.13581458 1.1933202 3500977
0.095035225 -0.12878934 1.1898965 3501234
0.10278969 -0.12612492 1.1869754 3501490
-0.083237909 -0.11795299 1.1895568 3566770
-0.076286487 -0.12228963 1.1920754 3632306
-0.069476239 -0.12699223 1.1934 3632563
0.10434454 -0.11738844 1.1886934 3699127
0.11170289 -0.11588561 1.1864243 3633076
-0.084607549 -0.11239582 1.1905236 3566770
-0.078522414 -0.11306975 1.1934196 3763892
0.10497028 -0.1082783 1.189998 3633335
0.11152732 -0.10589674 1.1874075 3764407
-0.085031368 -0.10230646 1.1922256 3698868
-0.080648407 -0.10276597 1.1933501 3699126
0.10515379 -0.096296847 1.1898685 3962811
0.11167053 -0.096187785 1.1885806 3830969
0.11934568 -0.096187763 1.1856056 3830714
-0.086559802 -0.092413425 1.1902721 3699126
-0.081224352 -0.092773125 1.1932554 3830712
0.11205885 -0.08622466 1.1890353 4028606
0.1201565 -0.086093657 1.1854844 3962300
-0.086273469 -0.082907476 1.1908438 3830970
-0.081341818 -0.082403503 1.1931484 3962813
0.11204921 -0.077156201 1.1895401 4291522
0.11984564 -0.076529272 1.1857531 4094399
-0.08689747 -0.072852612 1.1908636 3962044
-0.081971988 -0.072973609 1.1930606 4093630
0.11328066 -0.066369683 1.1891371 4554438
0.11807887 -0.066998482 1.1853215 4357059
-0.086605065 -0.062798589 1.1903713 4093886
-0.08200372 -0.061895188 1.1929445 4291009
0.11109776 -0.055896349 1.1884446 4686026
0.11706879 -0.05582609 1.1852224 4685769
-0.085253641 -0.055498116 1.188936 4159935
-0.080282338 -0.052840456 1.1916744 4225985
0.10353579 -0.046165429 1.18937 5015248
0.10961114 -0.047271974 1.1866028 5014991
-0.077598557 -0.042938802 1.1907811 4292037
-0.072123863 -0.044958998 1.1925845 4619977
-0.049560204 -0.037391771 1.1920903 5279449
-0.041585702 -0.037135877 1.1919411 5016538
-0.029017571 -0.037873108 1.191718 4950743
-0.019447692 -0.039243277 1.1915566 4950488
-0.010361375 -0.038795158 1.1913849 5147351
5.0781295e-005 -0.0375106 1.1911801 5278422
0.010670878 -0.03949428 1.1901169 5212886
0.019979147 -0.038541187 1.1890745 5278423
0.029927542 -0.037379216 1.1893796 5147094
0.040857777 -0.037423134 1.1904294 4885460
0.050276559 -0.035623364 1.1895101 4950741
0.05937811 -0.034808472 1.1900617 5016279
0.10170338 -0.036380045 1.1879003 5212370
0.10908393 -0.037326448 1.1851742 5212369
-0.075744949 -0.035909854 1.1905553 4423370
-0.07378345 -0.03265436 1.1900849 4554187
-0.049260773 -0.032359872 1.1917651 5147610
-0.039464355 -0.031333111 1.1898406 5081818
-0.030291066 -0.033314563 1.189693 5016538
-0.019191597 -0.031519763 1.1896034 5278938
-0.010111148 -0.030621625 1.1894271 5344730
0.00036060624 -0.03117507 1.1881738 5673948
0.010632949 -0.033096973 1.1869384 5805277
0.019716209 -0.032805502 1.1867684 5541848
0.029898226 -0.031342037 1.186566 5475544
0.040043592 -0.028743058 1.1863521 5213397
0.050724275 -0.029016621 1.1868649 5082070
0.060414642 -0.027906775 1.1883696 5016536
0.069306418 -0.025430799 1.1897805 5213915
0.080016062 -0.02410955 1.1895698 5279453
0.090967216 -0.024214342 1.1893697 5213659
0.10046286 -0.026846707 1.1876227 5212628
0.10703264 -0.026593447 1.1850988 5146833
-0.073680401 -0.026708759 1.1884201 4554443
-0.048533008 -0.024083048 1.1879305 5016281
-0.041237067 -0.024758302 1.1878035 5147611
-0.010097586 -0.024668448 1.1872305 5411294
0.060529552 -0.017855227 1.1858611 5148123
0.069249958 -0.017577969 1.1858981 5213915
0.079314835 -0.0174696 1.1872514 5213917
0.090072438 -0.017052799 1.1876261 5213659
0.098092102 -0.018548697 1.1855117 5212887
0.090587184 -0.010070376 1.1852269 5279708
0.095128819 -0.0099246427 1.1851419 5411037
-0.010848338 -0.17598775 1.1978402 3106213
-0.0051284693 -0.17580421 1.1977332 3105959
0.0061689345 -0.17609614 1.1975287 3105706
0.016607016 -0.17510673 1.1973264 3105960
-0.021937639 -0.16947183 1.1979753 3105700
-0.014459118 -0.17047545 1.1985986 3105957
-0.0053025763 -0.17018163 1.1984273 3106216
0.0050205002 -0.16996294 1.1990856 3106217
0.015635241 -0.16910842 1.1987101 3171752
0.023505617 -0.16836482 1.1982199 3303337
0.034615178 -0.1653665 1.196893 3369130
0.041479014 -0.16514626 1.1967646 3369132
-0.034887064 -0.15866582 1.1984328 3171753
-0.025097162 -0.16074482 1.200662 3171752
-0.014764033 -0.16067606 1.202552 3172010
-0.0055262819 -0.16165087 1.2033427 3172012
0.0045062006 -0.16090581 1.2039461 3237802
0.015134468 -0.15986747 1.2031944 3303338
0.024336899 -0.15959838 1.2032225 3369133
0.034605805 -0.15905058 1.2013078 3369388
0.044710677 -0.15839671 1.2004244 3303853
0.053914744 -0.15694427 1.1982001 3369643
0.063961923 -0.15583003 1.1964887 3303851
-0.052991442 -0.14756244 1.198315 3303598
-0.044764895 -0.15011212 1.1999054 3303341
-0.036086898 -0.15154567 1.2031904 3303340
-0.026649233 -0.15265945 1.2058865 3369132
-0.018422604 -0.15428205 1.2057525 3303600
0.014973411 -0.1532104 1.2051276 3303598
0.027640868 -0.15280393 1.2048906 3435186
0.035126179 -0.15256372 1.2047505 3369391
0.044914667 -0.15224962 1.2045674 3369392
0.054615717 -0.14902675 1.2037398 3369390
0.064077526 -0.14768375 1.1999664 3435184
0.073335439 -0.14579931 1.1959755 3369392
-0.054154404 -0.14058472 1.1990631 3369646
-0.046864621 -0.14263217 1.2037518 3303853
-0.039448544 -0.14573342 1.2060487 3173034
0.056304004 -0.14081614 1.2042377 3566773
0.064429879 -0.13925093 1.2034051 3566516
0.074120037 -0.13708103 1.2002703 3500977
0.084001534 -0.13744017 1.1973761 3500975
-0.06471625 -0.12895951 1.1983345 3632562
-0.055689283 -0.13172098 1.2011983 3501236
-0.04809054 -0.13161692 1.2056142 3501494
0.076118477 -0.12790173 1.2037377 3698612
0.083647542 -0.12801917 1.2012365 3567283
0.092375174 -0.12531859 1.198344 3567283
0.099636264 -0.12204946 1.1952422 3501747
-0.072218172 -0.11954702 1.1983731 3895478
-0.066511706 -0.12188262 1.2007935 3698613
-0.057521269 -0.12251566 1.2048025 3633080
0.077344209 -0.12123314 1.2036449 3699128
0.083796471 -0.11783341 1.2034906 3830713
0.093236394 -0.11715287 1.2021097 3699126
0.09988708 -0.11562775 1.1951699 3633333
-0.073784061 -0.11158022 1.198318 3961271
-0.066934735 -0.11177494 1.2031953 3896247
-0.060066342 -0.11411334 1.2060944 3764921
0.083465986 -0.11089103 1.2034235 3962300
0.094232231 -0.10803634 1.2027249 3896506
0.10160618 -0.10595264 1.1970369 3764920
-0.075418793 -0.10229532 1.1997505 3830712
-0.068483263 -0.10160153 1.2047837 4093627
0.096853837 -0.097087577 1.2030321 4028352
0.10212626 -0.096360847 1.1975931 3962812
-0.07614217 -0.091992311 1.2001555 3962556
-0.069571279 -0.092866071 1.2056007 4028606
0.095991783 -0.08670605 1.2029387 4357317
0.10233196 -0.086729191 1.1988215 4225985
0.10753255 -0.082856044 1.1946843 4225985
-0.075941406 -0.082972966 1.2000568 4028606
-0.071062796 -0.082953133 1.2059683 4094655
0.096259087 -0.078659996 1.2028489 4554695
0.10193668 -0.076361768 1.1981194 4554182
0.1080244 -0.074441433 1.1945865 4619462
-0.076995187 -0.072363481 1.1984346 4159424
-0.068941899 -0.071058936 1.2045729 4160448
-0.062667631 -0.069233045 1.2056695 4554440
0.096288517 -0.065285206 1.2027075 4620747
0.10184807 -0.066146322 1.200364 4686026
0.10815958 -0.066801801 1.1945035 4619977
-0.076695889 -0.06269028 1.1978564 4291265
-0.068540983 -0.062387951 1.2029546 4357573
-0.062890664 -0.062322695 1.2056007 4751563
0.011108024 -0.057258006 1.2041879 4818903
0.018760487 -0.056243837 1.2040366 4819160
0.094170913 -0.05682157 1.2026573 4752590
0.10154886 -0.056949735 1.2002726 4817869
0.1067571 -0.058829743 1.1944454 4752076
-0.075018868 -0.0530462 1.1977241 4291778
-0.068986759 -0.052116003 1.2011832 4554440
-0.063150868 -0.054260626 1.2055206 4883149
-0.044874869 -0.046636358 1.2011037 5674209
-0.039135966 -0.046452202 1.2009963 5082331
-0.027653985 -0.048905879 1.2026783 4950745
-0.018330228 -0.050367892 1.2000551 4884953
-0.0091527179 -0.050066229 1.1996833 4753366
0.0011559688 -0.04862624 1.2006791 4884692
0.011772851 -0.04991743 1.1996529 4884692
0.02051579 -0.048907686 1.2001368 4884692
0.030713117 -0.047365032 1.20239 4950484
0.041642834 -0.047982696 1.2004174 4950488
0.050426535 -0.047430888 1.2012439 4950489
0.060999084 -0.045633018 1.2020819 5411037
0.069987327 -0.045088444 1.202978 5542623
0.084029213 -0.042620249 1.2026941 5213404
0.091895349 -0.045250129 1.2025772 5081558
0.10022663 -0.047248255 1.2000446 5015248
-0.070126891 -0.042417951 1.1975223 4685772
-0.047909938 -0.041230053 1.1981927 5542365
-0.038938992 -0.041122135 1.1980788 4951002
-0.030167848 -0.041879404 1.1967825 4884951
-0.020851638 -0.043454576 1.1966279 4753366
-0.0071608871 -0.041869961 1.1963596 4950484
0.0017141318 -0.041871488 1.1961966 5015763
0.03177112 -0.041765962 1.1956433 5015764
0.038634956 -0.041545708 1.1955149 4885461
0.050533313 -0.040182222 1.1952819 4884950
0.061315015 -0.038753785 1.1969154 5082072
0.07070256 -0.037283737 1.199682 5542624
0.080357715 -0.038108431 1.2019138 5279197
0.090410993 -0.036564328 1.1989121 5213144
0.097715609 -0.038886335 1.1944014 5212627
0.064650938 -0.031548522 1.1949316 5016538
