# .PCD v0.7 - Point Cloud Data file format
VERSION 0.7
FIELDS x y z rgba
SIZE 4 4 4 4
TYPE F F F U
COUNT 1 1 1 1
WIDTH 1128
HEIGHT 1
VIEWPOINT 0 0 0 1 0 0 0
POINTS 1128
DATA ascii
-0.1266451 -0.11490682 1.1224623 2973083
-0.12380794 -0.11554267 1.126776 3038877
0.15289348 -0.12882768 1.1186544 3827369
0.1554175 -0.1278515 1.1124008 3564710
-0.12719947 -0.10490723 1.1237981 3039391
-0.12453922 -0.10696556 1.1275177 3170977
0.15362675 -0.11876155 1.1185129 3565735
0.15581633 -0.1193047 1.1124417 3500198
-0.12688001 -0.096731439 1.1259829 3170977
0.15429455 -0.10976104 1.1178815 3631790
0.15537764 -0.11150472 1.1205065 3434923
-0.12657253 -0.086176097 1.1250385 3302823
0.15449765 -0.098306336 1.1181129 3566513
-0.12611498 -0.076178491 1.1237526 3368614
0.15402669 -0.089018144 1.1182227 3632560
-0.12521316 -0.068512291 1.125107 3565995
0.15326627 -0.078797214 1.1170361 3895728
-0.12153313 -0.053625997 1.1266904 3697842
0.15135178 -0.068732768 1.1156877 4158132
-0.1195232 -0.045400456 1.1254445 3502262
0.15075541 -0.058030773 1.1169721 4027837
-0.11645541 -0.036015481 1.1248251 3698611
0.14655972 -0.046396777 1.1211703 4619197
0.15204793 -0.049728677 1.1154457 4946612
-0.12251692 -0.029268414 1.1212673 7180220
-0.11458693 -0.026670307 1.1282511 4815032
0.1467571 -0.03991393 1.1205375 5209534
0.15133871 -0.038337421 1.1130744 8425655
0.028598692 0.090040497 1.1175137 9474444
-0.064272285 -0.21543084 1.1333946 8300241
-0.082186706 -0.20637621 1.1303449 7642055
-0.074672118 -0.20739412 1.1322526 4815810
-0.068039343 -0.2111637 1.1335329 5210825
-0.090767592 -0.19404876 1.1303121 932767
-0.083918743 -0.19782314 1.1317703 2382238
-0.075386278 -0.2012742 1.1338122 2251168
0.10800984 -0.20655096 1.1283305 6518691
0.11384398 -0.20578831 1.1267326 11319227
-0.092123009 -0.18724585 1.1322619 2447513
-0.086835273 -0.19097686 1.134216 2513045
0.11607987 -0.1976628 1.1270925 4617903
0.12302524 -0.19798806 1.1239353 10929103
-0.10106416 -0.17578906 1.1321859 2971544
-0.095320158 -0.17982814 1.1325361 2774929
0.11856315 -0.1884976 1.1264609 2909086
0.12343685 -0.18776354 1.1239862 3105187
-0.10801584 -0.16225323 1.1310208 2709911
-0.10356724 -0.16753659 1.1332101 2644371
0.12542899 -0.17803304 1.1246028 3368356
-0.10998104 -0.15554838 1.1329396 2775444
-0.10518581 -0.15990356 1.1336191 2709910
0.13033132 -0.16838893 1.1255018 3368613
0.13462245 -0.1656124 1.1237906 3499683
-0.11279976 -0.14683637 1.1327587 2841497
0.13254666 -0.16103874 1.1278824 3237027
0.13731606 -0.15853544 1.1250882 3302821
-0.11820913 -0.13497707 1.1320637 2645144
-0.1147343 -0.13687904 1.1344895 2775964
0.1409194 -0.1487622 1.1258904 3237542
0.14514323 -0.14537111 1.1249369 3106215
-0.11961938 -0.1265077 1.1330414 2907291
0.14275046 -0.1392871 1.1263795 3499683
0.14589483 -0.13744327 1.1247729 3303338
-0.12011262 -0.11655276 1.1340634 3039134
0.14791098 -0.12903792 1.125034 3499947
-0.12465734 -0.10201551 1.1318871 3236770
-0.12260226 -0.10642181 1.1351336 3236770
0.15014181 -0.11862487 1.1254385 3500458
-0.12435528 -0.095542625 1.1319181 3237027
-0.12253024 -0.096008956 1.1358627 3302821
0.15301055 -0.10820041 1.1258854 3632048
-0.12390221 -0.085833304 1.1319644 3302824
-0.12210084 -0.0868067 1.1359068 3302569
0.15169665 -0.099240221 1.1258757 3632047
-0.1239107 -0.076751202 1.1320208 3434408
-0.12090873 -0.074540004 1.135947 3434665
0.14881307 -0.08804559 1.1256667 4026292
-0.12299605 -0.066414654 1.1320574 3631531
-0.12111571 -0.065695629 1.1360078 3631531
0.14925091 -0.080072515 1.1243286 4157366
-0.12269401 -0.059941776 1.1320884 4025255
-0.11924168 -0.054985117 1.1343031 3632304
0.14925137 -0.068268165 1.1239568 4289211
-0.11538412 -0.046160098 1.1336713 3568048
0.14662173 -0.057369236 1.1247691 4094399
0.1487847 -0.061868247 1.126011 4224702
-0.1138464 -0.040171795 1.1319475 3764911
-0.1101358 -0.036036998 1.1343639 3895729
0.14448485 -0.048843235 1.1256735 4487616
-0.11412577 -0.022048071 1.135069 6458567
-0.10939118 -0.026042253 1.1343035 3895996
0.14489783 -0.037808158 1.1246743 5735616
0.15189031 -0.034875102 1.1240845 9477559
-0.11353263 -0.019394726 1.1360682 6852289
-0.11028618 -0.019545749 1.1359708 5933254
0.060800381 0.074234553 1.1274644 9474701
-0.027694894 -0.22765225 1.144238 7248329
0.0050049499 -0.23076293 1.1424469 5801654
0.013052603 -0.23000419 1.1416788 5210039
0.025838695 -0.23123905 1.1426252 6328255
0.033493642 -0.23159519 1.1423956 7379645
0.045042492 -0.23201063 1.1420499 8430007
0.052945741 -0.23058367 1.1378219 8625323
-0.065402456 -0.21772534 1.137416 9678537
-0.05439958 -0.21827026 1.143615 4422071
-0.045063481 -0.21938863 1.1448051 2778029
-0.035399735 -0.2216551 1.144504 2513574
-0.027923273 -0.22471786 1.1442629 2315684
0.0019334415 -0.22683772 1.1433626 2120102
0.013962647 -0.22739732 1.1430018 2185635
0.027136467 -0.22691378 1.1426134 2186146
0.032553233 -0.22826219 1.1424441 2316696
0.047965236 -0.22678632 1.1419953 4486314
0.05547332 -0.22673067 1.1397716 5997746
0.066769265 -0.22429746 1.1403085 6063288
0.075528972 -0.2232444 1.1411982 6589614
0.083611123 -0.22383967 1.1409544 8757678
-0.070274569 -0.20552209 1.1376361 1855898
-0.063583903 -0.20836028 1.1406593 2249885
-0.055899844 -0.21104966 1.1444509 2381985
-0.047859982 -0.21355721 1.1449242 3039902
0.069774725 -0.21738502 1.1414053 2841504
0.075814858 -0.21711782 1.1412275 3302564
0.085432425 -0.21530089 1.139619 4420011
0.095129579 -0.21489698 1.1349503 6984117
0.10461514 -0.21256924 1.1323961 6254993
-0.080890439 -0.19450079 1.1388198 2710418
-0.07322152 -0.19814223 1.1421521 2775447
-0.066528246 -0.20069879 1.1447579 2906776
0.088272512 -0.207536 1.1405163 3171492
0.09675163 -0.20654184 1.1374692 3237285
0.1050072 -0.20569006 1.1329986 3629215
-0.083330952 -0.18745004 1.1429378 2775191
-0.075294025 -0.1913316 1.1452096 2906012
0.099180974 -0.19744703 1.1389872 3040421
0.1060925 -0.19606754 1.1354028 3105703
0.11189133 -0.196576 1.1322787 2777257
-0.09812519 -0.17265177 1.1386664 2710677
-0.091444947 -0.17686839 1.1419729 2709909
-0.085331358 -0.18077701 1.1442389 2709910
0.10773951 -0.18777296 1.1389856 3368100
0.11526596 -0.18626508 1.1343763 3302561
-0.098954223 -0.16607675 1.1418442 2710421
-0.094187737 -0.16917327 1.1457742 2644886
0.11020009 -0.18012379 1.1404341 3040936
0.11831365 -0.17738897 1.138122 3237031
0.12475776 -0.17477065 1.1350323 3368615
-0.10807221 -0.15259093 1.1390858 2776209
-0.1027162 -0.15734905 1.1436495 2841240
0.1208009 -0.16901937 1.1401876 3237287
0.12719893 -0.16706347 1.1348643 3302822
-0.1086266 -0.14592728 1.1436788 2710683
-0.10400821 -0.14945149 1.1463212 2841499
0.12992662 -0.15877628 1.1373903 3237541
0.13490477 -0.15627173 1.1334443 3237798
-0.11033533 -0.13728583 1.1443927 2907293
0.13209453 -0.15011393 1.1399688 3237797
0.13679138 -0.14776243 1.1348414 3303334
-0.11620753 -0.12528357 1.1406394 2907805
-0.11390828 -0.12705752 1.1466202 2907805
0.13914157 -0.13851075 1.1373854 3434407
-0.11622678 -0.11597268 1.142222 3039392
-0.11350865 -0.11730836 1.1474688 3039391
0.14152484 -0.12903801 1.137246 3500202
0.14564413 -0.12628652 1.1317096 3631274
-0.118889 -0.1066803 1.144226 3170979
0.14401574 -0.11888563 1.1393627 3631791
0.14725803 -0.1184393 1.1334887 3566510
-0.11877502 -0.096330144 1.145468 3105957
0.14367639 -0.10773792 1.1382188 3632305
0.14867814 -0.10903987 1.1320593 3501227
-0.1187565 -0.086283483 1.1432427 3237546
0.14361629 -0.098649949 1.1373974 3698099
0.14805891 -0.099212475 1.1322051 3698094
-0.11767279 -0.076576307 1.1435086 3434923
0.1452993 -0.089446954 1.1379499 3895479
0.14726643 -0.091520935 1.131876 3895477
-0.11678854 -0.066151798 1.144166 3566256
0.14612427 -0.078176923 1.139329 4027579
0.14854227 -0.077696957 1.1359252 4157882
-0.11540239 -0.057293154 1.1434228 3567024
0.14451702 -0.068551622 1.138926 4159422
0.14870177 -0.068872049 1.1343741 4289724
-0.11269786 -0.047560874 1.1412054 3567791
-0.10935055 -0.045806084 1.1464527 3764403
0.14323348 -0.05843642 1.1375357 4356797
-0.10737623 -0.036923587 1.1403507 3830196
0.14099376 -0.04873465 1.1367284 4619718
-0.10532785 -0.026116833 1.1426953 3896507
0.13747795 -0.036667846 1.1373965 4817095
0.14187613 -0.037434895 1.1340374 4948420
-0.11246467 -0.01660648 1.1440574 6916535
-0.10502068 -0.017482162 1.143523 5210049
0.13699329 -0.03025724 1.1395625 5013440
0.14139757 -0.030033372 1.1370987 5998788
0.04015103 0.048422925 1.1387808 5859448
0.048284777 0.048130907 1.1366793 6122362
0.053931363 0.047982566 1.1395119 6319482
0.065204598 0.048707016 1.1431834 5330522
0.040894132 0.052847646 1.1372615 5792108
0.048731498 0.05333171 1.1364981 5527648
0.054134861 0.05234348 1.1395328 5067354
-0.02186908 -0.2279101 1.1470646 4354997
-0.014509231 -0.22929063 1.1488384 4684224
-0.0046564844 -0.22944731 1.1470773 4289976
0.006397618 -0.2276547 1.1462263 2054307
0.016787983 -0.2286877 1.1459112 2777510
0.022218883 -0.2300396 1.1457415 4026798
0.038665131 -0.23080468 1.1452481 5604271
0.042579368 -0.22933787 1.1451409 4881326
-0.040338822 -0.21668632 1.1476827 3039902
-0.032429144 -0.21797551 1.1479399 2710943
-0.023978783 -0.22029316 1.1504802 2645152
-0.014148878 -0.22362781 1.1535314 2514339
-0.0042335577 -0.22398275 1.152701 2514851
0.0057408242 -0.2219311 1.1508833 2842787
0.015565953 -0.22195348 1.1483902 2908579
0.025255816 -0.22201121 1.148591 3039651
0.035435028 -0.22319391 1.149393 2908578
0.044804413 -0.22275576 1.1488671 2778020
0.054829888 -0.22154774 1.1462542 2646433
0.064223945 -0.22466525 1.1445266 5012145
0.075676605 -0.22648048 1.1441751 8955830
-0.052949674 -0.20767272 1.1483989 2841242
-0.043157227 -0.21021309 1.1501408 2775960
-0.034164108 -0.21191734 1.1517973 2841500
-0.024760799 -0.21454716 1.1552367 2907551
0.0069222515 -0.21528316 1.1542908 3105184
0.016139632 -0.215343 1.1540165 3170722
0.026075849 -0.2158052 1.1537185 3302053
0.036221839 -0.21572378 1.1534175 3170723
0.046753023 -0.21529126 1.1531073 3105188
0.056057207 -0.21492153 1.151118 3170467
0.065544039 -0.2151344 1.1469473 3236258
0.075776778 -0.21215513 1.1447052 3171236
-0.069020741 -0.19556516 1.1486652 2906776
-0.062570147 -0.19810945 1.1496012 2907033
-0.054069139 -0.19950873 1.1530322 2841497
-0.044922568 -0.20401612 1.1559007 2775704
0.057349302 -0.20951179 1.1528281 3105443
0.066181503 -0.20992266 1.1525631 3105443
0.077095918 -0.20670253 1.1509949 3105956
0.085478745 -0.20420153 1.1472229 3105956
-0.079473048 -0.1840862 1.1490467 2644884
-0.072491579 -0.18799758 1.1518165 2775705
-0.064187646 -0.19127226 1.1542175 2841497
0.081049211 -0.19954534 1.1521854 3172006
0.088776946 -0.19751528 1.1509678 3040421
0.0946666 -0.19542485 1.1483046 2974628
-0.08783491 -0.17490304 1.1493518 2645144
-0.081193633 -0.17699684 1.1522018 2710425
-0.075980291 -0.17997102 1.1535418 2776216
0.098539203 -0.18695709 1.148492 3171493
0.10352122 -0.18494076 1.1452049 3237026
-0.090418562 -0.16676909 1.1520683 2710424
-0.084044136 -0.16929638 1.1558223 2710937
0.10184937 -0.18058881 1.1516844 3302823
0.10826787 -0.17678261 1.1483577 3172005
0.11417649 -0.17390937 1.1473575 3172006
-0.098625749 -0.15498061 1.1497954 2841498
-0.094208688 -0.15773293 1.1545725 2907290
0.11119697 -0.1699547 1.1514722 3303592
0.11755395 -0.1668582 1.1499685 3237544
0.1237008 -0.16275838 1.1431414 3303337
-0.099943124 -0.14646089 1.1516021 2973342
-0.095317923 -0.14983201 1.1577326 3038879
0.12156193 -0.15927573 1.1505632 3237544
0.12592287 -0.15642425 1.1459159 3303336
-0.10743961 -0.13454318 1.1511838 2973342
-0.10139716 -0.13801385 1.155485 2973600
0.12978815 -0.14747441 1.1470568 3368872
-0.10860886 -0.12662382 1.152621 3039392
-0.10305887 -0.12772928 1.1580989 3236259
0.13157913 -0.13811576 1.1488122 3500460
0.13594459 -0.13584621 1.1429437 3434923
-0.10924195 -0.11694361 1.1532358 3170978
0.13306284 -0.12925047 1.1497399 3500719
0.13776797 -0.12695023 1.1462793 3500718
-0.11536109 -0.10546777 1.1505982 3237029
-0.11143983 -0.10705087 1.1564747 3237286
0.1386005 -0.11813574 1.1490822 3697329
-0.1149516 -0.096692659 1.1506402 3237543
-0.11215343 -0.096423037 1.1580622 3172263
0.14022665 -0.10908777 1.1485842 3697843
-0.11471569 -0.087070547 1.153694 3303340
-0.11244515 -0.086126581 1.1586347 3303852
0.14050001 -0.098645411 1.1490408 3764149
-0.11441282 -0.077297285 1.150744 3500716
-0.11139809 -0.076107793 1.1586654 3501229
0.14388105 -0.088347882 1.1475747 3764661
-0.11367197 -0.069270432 1.1507714 3566512
-0.11021648 -0.06602633 1.1550545 3632306
0.14137678 -0.078011431 1.147612 3896764
-0.10916721 -0.056444075 1.1550825 3698357
0.13593422 -0.067717485 1.1500343 4291265
0.13954365 -0.069029003 1.1443926 4225217
-0.10714952 -0.047518708 1.1547137 3764408
0.13714339 -0.058157101 1.1493905 4554434
0.13957876 -0.057967093 1.1433164 4488640
-0.10367519 -0.036960367 1.1554761 3895997
-0.099316157 -0.033975236 1.1585665 4027323
0.13722594 -0.047346741 1.1484542 4817354
-0.10179296 -0.027487136 1.1520103 3962044
-0.097592145 -0.026504114 1.157761 4093118
0.12857668 -0.034614831 1.1517912 5014224
0.13371617 -0.037569933 1.1476184 4751563
-0.10025093 -0.017129824 1.1506945 4290235
-0.095236003 -0.017256491 1.1550802 4158908
-0.088854581 -0.015275694 1.158371 4028609
0.12719059 -0.027495883 1.1500977 4817874
0.13372272 -0.027489536 1.1446791 5145287
-0.092608996 -0.010713369 1.1529082 4487616
-0.086985931 -0.0083293691 1.1570244 4356800
0.1189267 -0.014582083 1.1502006 5276623
0.12500791 -0.017862387 1.1462836 5604813
0.13429941 -0.019506581 1.1446 6720449
-0.084521666 -0.0014565662 1.1583276 5671109
0.11737207 -0.0089451969 1.1517109 5802961
0.12357244 -0.0099837929 1.147423 6787017
0.04216174 0.010360435 1.1546364 12972031
-0.012604441 0.022841692 1.1543398 5869264
0.019637305 0.017680697 1.1553508 7515376
0.027102955 0.016964413 1.1551245 8764660
0.036675088 0.016076379 1.1548346 10146554
0.04325112 0.014737338 1.154631 10870005
-0.070035204 0.03386306 1.1501114 8028800
-0.064901531 0.033990674 1.1499597 7305855
-0.0081079621 0.023767971 1.1562128 5671370
-0.0047958922 0.023613892 1.1561134 5869265
0.018388614 0.022535346 1.1554179 6988787
0.022804711 0.022329904 1.1552854 7185904
0.10933091 0.02715984 1.1527443 6314850
-0.06345012 0.038930915 1.149947 8028802
0.10640458 0.030838065 1.152854 6117979
0.082734898 0.04251235 1.1456256 5593178
0.08492773 0.042410336 1.1455598 5658970
-0.019313375 -0.21778862 1.1590568 2973083
-0.013825951 -0.21915461 1.1588852 2973595
-0.0043714605 -0.21916686 1.1592712 2973598
-0.038737103 -0.20577793 1.159708 2842012
-0.032431737 -0.20745964 1.1595103 2776219
-0.023175059 -0.21038072 1.1607417 2907806
-0.013610383 -0.21221426 1.162081 2907807
-0.0030880924 -0.21324578 1.1619375 2973599
0.0058088135 -0.21130504 1.1590173 3039136
0.016602153 -0.21081913 1.1593665 3170723
0.026551396 -0.21115929 1.1584018 3236770
0.036337242 -0.21115008 1.1574442 3170979
0.045380242 -0.21135718 1.1571742 3170980
0.052104786 -0.21000393 1.1569828 3171236
-0.049401633 -0.19639611 1.1600828 2842012
-0.042765118 -0.19897985 1.1613249 2842011
-0.033240862 -0.20168909 1.1620326 2842012
-0.024987256 -0.20353147 1.1633151 2907805
0.02135849 -0.20708065 1.1619161 3302309
0.027381523 -0.20619741 1.1605992 3302308
0.03598734 -0.20647001 1.1589842 3171236
0.046669088 -0.20752963 1.1571596 3171236
0.057392552 -0.20666151 1.1585137 3105443
0.067270108 -0.20519295 1.1575623 3171492
0.073867582 -0.20361158 1.1563755 3040420
-0.069933191 -0.18433386 1.1607673 2841497
-0.061282605 -0.18749101 1.1610243 2907291
-0.052940458 -0.19053915 1.1621072 2907549
-0.046268024 -0.19204636 1.1640183 2907551
0.070789225 -0.19823493 1.1605021 3040420
0.07782492 -0.19670969 1.1584069 3106213
0.085692935 -0.19446151 1.1560807 3106214
-0.071072698 -0.17779669 1.1628424 2907290
-0.064585283 -0.18098816 1.1641306 2973340
0.082320713 -0.18985519 1.1602111 3302823
0.088397078 -0.18773887 1.1576426 3237030
0.094691887 -0.18462211 1.1576526 3237031
-0.087835334 -0.16350827 1.1614277 2841497
-0.079597212 -0.16737753 1.1616926 2842012
-0.073517486 -0.16991074 1.1639642 2907547
0.10020225 -0.17718157 1.1566797 3368361
0.10540306 -0.17416385 1.1556203 3237285
-0.089036614 -0.15752858 1.1615003 2973085
-0.082195267 -0.15808502 1.1640317 3039135
0.1028145 -0.17015594 1.155722 3368615
0.10950603 -0.16713676 1.1562694 3237799
0.11420308 -0.16402149 1.1554215 3303337
-0.095818765 -0.14425477 1.1617838 2973857
-0.090516306 -0.14804272 1.1631591 3039137
-0.084560551 -0.14921333 1.1654204 3104930
0.11187953 -0.15974516 1.1575178 3172264
0.11818817 -0.15713859 1.1560125 3238059
-0.09659633 -0.13601223 1.1628582 3039650
-0.092699766 -0.13980705 1.1657203 3105700
0.12192042 -0.1475652 1.1574485 3369132
0.12605713 -0.14791226 1.1551687 3434410
-0.098928072 -0.12733482 1.1636957 3171236
0.12421896 -0.13954616 1.1584764 3500719
0.12765789 -0.13739379 1.1571869 3435183
-0.10555238 -0.11492347 1.162254 3302823
-0.10092127 -0.11713342 1.1647706 3171495
0.12888399 -0.1273416 1.1570306 3566514
-0.10685082 -0.10622539 1.1638014 3368873
-0.10318004 -0.10758232 1.1654303 3368875
0.13199385 -0.11827833 1.1559756 3697588
-0.10729493 -0.097134486 1.1650834 3303850
0.13408469 -0.1087781 1.1586018 3763892
0.13723506 -0.10822453 1.1550815 3698099
-0.10819256 -0.086870961 1.1641064 3435181
-0.10229743 -0.087646611 1.1663275 3435438
0.13559173 -0.098713309 1.1591908 3829942
0.13837491 -0.098279677 1.1562524 3764149
-0.10669526 -0.077258714 1.1645213 3501229
0.13621446 -0.085367985 1.1592547 3896505
0.14040461 -0.088438153 1.1569284 3830455
-0.10565195 -0.06743332 1.1640892 3632563
-0.10120763 -0.064292297 1.1664392 3567542
0.13411607 -0.078091756 1.1567893 4027837
0.13913065 -0.08187779 1.1551877 3896505
-0.10443132 -0.057419635 1.1639096 3829940
-0.10089625 -0.057619628 1.1664711 3699127
0.13310164 -0.06842646 1.1581178 4291009
-0.10355649 -0.047305677 1.1634125 3895737
-0.099749483 -0.046686951 1.1665045 4027576
0.13384552 -0.058408089 1.1574906 4422849
-0.10208728 -0.040667035 1.1626093 4158911
-0.097374499 -0.037192658 1.1644917 4093372
0.13422877 -0.048668578 1.157039 4817355
-0.09320727 -0.02797503 1.163963 4093630
-0.08822307 -0.024773449 1.1662973 4094397
0.12730971 -0.037590694 1.1580355 5080014
0.13160183 -0.040986598 1.1556638 4883149
-0.090782151 -0.020459682 1.1623982 4028348
-0.086119391 -0.018123575 1.1637747 4028864
0.12326061 -0.027746066 1.1577719 4949202
-0.082105421 -0.0087086707 1.1640319 4029123
-0.077724002 -0.006686464 1.166097 3963586
0.11767086 -0.017614745 1.1588899 5146069
0.12082297 -0.022158422 1.1561004 5080276
-0.080988593 -0.00092247128 1.1622277 5342665
-0.073657967 0.00086890161 1.1660228 4882633
-0.010119315 0.0016852915 1.16414 6070261
-0.0034495257 0.0013750121 1.1639398 6528744
0.0032202639 0.0010647327 1.1637398 8827627
0.018783106 0.00034074485 1.1632729 10340848
0.027487699 -0.00070106983 1.1630079 8895736
0.034950651 -0.0017488003 1.1627796 6266608
0.10923604 -0.0044196472 1.1595554 5475287
0.11349778 -0.0081316233 1.1577384 5475028
-0.069970071 0.00670439 1.1639483 5999306
-0.063267589 0.0075033009 1.1637541 5540557
-0.054576464 0.01044067 1.162847 5803727
-0.041717499 0.011576109 1.1651399 4950220
-0.032820731 0.010036476 1.164866 5016280
-0.023150073 0.0089767277 1.1641719 5411294
-0.013172437 0.0085078031 1.1620318 5806569
-0.0031493399 0.0080464855 1.1633718 7120874
0.0064776503 0.0083433613 1.1636879 12379901
0.016957043 0.0073430985 1.1608429 13891069
0.026726954 0.006652914 1.1598743 12969723
0.036704533 0.0064218268 1.1604611 9946095
0.046762586 0.0057201684 1.1605608 10013177
0.056565113 0.0071479008 1.1600375 7449069
0.063362189 0.0086691305 1.1619997 5411552
0.10646627 -0.00039040297 1.158162 6526426
-0.039510623 0.016426891 1.1651043 6264275
-0.031964019 0.016892217 1.1623818 5803990
-0.022416143 0.017085977 1.1605986 5345755
-0.012365153 0.017881557 1.1603049 5412839
-0.0027465299 0.018025443 1.1605202 5676266
0.006304739 0.016670763 1.1626011 7253489
0.016059021 0.016044177 1.1604494 8436213
0.025890056 0.013357803 1.1591402 12051453
0.040498689 0.017121054 1.1587294 10082302
0.04829286 0.016017996 1.158491 10607102
0.056725703 0.014779449 1.1582328 7515119
0.063764848 0.013831228 1.1593517 6068200
-0.00028407201 0.023461126 1.1599803 6001365
0.004147239 0.023254983 1.1598474 6396124
0.11674992 0.023792371 1.156505 6447199
-0.0098083895 -0.2085959 1.1668347 3039391
-0.0022051334 -0.20838404 1.1681108 3039135
0.0091540087 -0.20947805 1.1662658 3104930
-0.038288981 -0.19608761 1.1677582 2776478
-0.031904176 -0.19729088 1.169562 2842271
-0.02202758 -0.19940203 1.1714383 2907807
-0.012885524 -0.20169118 1.1716666 2908063
-0.0028884336 -0.20301221 1.1724663 2973600
0.0074492488 -0.20250735 1.1716954 3105187
0.017351966 -0.20261207 1.1704805 3236773
0.027084999 -0.20172076 1.169516 3237029
0.038014349 -0.20231524 1.1692543 3171237
0.047539212 -0.20369807 1.1666617 3171236
0.057101287 -0.20257884 1.1658074 3105444
0.065978184 -0.20149732 1.1646267 3171493
-0.049956493 -0.18668017 1.1713644 2841758
-0.041952461 -0.18936628 1.1719104 2907551
-0.033023 -0.19090304 1.1744604 2842271
-0.022373298 -0.19259413 1.1753106 2908064
-0.015687471 -0.19403112 1.1751031 2973857
0.0056503396 -0.19502378 1.1744629 3105444
0.018549543 -0.19462298 1.1740822 3237030
0.028541811 -0.19550022 1.1729794 3302823
0.038222037 -0.19516769 1.1725707 3171495
0.047622025 -0.19419184 1.171829 3105703
0.057299435 -0.19489996 1.1713283 3105703
0.067058824 -0.19484606 1.1691377 3105702
0.075414628 -0.19271432 1.1661156 3105958
-0.060906373 -0.17845684 1.1701869 2973598
-0.052873723 -0.18057421 1.1742901 2907551
-0.043024041 -0.18290722 1.1759839 2908065
0.069332249 -0.18655339 1.172623 3237288
0.078100294 -0.18623509 1.1699189 3302823
0.086758122 -0.18457849 1.1666863 3237287
-0.069735892 -0.16677114 1.1717319 3105183
-0.06234429 -0.17050856 1.1747513 2974112
-0.054102689 -0.17310262 1.1763736 2842786
0.079978131 -0.17956531 1.1723498 3171750
0.088723883 -0.17635173 1.1707759 3172008
0.096731506 -0.17494604 1.1662112 3303081
-0.077462651 -0.15670794 1.1698321 3104930
-0.071175203 -0.15935294 1.1756318 3170978
0.091637455 -0.16814029 1.172074 3303337
0.099408105 -0.16696952 1.1695992 3368873
0.10630542 -0.16596705 1.1661944 3237543
-0.086626425 -0.14348929 1.172187 3040164
-0.080055103 -0.14756139 1.1730899 3105701
-0.073765576 -0.15229583 1.1770862 3302822
0.10146607 -0.15804562 1.1718442 3303597
0.10884198 -0.15593772 1.1672723 3238059
0.11599898 -0.15320119 1.1654395 3303852
-0.088736214 -0.13705486 1.173401 3106213
-0.080952197 -0.13948205 1.1773789 3172007
0.11028717 -0.14694539 1.1714505 3369387
0.11811219 -0.14705154 1.1674156 3435181
-0.095474407 -0.12648086 1.1712209 3237030
-0.088813692 -0.12748599 1.1753521 3237800
-0.08253742 -0.13124506 1.1774769 3303594
0.11239134 -0.14098881 1.1716249 3500972
0.12089116 -0.13708553 1.1681448 3500976
0.12556222 -0.13437305 1.1632706 3500977
-0.096127808 -0.1171915 1.1730762 3237545
-0.091430083 -0.11909638 1.1769267 3303852
0.12321672 -0.12768057 1.1713853 3566772
0.12639995 -0.12814064 1.167286 3566515
-0.098179653 -0.10737647 1.1733367 3369389
0.12451677 -0.11819714 1.1714052 3763639
0.12777381 -0.11738853 1.1664222 3763639
-0.10436615 -0.093227029 1.1716903 3435181
-0.099077478 -0.097180128 1.1747484 3435438
0.12567529 -0.10715224 1.1714389 3895737
0.13050441 -0.10723192 1.1661161 3764149
-0.10353302 -0.086787269 1.1727724 3435438
-0.09807834 -0.087692611 1.1766682 3501231
0.12593743 -0.10153461 1.1714659 3961530
0.13134016 -0.097776279 1.1661496 3961528
0.13859123 -0.094718993 1.1631283 3895735
-0.10280295 -0.077562481 1.1734079 3501489
-0.098445497 -0.077556655 1.1761622 3501490
0.12677629 -0.083558179 1.1715519 4159679
0.13212042 -0.088465616 1.1666334 3962041
0.13869537 -0.092487171 1.163139 3895735
-0.10295878 -0.070201166 1.1724576 3501747
-0.097929515 -0.067254327 1.1749942 3567541
0.12632468 -0.0771567 1.1716049 4225473
0.12987047 -0.077805266 1.1674936 4159424
-0.095716558 -0.057189364 1.1739235 3764919
0.12648873 -0.068281718 1.1716547 4422597
0.13034073 -0.067727774 1.1675417 4357059
-0.094774231 -0.047449321 1.173784 3896505
-0.08988817 -0.047581654 1.1782116 3962298
0.12685908 -0.057664827 1.1717093 4685767
0.13081099 -0.057650283 1.16759 4422851
-0.092944138 -0.038389876 1.1719562 4027836
-0.087697722 -0.036893044 1.177121 4028094
0.12541786 -0.046982527 1.1696993 4948684
0.1310745 -0.04912049 1.1646335 4751818
-0.090919822 -0.030361801 1.1703448 4093632
-0.085022196 -0.027210645 1.1760379 4094399
0.11922776 -0.036291789 1.1720679 5080784
0.12334173 -0.037528507 1.1671358 5211343
-0.081429116 -0.018919021 1.1744992 4094402
-0.074689515 -0.016178012 1.1769534 4226244
-0.068100549 -0.014816262 1.1777664 4620744
-0.014142072 -0.016200475 1.1761547 5412064
0.0083187837 -0.017245352 1.1754808 6463211
0.016199393 -0.021453507 1.1752207 6397929
0.025902031 -0.021263443 1.1749337 6397929
0.035211891 -0.019783251 1.1746662 6003432
0.11658652 -0.026867934 1.1697034 5081042
0.12148155 -0.030177765 1.164035 5081041
-0.073119938 -0.0084060654 1.171819 4160963
-0.064855054 -0.0078785568 1.1768553 4752075
-0.049660012 -0.005540438 1.1772758 4949201
-0.04294797 -0.0064156651 1.177071 5016022
-0.033453174 -0.0079750568 1.1761123 5213659
-0.023696369 -0.0093313605 1.1752496 5411552
-0.013888951 -0.010572478 1.1753815 5740773
-0.0037725493 -0.011053041 1.1758784 6003172
0.0063219601 -0.011517674 1.1751753 6331366
0.016328782 -0.011945181 1.1722741 6989552
0.02642712 -0.012421072 1.1723714 6792432
0.036479227 -0.012878045 1.1714195 5937640
0.04506382 -0.012372307 1.1734186 5806054
0.055853575 -0.011574939 1.1741035 5674725
0.062644258 -0.010764875 1.1739067 5674983
0.1082903 -0.015421771 1.1725217 5146841
0.11403345 -0.017725855 1.1666199 5080789
-0.069383942 -5.0187111e-005 1.1698921 4554184
-0.065814674 0.000596717 1.1727914 4751049
-0.050483324 0.0001372695 1.1753343 4818129
-0.043075494 -0.00020122528 1.1743118 5015507
-0.033649839 -0.00060970336 1.1706276 5147609
-0.023595685 -0.0010667294 1.1690255 5346018
-0.013909848 -0.0019125044 1.1713448 5937898
-0.0035047047 -0.0031448677 1.1712503 6462952
0.0069442736 -0.0028781667 1.1700522 8303605
0.016269125 -0.0034102276 1.1687555 8501495
0.026041891 -0.0048400164 1.1676428 7252467
0.03738397 -0.0048283488 1.1681454 6069484
0.046594769 -0.0041721687 1.1687374 6135528
0.056765743 -0.0050442889 1.1715273 5741031
0.066197373 -0.0052945912 1.1728344 5543655
0.075752303 -0.0044456497 1.1735562 5477092
0.085863948 -0.0035879761 1.173261 5739747
0.097207494 -0.0043659061 1.1729193 5280481
0.10618192 -0.0073937997 1.1689398 5015513
0.11150215 -0.0096044466 1.1664593 4949463
-0.062378891 0.0063339695 1.1697233 4818122
-0.052913368 0.0068876892 1.1694455 5147606
-0.044203036 0.0072280392 1.1691887 4818639
-0.035608448 0.0050885975 1.1689202 5344472
0.0090350108 0.0035709366 1.1675844 12971007
0.013470715 0.0028054044 1.1674478 12905215
0.038010292 0.001663819 1.1667117 5807584
0.051395513 0.0010411292 1.1663101 6004710
0.057495371 0.0017159432 1.166133 5807083
0.066452719 0.0037676468 1.1680138 5477863
0.074998789 0.0029220581 1.1702892 5542628
0.086752437 -0.00062674284 1.1732529 5673698
0.097352087 0.00084824115 1.1714464 5804766
0.10270553 -0.0013458356 1.1647708 5147865
0.069763213 0.01137004 1.1658281 5412324
-0.0089893509 -0.197285 1.1788857 3039650
-0.0025802888 -0.19822872 1.1786895 3039650
-0.028904347 -0.1884501 1.1795319 2842271
-0.022143269 -0.18876463 1.1793292 2973857
-0.011847096 -0.19034228 1.1802772 2973857
-0.0021540169 -0.192554 1.1812392 3039395
0.0085576028 -0.19111204 1.180181 3171237
0.017894842 -0.19012326 1.1791983 3237030
0.028264504 -0.19005686 1.1793625 3302569
0.036578231 -0.19058399 1.178907 3237546
-0.048055194 -0.17706838 1.1801713 2908065
-0.04053431 -0.17838663 1.1799396 2973857
-0.031917974 -0.18055801 1.1806707 2973857
-0.022241777 -0.18291667 1.1814867 2973858
-0.013944481 -0.1841417 1.1831158 3105444
0.01771372 -0.18561444 1.1821661 3237030
0.02946748 -0.18464978 1.1818229 3302825
0.038397674 -0.1846081 1.18125 3171754
0.048165627 -0.18557329 1.1792607 3171752
0.058495834 -0.18562712 1.1783649 3171753
0.067053869 -0.18290216 1.1777155 3237546
0.075344183 -0.1808722 1.1764812 3303592
-0.058775455 -0.16710104 1.1805513 2908579
-0.050635919 -0.1696616 1.1822945 2908579
-0.040857702 -0.17159238 1.1829016 3105444
-0.032269895 -0.17376702 1.1837244 3105443
0.062231332 -0.1786167 1.1808866 3303339
0.07031893 -0.17671064 1.1793242 3303082
0.078739002 -0.1749815 1.1769884 3237545
0.084779799 -0.17227292 1.1762539 3303850
-0.067264162 -0.15540835 1.1808757 3302822
-0.060795628 -0.16003023 1.1829059 3040165
-0.053803347 -0.16414997 1.1844236 3040167
0.073960103 -0.17009357 1.1805906 3303598
0.080171853 -0.16637859 1.1794875 3238061
0.088761829 -0.16470417 1.177294 3303596
0.09652172 -0.16265114 1.1759645 3369131
-0.076539174 -0.14443226 1.181219 3171751
-0.070250764 -0.14836861 1.1824203 3368615
-0.063451365 -0.15236521 1.184783 3171751
0.098684736 -0.15617667 1.1774409 3369134
-0.078182362 -0.13729469 1.1813118 3369130
-0.072075024 -0.13955535 1.1841178 3434922
0.10030543 -0.14658359 1.1790001 3435183
-0.079464644 -0.1286336 1.1827374 3434923
0.10338874 -0.13962513 1.179104 3501232
0.11026686 -0.13680634 1.1783049 3435694
0.11699325 -0.135359 1.1755246 3501232
-0.087165229 -0.11711802 1.1827037 3369646
-0.081580892 -0.12114392 1.1841804 3435182
0.11446075 -0.12776756 1.1796485 3567282
0.11852007 -0.12741077 1.1773473 3567027
-0.094981208 -0.10403206 1.1820164 3501231
-0.090504758 -0.10818839 1.1846089 3435439
0.11483025 -0.11984961 1.1796864 3829686
0.12000531 -0.11726603 1.17777 3829431
-0.09482339 -0.10065006 1.1820325 3501231
-0.090242893 -0.097627349 1.1835825 3567024
0.12275971 -0.10800605 1.17819 3830201
-0.094165817 -0.086558424 1.1820999 3632818
-0.090915419 -0.087440453 1.1839988 3698612
0.12534894 -0.097501159 1.177511 3896507
-0.09371867 -0.076976106 1.1821458 3633333
-0.089805573 -0.077367559 1.1848284 3764919
0.12564573 -0.087293081 1.1770649 4093886
-0.093759082 -0.068161942 1.1822014 3633334
-0.089588806 -0.06743674 1.1852834 3830201
0.12311663 -0.077543713 1.1779227 4291523
-0.088731408 -0.057156075 1.1837873 3896506
0.12309796 -0.06704399 1.1773657 4619975
-0.08500959 -0.047768135 1.1837823 4028348
0.11783889 -0.055374794 1.1799949 5146320
0.12212747 -0.057792839 1.1788522 4883148
-0.082897946 -0.038434215 1.182348 3962814
-0.077785149 -0.037323881 1.1847756 3963072
0.11721518 -0.046501771 1.1785676 5146577
0.12083774 -0.048284844 1.1764481 5080527
-0.081110671 -0.029434048 1.1820647 4028607
-0.074796543 -0.02798932 1.1840202 4291526
-0.024803562 -0.028334342 1.1844002 5147865
-0.017330719 -0.028455265 1.1841774 5344731
-0.0010071285 -0.028307766 1.1836933 5345501
0.0057767732 -0.028623357 1.1834898 5739743
0.015797585 -0.031317279 1.1818415 5936862
0.024848497 -0.031748191 1.1819034 5871068
0.03512089 -0.031122044 1.1826024 5739228
0.053264074 -0.030832484 1.1820651 5213656
0.11575267 -0.037541799 1.1785663 4949970
-0.072737664 -0.020615868 1.1818702 4422856
-0.064042076 -0.016261496 1.1834577 4686797
-0.053629808 -0.015617326 1.1833342 4884690
-0.043271773 -0.017546244 1.1845152 4950486
-0.032892317 -0.018784985 1.1833655 5213659
-0.024445741 -0.020341784 1.1812375 5279707
-0.014341455 -0.021952309 1.1813275 5345244
-0.0041182749 -0.020793423 1.1809419 5411808
0.0056682434 -0.022362724 1.1804394 5806052
0.014817648 -0.025912896 1.1792361 6068964
0.026819807 -0.026847832 1.1788737 6068963
0.036979921 -0.024941623 1.179507 6003173
0.045529976 -0.023623228 1.1801385 5608417
0.055732265 -0.024110019 1.1804326 5411038
0.062625974 -0.024466448 1.1818262 5279709
0.10730445 -0.024781831 1.1795733 5212630
0.11272276 -0.028620139 1.1776443 5015248
-0.060137466 -0.010751575 1.1815567 4949712
-0.053376392 -0.011066101 1.1813539 4949713
-0.043234773 -0.011537895 1.1810497 5016279
-0.03386192 -0.012350515 1.1807662 5213659
-0.025257831 -0.013503954 1.1805034 5345501
0.047450058 -0.016321473 1.1783257 5871590
0.055927709 -0.016150974 1.1780748 5871847
0.066332772 -0.01440955 1.1797773 5543139
0.073668338 -0.013621837 1.1798501 5280225
0.098203957 -0.014785632 1.1808289 5411294
0.10391524 -0.016454145 1.1781023 5279196
0.076042071 -0.0086133629 1.1775237 5411556
0.085699171 -0.0073679388 1.1772444 5412066
0.096967638 -0.0078921542 1.1769063 5477344
0.1036235 -0.010461345 1.1766927 5213404
-0.00078492984 -0.18805242 1.1867026 3105189
-0.02070052 -0.17865604 1.1883528 3039906
-0.011101058 -0.18124147 1.1884804 3039908
-0.0015785508 -0.18285587 1.1900932 3105447
0.0089740315 -0.18255682 1.187197 3105702
0.018079905 -0.18172644 1.1861812 3171750
0.027071662 -0.18173113 1.1859139 3237289
0.038605992 -0.18040651 1.1855794 3237548
0.048816077 -0.1808815 1.1852731 3171752
0.057891704 -0.18130369 1.1850009 3171752
-0.04780592 -0.16592246 1.1882364 3039909
-0.039975956 -0.167023 1.1888862 3105701
-0.031906269 -0.17005901 1.190285 3105443
-0.022529768 -0.17590171 1.1914256 3040163
0.0082456963 -0.17642042 1.1905079 3105960
0.01968023 -0.1758365 1.1901717 3105958
0.02881092 -0.17474437 1.1891068 3237545
0.039210305 -0.17416078 1.1877062 3237547
0.049237721 -0.17431161 1.1869018 3237544
0.059299722 -0.1745526 1.1866857 3237545
0.068001583 -0.17296222 1.1854188 3303339
-0.058597445 -0.15597996 1.1886183 3172009
-0.050263777 -0.15954681 1.1907498 3105961
-0.040997773 -0.16220385 1.1920588 3171752
0.042882293 -0.16753252 1.1895336 3303337
0.049711838 -0.16785023 1.1893287 3303593
0.059839092 -0.16734317 1.1890309 3303594
0.069117397 -0.16515124 1.1875182 3303596
0.075917959 -0.16394377 1.1845723 3238062
-0.065574184 -0.14712486 1.1888803 3434409
-0.059839658 -0.14917001 1.1915221 3237547
-0.051588744 -0.15193298 1.1924368 3237805
0.070455298 -0.15791023 1.1887738 3238318
0.079841688 -0.15540543 1.1873897 3238572
0.089910686 -0.15565109 1.1854084 3434926
0.096394047 -0.15534213 1.1840171 3369134
-0.067453988 -0.13800147 1.1902238 3435179
-0.061544038 -0.14030015 1.1923598 3369388
0.084816054 -0.14894134 1.1884024 3500977
0.090564631 -0.14566113 1.1872513 3435186
0.095924288 -0.14591771 1.1840892 3500720
-0.075462811 -0.12687369 1.1902995 3566511
-0.069853708 -0.13002476 1.1917808 3566767
-0.062732309 -0.13294755 1.1928852 3500977
0.092397086 -0.13810751 1.1877438 3501234
0.10030636 -0.13601789 1.1847705 3501490
-0.084458493 -0.11326157 1.1896504 3566770
-0.077844761 -0.11817002 1.1920247 3632306
-0.071413264 -0.12341394 1.1932019 3632563
0.10256387 -0.12745816 1.1865952 3699127
0.10999349 -0.12650511 1.1842618 3633076
-0.085375018 -0.10762917 1.1907128 3566770
-0.0793318 -0.10882422 1.1935272 3763892
0.10392034 -0.11844651 1.188023 3633335
0.11061715 -0.11654957 1.1853901 3764407
-0.084983297 -0.097564839 1.1925641 3698868
-0.08063864 -0.098385163 1.1936305 3699126
0.10504743 -0.10651615 1.1880631 3962811
0.11153851 -0.10690103 1.1867007 3830969
0.11915787 -0.10746015 1.1836362 3830714
-0.085746773 -0.087553583 1.1907709 3699126
-0.080425143 -0.088377722 1.1936859 3830712
0.11271665 -0.097007506 1.1872936 4028606
0.12076142 -0.097460575 1.1836503 3962300
-0.084705137 -0.078109518 1.1914754 3830970
-0.079725027 -0.078030623 1.193729 3962813
0.11342803 -0.087975197 1.1879286 4291522
0.12120918 -0.087906621 1.1840597 4094399
-0.084533453 -0.06803821 1.1916468 3962044
-0.079609953 -0.068580158 1.1937839 4093630
0.11550254 -0.077314273 1.1876659 4554438
0.12019559 -0.078260824 1.1837856 4357059
-0.083453737 -0.058032107 1.1912954 4093886
-0.078768536 -0.05753316 1.1938272 4291009
0.11414578 -0.066692233 1.1871493 4686026
0.12006938 -0.067043379 1.1838586 4685769
-0.081545644 -0.050839733 1.1899492 4159935
-0.076351464 -0.04862383 1.1926669 4225985
0.10738553 -0.05641124 1.1883029 5015248
0.11332504 -0.057950538 1.185449 5014991
-0.072904229 -0.038951833 1.1918843 4292037
-0.067587294 -0.041424118 1.1935943 4619977
-0.044503301 -0.035650678 1.192944 5279449
-0.036535501 -0.036021341 1.192705 5016538
-0.024067806 -0.037742559 1.1923239 4950743
-0.014638146 -0.039859504 1.1920307 4950488
-0.005547123 -0.04012578 1.1917589 5147351
0.0049311863 -0.03966222 1.1914505 5278422
0.015349793 -0.04245967 1.1902343 5212886
0.024692718 -0.042226829 1.1890967 5278423
0.034704447 -0.041856699 1.1893017 5147094
0.045607604 -0.042777237 1.1902226 4885460
0.055128805 -0.041711014 1.1892186 4950741
0.064271599 -0.041623909 1.1896752 5016279
0.10631564 -0.046490707 1.1869953 5212370
0.11356928 -0.047973793 1.1841694 5212369
-0.070504189 -0.032088079 1.1917377 4423370
-0.068296969 -0.028990373 1.1912911 4554187
-0.043811157 -0.030653626 1.1926875 5147610
-0.033985138 -0.030372351 1.1906632 5081818
-0.024998894 -0.033067591 1.1903795 5016538
-0.013793971 -0.032151312 1.1901857 5278938
-0.0046733357 -0.031968489 1.1899158 5344730
0.0057082586 -0.033325747 1.1885319 5673948
0.015783273 -0.036031604 1.1871486 5805277
0.024858903 -0.036453806 1.1868763 5541848
0.035121948 -0.035793826 1.1865755 5475544
0.045437947 -0.033998936 1.18628 5213397
0.056068555 -0.035120547 1.1866635 5082070
0.065831624 -0.034800313 1.1880702 5016536
0.07490547 -0.033054046 1.1894121 5213915
0.085683152 -0.032577254 1.1890948 5279453
0.096589163 -0.033541083 1.1887648 5213659
0.10582848 -0.036886167 1.1868689 5212628
0.11237072 -0.037112679 1.1842721 5146833
-0.067742623 -0.023046695 1.1897105 4554443
-0.042473011 -0.022402398 1.1889637 5016281
-0.035254873 -0.023648113 1.1887416 5147611
-0.0042132083 -0.026002109 1.1878047 5411294
0.066712923 -0.024752021 1.1857049 5148123
0.075427905 -0.025162965 1.1856436 5213915
0.085483678 -0.025868177 1.1868802 5213917
0.096243985 -0.026305594 1.1871347 5213659
0.1040978 -0.028396055 1.1849052 5212887
0.09728279 -0.019349694 1.18483 5279708
0.1018206 -0.019560792 1.1846938 5411037
-0.016791178 -0.17693627 1.1962509 3106213
-0.011076115 -0.17720214 1.1960795 3105959
0.00016022474 -0.1783797 1.1957383 3105706
0.010641117 -0.17821243 1.1954279 3105960
-0.027329629 -0.16957009 1.1966095 3105700
-0.019947467 -0.17116892 1.1971307 3105957
-0.01079862 -0.17159453 1.1968561 3106216
-0.0004841052 -0.17219952 1.1973964 3106217
0.010160407 -0.17217797 1.1969087 3171752
0.0180593 -0.17204912 1.196337 3303337
0.029356197 -0.16991515 1.194923 3369130
0.036214262 -0.1702342 1.1947173 3369132
-0.039380334 -0.15778607 1.1973737 3171753
-0.029762039 -0.16066328 1.199458 3171752
-0.019436328 -0.16143726 1.2012274 3172010
-0.010296486 -0.16314846 1.2018957 3172012
-0.00023068115 -0.16320507 1.2023921 3237802
0.010437846 -0.16299562 1.2015307 3303338
0.019632595 -0.16345254 1.2014548 3369133
0.029891908 -0.16368605 1.1994277 3369388
0.040006973 -0.16381662 1.1984355 3303853
0.049272954 -0.16305983 1.1961244 3369643
0.05935809 -0.16271435 1.1943115 3303851
-0.056552239 -0.14529091 1.1976277 3303598
-0.048536219 -0.14850444 1.1990848 3303341
-0.039964214 -0.1506668 1.2022469 3303340
-0.030615935 -0.15256126 1.2048159 3369132
-0.022544889 -0.15482447 1.2045621 3303600
0.010823073 -0.15637675 1.2035611 3303598
0.023479888 -0.15696555 1.2031813 3435186
0.030958915 -0.15731348 1.2029569 3369391
0.040739179 -0.15776846 1.2026635 3369392
0.050655037 -0.15530735 1.2017684 3369390
0.060152933 -0.15465638 1.197904 3435184
0.069488019 -0.15344633 1.1938323 3369392
-0.057152949 -0.13825548 1.1984893 3369646
-0.049998373 -0.1409418 1.2030624 3303853
-0.042826317 -0.14465204 1.2052275 3173034
0.052991167 -0.14726374 1.2023643 3566773
0.061205968 -0.14633082 1.2014591 3566516
0.071003504 -0.1448833 1.1982422 3500977
0.080794714 -0.14597543 1.1952275 3500975
-0.066771537 -0.12582487 1.1980515 3632562
-0.057960898 -0.12933193 1.2007694 3501236
-0.050331436 -0.12989384 1.2050968 3501494
0.07375662 -0.13594376 1.2018172 3698612
0.081226103 -0.13661566 1.1992264 3567283
0.090108596 -0.13456705 1.1962708 3567283
0.097571872 -0.13183308 1.1931312 3501747
-0.073506422 -0.11585252 1.1983131 3895478
-0.067976832 -0.11866683 1.2006326 3698613
-0.059022553 -0.12006688 1.2045265 3633080
0.075503752 -0.12939176 1.2018057 3699128
0.082202181 -0.12650876 1.2016245 3830713
0.091651261 -0.12655281 1.200143 3699126
0.098327897 -0.1254507 1.1931481 3633333
-0.074439205 -0.10778721 1.1983906 3961271
-0.067575477 -0.10859495 1.203184 3896247
-0.060882822 -0.11151086 1.2059685 3764921
0.082419917 -0.1195617 1.2016609 3962300
0.093369879 -0.11755344 1.2008772 3896506
0.10082479 -0.11597057 1.1951334 3764920
-0.075320885 -0.098425314 1.1999753 3830712
-0.068299465 -0.09835656 1.2049361 4093627
0.096850455 -0.10685109 1.2013106 4028352
0.10210604 -0.10645911 1.195821 3962812
-0.075224608 -0.088104688 1.2005364 3962556
-0.068686031 -0.089575998 1.2058911 4028606
0.096809432 -0.096433699 1.2013761 4357317
0.10308417 -0.096893385 1.197185 4225985
0.10853022 -0.093379296 1.193043 4225985
-0.07431376 -0.079128712 1.2005646 4028606
-0.069386631 -0.079583146 1.2064183 4094655
0.097709902 -0.088433251 1.2013987 4554695
0.10350089 -0.08651755 1.1966363 4554182
0.10968353 -0.085029036 1.1930603 4619462
-0.07454405 -0.068445742 1.1991073 4159424
-0.066348545 -0.067873053 1.205169 4160448
-0.059938535 -0.066563845 1.2062179 4554440
0.098793238 -0.075101726 1.2014488 4620747
0.10424244 -0.076362208 1.1990281 4686026
0.11042029 -0.077423409 1.1930853 4619977
-0.073488429 -0.058818471 1.1986645 4291265
-0.065281712 -0.05923694 1.2036706 4357573
-0.059616238 -0.059657153 1.2062509 4751563
0.014532294 -0.060414806 1.204043 4818903
0.022238901 -0.060004242 1.2038167 4819160
0.097349748 -0.066497833 1.2015448 4752590
0.10466897 -0.0671703 1.1990721 4817869
0.10965078 -0.069365703 1.1931579 4752076
-0.071057044 -0.049335517 1.1986508 4291778
-0.064934149 -0.048936013 1.202052 4554440
-0.059240229 -0.051599346 1.2062895 4883149
-0.04046721 -0.04537167 1.2017683 5674209
-0.034733124 -0.04563842 1.2015963 5082331
-0.023463471 -0.049014028 1.2031081 4950745
-0.014312392 -0.051165659 1.2003552 4884953
-0.0051441435 -0.051582057 1.19988 4753366
0.0052559711 -0.050973687 1.2007754 4884692
0.015726414 -0.0530812 1.1996064 4884692
0.024526391 -0.052770596 1.2000021 4884692
0.034836881 -0.052070271 1.2021574 4950484
0.045662321 -0.053516652 1.2000482 4950488
0.054470412 -0.053670935 1.2007794 4950489
0.065160133 -0.052724224 1.2015191 5411037
0.074172281 -0.052902885 1.2023174 5542623
0.08836136 -0.051544148 1.2019042 5213404
0.095993757 -0.054783251 1.2016574 5081558
0.10411415 -0.057392478 1.1989989 5015248
-0.065343983 -0.039123695 1.1985441 4685772
-0.043096736 -0.039699454 1.198971 5542365
-0.034146957 -0.040296625 1.1987534 4951002
-0.025477113 -0.041722465 1.1973436 4884951
-0.016316423 -0.044023879 1.1970571 4753366
-0.0025469158 -0.043518458 1.1966511 4950484
0.0062980875 -0.044216424 1.1963841 5015763
0.036262132 -0.046469856 1.1954798 5015764
0.043120205 -0.046788894 1.1952741 4885461
0.055085927 -0.046363275 1.1949211 4884950
0.06596338 -0.045813382 1.1964483 5082072
0.07546635 -0.045129478 1.1991254 5542624
0.085049331 -0.046745848 1.2012318 5279197
0.095160857 -0.045952741 1.198135 5213144
0.10221141 -0.048773851 1.193506 5212627
0.069836371 -0.038863849 1.1945292 5016538
0.075631469 -0.037414458 1.1943659 5213917
0.085272178 -0.035379976 1.194092 5345245
0.095518984 -0.038172163 1.1944373 5213917
0.18670119 -0.044582818 1.1990252 13158081
-0.0099354498 -0.15826373 1.208168 3303598
0.0027632052 -0.15885447 1.2077872 3303850
-0.037838444 -0.14631732 1.2090709 3303853
-0.028146589 -0.14836773 1.2091275 3304111
-0.018637421 -0.15093967 1.2105781 3303857
-0.009569088 -0.15168974 1.2109491 3303856
0.00084950216 -0.15220706 1.2108864 3369903
0.011221422 -0.15114595 1.2075834 3435441
0.020231983 -0.15247889 1.2073075 3435187
0.03072384 -0.15232879 1.2069966 3500978
0.041236427 -0.15254225 1.2066829 3369649
0.048007526 -0.15123686 1.2064898 3435441
-0.045647867 -0.13846934 1.2093513 3370159
-0.039142065 -0.13954361 1.2091514 3370416
-0.028747601 -0.14030108 1.2110889 3436469
-0.018322075 -0.14112243 1.2135253 3502005
-0.00904865 -0.14155383 1.2132472 3501749
0.0012216046 -0.1455182 1.2129176 3501493
0.011775721 -0.14236645 1.2113729 3567542
0.021078281 -0.14291632 1.2120309 3567541
0.031446412 -0.14325175 1.2105328 3633333
0.041720729 -0.14341712 1.2076628 3567541
0.050310366 -0.14308175 1.2064717 3633079
0.060434148 -0.14136504 1.2061815 3632566
-0.045637459 -0.12998201 1.2094034 3501750
-0.038729526 -0.13058646 1.2116956 3567798
-0.030295921 -0.13153605 1.2139403 3633848
-0.016892327 -0.13537797 1.2135184 3633591
-0.0099372528 -0.13570154 1.2133096 3699128
0.012141242 -0.13556644 1.2126545 3830714
0.022573844 -0.13605177 1.2123415 3764921
0.032102302 -0.13554415 1.2120615 3830712
0.04267446 -0.13511866 1.2113928 3830713
0.051376566 -0.13522153 1.2108239 3830458
0.061643884 -0.13542329 1.2085518 3764409
0.069773816 -0.13425554 1.2065036 3764407
-0.05413536 -0.11870687 1.2097255 3698874
-0.047495127 -0.11971165 1.211773 3764923
-0.0389001 -0.12081801 1.2142621 3765435
-0.032687888 -0.1253456 1.2140496 3699641
0.060819134 -0.12969558 1.2112443 3896252
0.071063131 -0.12568615 1.2083445 3831226
0.078370877 -0.12533408 1.2057475 3830458
-0.05630818 -0.10915437 1.2106389 3896508
-0.04705371 -0.10956877 1.2145737 4028352
-0.039203763 -0.11063126 1.214334 4094143
0.072765678 -0.11584399 1.2074019 4159936
0.08209189 -0.11501317 1.2057006 4028352
0.090178914 -0.11401977 1.2054665 3962559
-0.063861422 -0.099041104 1.2101359 4093628
-0.056949854 -0.099430583 1.2106785 4028352
-0.046615206 -0.10026449 1.2143055 4094401
-0.039821789 -0.098980568 1.2144243 4225986
0.074722536 -0.10676104 1.2096086 4357317
0.083004735 -0.10612281 1.2085421 4225732
0.09176562 -0.10604946 1.2054685 4159938
-0.064396687 -0.089260742 1.2102121 4028609
-0.056191795 -0.089721613 1.2113298 3963330
-0.046766534 -0.090235002 1.2146846 4160708
-0.040500201 -0.093602911 1.2144777 4292035
0.078006521 -0.093304917 1.2109582 4620236
0.083281673 -0.096278131 1.2093936 4488649
0.091605209 -0.097281158 1.2055274 4357318
-0.065073781 -0.078977741 1.2102957 4160449
-0.056383662 -0.079577357 1.2137312 4160708
-0.047070198 -0.080048256 1.2147565 4489161
0.084830984 -0.087065227 1.2097222 4555212
0.093038894 -0.08620093 1.2055532 4620489
-0.15654898 -0.066122577 1.2180953 14082013
-0.063355573 -0.071672186 1.2102897 4226242
-0.055083193 -0.069777012 1.2125568 4620234
-0.047828346 -0.068081118 1.2148529 5079759
-0.013807755 -0.06927637 1.2138346 6791922
-0.0056393966 -0.068494171 1.2135968 5608162
0.0047932053 -0.068979502 1.2132838 5016279
0.014764035 -0.0714719 1.2116079 5608413
0.023312993 -0.070422143 1.2127246 4950485
0.030295119 -0.070165858 1.2125187 5016277
0.088091664 -0.076341167 1.2107633 4752847
0.093889683 -0.076606452 1.2073526 4620747
-0.055385217 -0.060837425 1.2111202 4948687
-0.044943206 -0.064341351 1.2147902 5408980
-0.023321765 -0.062201597 1.212237 6134248
-0.014670195 -0.062124792 1.2114033 5344990
-0.0057466812 -0.062726378 1.2114917 4884696
0.0054053357 -0.063289061 1.211241 4818902
0.015703622 -0.065010361 1.2079818 4818646
0.024890348 -0.064356297 1.2084275 4818646
0.035035677 -0.064393021 1.209162 4884696
0.045131158 -0.064368159 1.2088979 5344733
0.054358184 -0.064776629 1.208264 5936870
0.064174309 -0.064723462 1.210712 5608416
0.073320858 -0.064264514 1.2112768 5082072
0.0859759 -0.065614164 1.207891 5016278
0.092180334 -0.067410663 1.2056947 4884178
-0.02366362 -0.055771444 1.2092086 5082331
0.0051969588 -0.05711405 1.2083428 4687574
0.028285425 -0.058188133 1.2076501 4687574
0.03623227 -0.057896435 1.2074158 4819159
0.043292925 -0.05888629 1.2071998 4950233
0.055991583 -0.059477035 1.2068189 5542369
0.064773776 -0.058599558 1.2065634 5805540
0.0777025 -0.057014752 1.206189 5213659
0.085013844 -0.057354882 1.2059697 5147866
0.093774594 -0.059691481 1.2056949 5081557
0.0015351968 -0.14136842 1.2169356 3633335
-0.025459895 -0.12951252 1.2178109 3699641
-0.017968053 -0.13030998 1.2175833 3765177
-0.0082250517 -0.1309461 1.2189378 3830714
0.0020406721 -0.13238701 1.2198575 3962299
0.012565939 -0.13029459 1.2173432 4028092
0.021323048 -0.13149306 1.2166945 3962300
0.030852463 -0.13157594 1.2168525 3962299
0.040502548 -0.13072836 1.2180667 3962299
