# .PCD v0.7 - Point Cloud Data file format
VERSION 0.7
FIELDS x y z rgba
SIZE 4 4 4 4
TYPE F F F U
COUNT 1 1 1 1
WIDTH 174
HEIGHT 1
VIEWPOINT 0 0 0 1 0 0 0
POINTS 174
DATA ascii
-0.36294016 0.09461692 1.0834248 5134174
-0.35618487 0.093072221 1.083274 5134176
-0.36347008 0.099291392 1.0833969 4871515
-0.37078914 0.07697212 1.0907717 4936281
-0.36032954 0.074521884 1.0905386 5199967
-0.35545108 0.074563541 1.0904197 5397348
-0.37907186 0.083620928 1.0906152 4673880
-0.37138355 0.083144769 1.0885142 4870232
-0.36181018 0.083308198 1.0889976 5068382
-0.35199061 0.083771117 1.0893004 5068384
-0.34415025 0.085391968 1.0900505 4476504
-0.3795872 0.093062937 1.0891782 4607822
-0.37254691 0.093131848 1.0876727 4673623
-0.36155123 0.09247613 1.0874109 5134174
-0.35112795 0.093460046 1.0871489 4739419
-0.34330267 0.09329696 1.0882461 4081746
-0.37980497 0.10145242 1.0907778 4410445
-0.37153617 0.10257196 1.0875658 4213839
-0.36122784 0.10317237 1.08731 4345429
-0.35114911 0.10284536 1.0870676 4016211
-0.34297556 0.10257866 1.0880255 3621193
-0.37096924 0.10801896 1.0875046 3884109
-0.36158866 0.10908096 1.0872672 3752784
-0.35116321 0.10910226 1.0870135 3621192
-0.34386304 0.10807435 1.0868449 3686459
-0.37882772 0.064810783 1.1015052 4673626
-0.37076488 0.063943088 1.0984753 4870741
-0.36159125 0.062855765 1.0984462 5265754
-0.35151878 0.063656904 1.0984617 5397604
-0.34293035 0.066493049 1.1011891 4608350
-0.37998959 0.073784158 1.0975254 4673629
-0.37165943 0.072296478 1.0951684 4870744
-0.36320502 0.070797324 1.0946423 5134174
-0.35086247 0.072905019 1.0949762 5397606
-0.34248009 0.073797077 1.098932 4476760
-0.33619845 0.077913262 1.1009259 4015442
-0.38688999 0.082034282 1.1021229 3883351
-0.38353449 0.082031928 1.0968394 4475995
-0.35000437 0.079430088 1.094246 5068641
-0.34081355 0.082713842 1.0960473 4082513
-0.33475393 0.083946675 1.1003381 3752531
-0.38485014 0.092005916 1.0955842 4079443
-0.33890957 0.091834038 1.0953687 3621705
-0.3342939 0.089528725 1.0983776 3751503
-0.34060639 0.099389538 1.0938437 3490378
-0.36689517 0.04672211 1.1129478 5002588
-0.3636961 0.046728648 1.11287 5528419
-0.37758029 0.056299936 1.1131243 4739163
-0.37039414 0.053416107 1.1100292 5002333
-0.36089867 0.05312911 1.1097451 5397092
-0.35166049 0.055188656 1.1108601 5332066
-0.34558985 0.056365311 1.1123457 4740695
-0.37914315 0.060231145 1.1078763 4082256
-0.37223184 0.059076823 1.1059676 5068120
-0.34927753 0.059671704 1.1074049 5200736
-0.34102076 0.063069269 1.1093116 4345175
-0.33387491 0.065034881 1.1114136 4278096
-0.33843777 0.072533257 1.105886 4147028
-0.33352092 0.072108507 1.1098555 3819087
-0.33381963 0.079601564 1.1060551 3687502
-0.35941443 0.034906879 1.1238725 5528423
-0.35510835 0.035454232 1.123763 5397348
-0.36987394 0.042706314 1.1187239 4804702
-0.3604053 0.042515714 1.1179153 5462626
-0.35093993 0.043198057 1.1202598 5003105
-0.3428359 0.046775278 1.1209651 4804440
-0.37902758 0.052765336 1.1201926 3817824
-0.37315023 0.048999991 1.1160811 4673622
-0.35711211 0.049032766 1.1156908 5660265
-0.34972844 0.050603472 1.1154975 5069150
-0.3406525 0.053453088 1.1172527 4475986
-0.33522004 0.057753563 1.1170831 4014924
-0.33789057 0.059766904 1.1151298 4606547
-0.33214989 0.062215976 1.115469 3620428
-0.36577547 0.028126635 1.1310886 4079956
-0.3592267 0.027134685 1.1286515 5266270
-0.35331416 0.027610211 1.13079 5002845
-0.36871478 0.034273092 1.1291059 4079963
-0.36114621 0.031674284 1.1269438 5330781
-0.35058755 0.033932053 1.128315 5002331
-0.34734482 0.039910201 1.1265364 5001816
-0.3431477 0.042780492 1.1276097 4540755
-0.33872932 0.049647465 1.126242 4213074
-0.35944438 0.017588617 1.1430305 5265766
-0.36081824 0.022038465 1.140167 5068639
-0.3521297 0.023708453 1.1394649 4214103
-0.36913267 0.028253453 1.1351705 1580089
-0.3479377 0.030132951 1.1353055 4145996
-0.34522936 0.035915367 1.1345224 4212054
-0.36579189 0.016549276 1.1461948 3618132
-0.36030057 0.015462441 1.1460707 5199718
-0.35371643 0.016573953 1.145901 4214875
-0.35474342 -0.043178912 1.1624517 528927
-0.3496221 -0.043836433 1.162333 1517876
-0.3501901 -0.053633906 1.1744362 4419983
-0.36537531 -0.046857733 1.1727458 1651559
-0.36000746 -0.046105575 1.1694648 1782104
-0.34794879 -0.048611566 1.1670855 4154236
-0.34270775 -0.04516153 1.1707507 3028033
-0.35696962 -0.039026372 1.1744739 2369321
-0.34923944 -0.039143264 1.1706856 2040105
-0.35702345 -0.019872271 1.1703069 4146252
-0.36482117 -0.051695555 1.1827778 5077683
-0.35803297 -0.054274406 1.1813014 4617364
-0.34860855 -0.054632589 1.1810752 4549258
-0.34338936 -0.049254097 1.178234 6582660
-0.36597443 -0.040272001 1.178705 7695014
-0.35827211 -0.036511574 1.1791518 2040625
-0.35019031 -0.035274204 1.1782776 2172202
-0.34340972 -0.04022589 1.1781558 2760198
-0.35907516 -0.063364595 1.1907424 4683677
-0.35337684 -0.06335295 1.1906036 3831442
-0.36674464 -0.056499265 1.1897259 3299734
-0.35972658 -0.058704853 1.1881713 4683420
-0.35113251 -0.059180662 1.1889122 3960460
-0.36548907 -0.13609496 1.2045362 3829135
-0.35736305 -0.13559648 1.2043343 4223637
-0.35113806 -0.13603272 1.2041867 3960467
-0.3663255 -0.1267184 1.2044749 3498881
-0.35791275 -0.12624691 1.203866 3895695
-0.35005599 -0.12489619 1.2040633 3631246
-0.36631101 -0.11555762 1.2013763 3499128
-0.3590647 -0.11634488 1.2012069 4025235
-0.35022065 -0.11535602 1.202841 3499655
-0.36577335 -0.10619417 1.1992811 3826560
-0.35902405 -0.10622129 1.1996173 4156303
-0.3509976 -0.10673295 1.2019274 3630985
-0.36548096 -0.096652694 1.2021918 3893387
-0.35892388 -0.096338481 1.2004735 4157333
-0.35152531 -0.095801301 1.2023451 3762828
-0.36375389 -0.088154048 1.2040764 3762325
-0.35815209 -0.085606828 1.2002501 4420507
-0.35188034 -0.085741416 1.2024329 3828877
-0.36493707 -0.074328385 1.2039847 4222878
-0.35784629 -0.076183759 1.2000939 4552347
-0.35158363 -0.07656166 1.2028792 3631755
-0.36684024 -0.066467516 1.1983607 3627913
-0.35824361 -0.068181962 1.1960992 4683676
-0.35101575 -0.066854224 1.1988522 3892613
-0.35016307 -0.05899087 1.1954892 3563127
-0.36694258 -0.14589168 1.2100874 3033484
-0.35855332 -0.14684549 1.2122874 2897991
-0.3484965 -0.14602639 1.2115453 3891064
-0.34091213 -0.14524241 1.2130213 2638186
-0.37102491 -0.13682073 1.2086786 666715
-0.36012188 -0.1390447 1.2084328 4813457
-0.34654737 -0.13606878 1.2080767 3499654
-0.33928642 -0.13590561 1.2115842 3561592
-0.37171108 -0.1254258 1.208596 6722
-0.34670019 -0.12653084 1.2079973 3694979
-0.34008491 -0.12624803 1.2098347 3233144
-0.34514749 -0.11612232 1.2078689 3104639
-0.34038913 -0.11607449 1.2109357 2640231
-0.3458629 -0.10641212 1.2078017 2907007
-0.3413949 -0.10648861 1.2122407 3099492
-0.36831394 -0.094202816 1.2082415 4089741
-0.34627438 -0.096825197 1.2080855 3496061
-0.3418529 -0.09565682 1.2126122 4278874
-0.36602047 -0.086105071 1.2081151 2972810
-0.34693408 -0.086468287 1.2090181 3757171
-0.34303185 -0.087532848 1.2125701 3748927
-0.36487764 -0.08032199 1.2080369 3630740
-0.34638676 -0.079128057 1.2075768 3953004
-0.35905156 -0.15304482 1.2175317 984897
-0.34858057 -0.14914104 1.217243 4350584
-0.33832285 -0.12511069 1.2174511 4674411
-0.33834738 -0.11657163 1.2197114 6974583
-0.3401247 -0.10548376 1.2196581 3815753
-0.3719914 -0.094835222 1.2173393 5799072
-0.33938518 -0.095933311 1.2165558 5064001
-0.33789682 -0.13098125 1.2298293 7039097
-0.33815977 -0.12518856 1.2307856 7565430
-0.33888054 -0.11652465 1.2303942 8223350
-0.33929449 -0.10829952 1.2256645 9076613
