# .PCD v0.7 - Point Cloud Data file format
VERSION 0.7
FIELDS x y z rgba
SIZE 4 4 4 4
TYPE F F F U
COUNT 1 1 1 1
WIDTH 1130
HEIGHT 1
VIEWPOINT 0 0 0 1 0 0 0
POINTS 1130
DATA ascii
0.15800294 -0.15550674 1.1058124 12898004
-0.12863612 -0.1410189 1.0968874 2776475
0.15869558 -0.14639872 1.1049082 9087435
0.16468018 -0.14180146 1.1017613 13488846
-0.1306823 -0.13023838 1.0968182 3038106
0.15876909 -0.13573004 1.1041174 4354994
0.16671233 -0.13386311 1.1019721 13752800
-0.13241993 -0.12052582 1.0984045 2973083
0.15889265 -0.12597886 1.1052189 2121388
-0.13688724 -0.10680423 1.0941011 3301280
-0.13369702 -0.11188795 1.0977288 3039132
0.15982543 -0.11789204 1.1032599 2646946
0.17609173 -0.11298496 1.1056398 13817039
-0.13677354 -0.10050936 1.0942268 3366820
-0.13437586 -0.10112049 1.0992842 3105183
0.15832148 -0.10568673 1.1069913 3631271
0.17718154 -0.11090053 1.1057105 13817037
-0.13657141 -0.089318499 1.0944502 3499424
-0.13400434 -0.09046144 1.0983013 3302563
0.15819322 -0.095417723 1.1064284 3369127
-0.13378794 -0.080957726 1.0981921 3434147
0.16025381 -0.085891008 1.1076394 2908578
0.1661057 -0.083333261 1.1059408 8233160
-0.13814482 -0.069670483 1.095647 3365295
-0.1329311 -0.071038827 1.0987552 3499689
0.16122544 -0.076325953 1.1075903 4024485
0.16625771 -0.074917257 1.1061089 11192030
-0.13651071 -0.060864739 1.0980077 2181536
-0.13131647 -0.060843453 1.0993525 3433908
0.16048662 -0.070924163 1.1100293 2708114
-0.13485661 -0.052754674 1.1022136 8233201
-0.13100454 -0.053910989 1.1005824 3564980
0.014595263 0.11642635 1.105639 9935247
0.02032136 0.11722179 1.1058129 9934992
-0.11928713 -0.17073959 1.1090446 929696
-0.1151754 -0.17121558 1.1114579 1984411
0.14715855 -0.17183036 1.1187024 13424882
-0.12006306 -0.16111657 1.1069168 2512540
-0.11556742 -0.16316408 1.1102698 2906513
0.14865614 -0.16588637 1.1164137 8955594
0.15443085 -0.16457936 1.1130413 14080986
-0.12697522 -0.14691675 1.1076025 2381461
-0.12401036 -0.15219191 1.1095203 2776212
0.14908311 -0.15626872 1.1153765 3697834
-0.1273381 -0.14100553 1.1085413 2841752
-0.12537402 -0.14542648 1.111678 2906774
0.1511021 -0.14639921 1.1161047 2646183
-0.12906374 -0.13043243 1.1097238 2907034
-0.12518144 -0.13476367 1.1118909 2775704
0.15180618 -0.13769978 1.1173942 3696546
0.15395719 -0.13319221 1.1169745 3761571
-0.12987232 -0.12093759 1.1084727 2973083
0.15576357 -0.12711236 1.1164758 3368880
-0.13076659 -0.11070192 1.1081026 3039134
0.15628026 -0.11550599 1.1163219 3500454
-0.13074666 -0.10024667 1.1080065 3171232
0.15533367 -0.10707009 1.1174735 3631529
-0.131126 -0.091456719 1.1074667 3302564
0.15413454 -0.096568979 1.1133566 3697839
0.15446396 -0.096886449 1.1163613 3763633
-0.13105047 -0.080919519 1.1084744 3368355
0.15524079 -0.085639983 1.1163158 3436468
0.16960451 -0.082288571 1.1170642 10992842
-0.12852442 -0.070549272 1.1087462 3697068
0.15321399 -0.072745621 1.1207989 3765679
0.15650138 -0.075210407 1.1160209 3830452
0.1693272 -0.078032091 1.1171395 11387079
-0.12722549 -0.062753901 1.1067326 3631022
-0.12497871 -0.059576284 1.1063563 3500456
0.15278292 -0.065763474 1.1180325 3830449
0.15955557 -0.066333309 1.1157277 5207985
0.16594364 -0.067543924 1.1199182 10334913
-0.12730321 -0.050770327 1.1090363 3434161
0.15209155 -0.056814492 1.1179334 3893939
0.15919581 -0.057414524 1.1173162 8428221
-0.1274765 -0.040808637 1.1127989 6194370
-0.12291505 -0.038808368 1.1138217 4421311
0.15010945 -0.044993021 1.1201619 5734064
0.15631254 -0.048803903 1.1213508 10203587
-0.12146207 -0.032168917 1.1139911 6852289
0.14879033 -0.039004851 1.1181316 8955077
0.020767882 0.092914551 1.1203606 9737616
-0.089694381 -0.20824629 1.1197801 7635861
-0.086394079 -0.20885365 1.1225276 8100012
-0.099842444 -0.19819131 1.1223632 10535920
-0.092801876 -0.20095195 1.12015 5996227
-0.086329252 -0.20526448 1.1225994 6394567
-0.1094261 -0.18681824 1.114315 8431615
-0.10255104 -0.18944539 1.1172248 1526185
-0.096527331 -0.1920321 1.1214314 1262491
0.12711398 -0.1934384 1.1287335 11717846
-0.11782315 -0.17810604 1.1142523 7571711
-0.11092679 -0.18053447 1.1159523 1917611
-0.1041023 -0.18325791 1.1198679 2379673
-0.097475402 -0.18638709 1.1226585 2644619
0.12882729 -0.18659726 1.1289141 5010097
0.1362685 -0.18370813 1.1260316 10599906
0.14341344 -0.18261352 1.1253929 14081762
-0.11090605 -0.17175741 1.1187803 2709143
0.13006106 -0.17602003 1.1291542 2909858
0.13682228 -0.17559451 1.1255292 4026283
0.1445144 -0.17585641 1.1220529 12307424
-0.11745623 -0.15779245 1.114658 2775446
-0.1132321 -0.16214281 1.1176009 2775442
0.13821165 -0.1666892 1.1265596 3105445
0.14330733 -0.16585302 1.121714 2578854
-0.11941736 -0.15059969 1.1168989 2775449
-0.11537106 -0.15317088 1.1214762 2906778
0.14067894 -0.15696266 1.1282181 3564451
0.14415887 -0.15596965 1.1243314 3433893
-0.12314331 -0.14187513 1.1181066 2840984
0.14227842 -0.14884079 1.1300213 3565217
0.14624409 -0.14669128 1.1248364 3499430
-0.12764356 -0.129796 1.1149212 2841497
-0.12485974 -0.1317457 1.1209637 2907290
0.14864649 -0.13616018 1.1274426 3237547
-0.12769678 -0.12037066 1.1167042 2973083
-0.12509546 -0.1209892 1.1211666 3038877
0.15187979 -0.12655801 1.1289015 3827369
0.15473056 -0.12542476 1.122817 3564710
-0.12860894 -0.1104099 1.1181308 3039391
-0.12610991 -0.11244673 1.121972 3170977
0.15233564 -0.11647455 1.1289285 3565735
0.15488505 -0.11687167 1.1229877 3500198
-0.12864643 -0.10226007 1.1204325 3170977
0.15278439 -0.1074511 1.1284496 3631790
0.15376359 -0.10920125 1.1311107 3434923
-0.12858316 -0.091687985 1.1196394 3302823
0.15265055 -0.095999531 1.1288356 3566513
-0.12833473 -0.081664436 1.1185074 3368614
0.15191214 -0.086730242 1.129034 3632560
-0.12772894 -0.073996246 1.1200075 3565995
0.1509331 -0.076518312 1.1279333 3895728
-0.12456753 -0.059038382 1.1219871 3697842
0.14881605 -0.06649217 1.1266024 4158132
-0.12272222 -0.050744001 1.1209626 3502262
0.14784507 -0.055829775 1.1279838 4027837
-0.11988992 -0.041270547 1.1206391 3698611
0.14308839 -0.044375744 1.1320775 4619197
0.14898844 -0.047474619 1.1266388 4946612
-0.12592489 -0.03464286 1.1168213 7180220
-0.11848594 -0.031926893 1.124284 4815032
0.14313881 -0.037881635 1.1315383 5209534
0.14809553 -0.036074787 1.124373 8425655
0.02172973 0.088810191 1.123309 9474444
-0.063243851 -0.219289 1.1299688 8300241
-0.08120168 -0.21068737 1.1260011 7642055
-0.073783457 -0.21152544 1.1283276 4815810
-0.067131527 -0.21512924 1.1299423 5210825
-0.090110928 -0.19860086 1.1256262 932767
-0.083253443 -0.20220603 1.1274308 2382238
-0.0747585 -0.20545006 1.1299198 2251168
0.10872521 -0.20561284 1.1349919 6518691
0.1146177 -0.20466787 1.1337439 11319227
-0.091767617 -0.19186592 1.1275792 2447513
-0.086497769 -0.19547758 1.1297892 2513045
0.11659905 -0.19648995 1.1343341 4617903
0.12372082 -0.19657986 1.1315802 10929103
-0.10100932 -0.18065894 1.1271294 2971544
-0.095183261 -0.18454337 1.1277606 2774929
0.1188549 -0.18725203 1.1339619 2909086
0.12384015 -0.18634962 1.1317828 3105187
-0.10826171 -0.16730395 1.1257335 2709911
-0.103799 -0.17249358 1.1281101 2644371
0.12551817 -0.17657778 1.1326351 3368356
-0.11052235 -0.1606833 1.127619 2775444
-0.10565315 -0.16491437 1.1285203 2709910
0.13008665 -0.16681638 1.1339368 3368613
0.13438898 -0.16389923 1.1325116 3499683
-0.11357074 -0.15205027 1.1273844 2841497
0.13195319 -0.15944247 1.1365333 3237027
0.13680278 -0.15677001 1.1340513 3302821
-0.11926372 -0.14033529 1.1265259 2645144
-0.11588176 -0.14217521 1.1291248 2775964
0.14007683 -0.14691384 1.1351826 3237542
0.14425111 -0.14339498 1.1345177 3106215
-0.12096625 -0.13192245 1.1275262 2907291
0.14160866 -0.13739988 1.1358954 3499683
0.14478691 -0.13544796 1.1344967 3303338
-0.12179814 -0.12200022 1.1286423 3039134
0.14654672 -0.12699495 1.134979 3499947
-0.12661861 -0.10756394 1.1263888 3236770
-0.12463004 -0.11195755 1.1296934 3236770
0.14845587 -0.11653134 1.1356422 3500458
-0.1265016 -0.10108628 1.1265181 3237027
-0.12489393 -0.10155797 1.1305556 3302821
0.15099888 -0.1060394 1.1363845 3632048
-0.1263261 -0.0913698 1.1267121 3302824
-0.1247276 -0.092348926 1.1307395 3302569
0.1494354 -0.097119421 1.136411 3632047
-0.12659408 -0.082293056 1.1268814 3434408
-0.12388638 -0.080055922 1.1310021 3434665
0.14625388 -0.086006321 1.1361755 4026292
-0.1259751 -0.071936846 1.1271001 3631531
-0.12434601 -0.071222305 1.1311613 3631531
0.14654276 -0.078006141 1.1349647 4157366
-0.1258581 -0.065459192 1.1272295 4025255
-0.12268005 -0.06044139 1.1297021 3632304
0.1462315 -0.066202149 1.1347412 4289211
-0.11904309 -0.051505774 1.1294049 3568048
0.14325301 -0.055392064 1.1355363 4094399
0.14546709 -0.059847083 1.1368449 4224702
-0.11757841 -0.045453783 1.127848 3764911
-0.11413101 -0.041253205 1.1305265 3895729
0.14082795 -0.046941541 1.1364222 4487616
-0.11854807 -0.02739042 1.1311746 6458567
-0.11366647 -0.031241931 1.1306342 3895996
0.14098613 -0.035886288 1.1355866 5735616
0.14791541 -0.032754362 1.135439 9477559
-0.11808846 -0.024736151 1.1322395 6852289
-0.11483882 -0.02479662 1.1323282 5933254
0.053739324 0.073755249 1.1349076 9474701
-0.027019989 -0.23065357 1.1427565 7248329
0.0058034817 -0.23283996 1.1428214 5801654
0.013857355 -0.23184977 1.1425297 5210039
0.026597645 -0.23274647 1.1441989 6328255
0.034260131 -0.23288904 1.144408 7379645
0.045816872 -0.23298241 1.1447259 8430007
0.053906668 -0.23127952 1.1409805 8625323
-0.064538114 -0.22167018 1.133889 9678537
-0.053898782 -0.2220003 1.1407069 4422071
-0.044618703 -0.22287868 1.142421 2778029
-0.034893528 -0.22487454 1.1426512 2513574
-0.027332135 -0.22772719 1.1428049 2315684
0.0025748694 -0.22901382 1.143607 2120102
0.014615919 -0.22923785 1.1439357 2185635
0.027771387 -0.22838745 1.1443162 2186146
0.033224814 -0.22958413 1.1444438 2316696
0.048589338 -0.2276796 1.1449058 4486314
0.056208268 -0.2273865 1.1431211 5997746
0.067381509 -0.22465199 1.144341 6063288
0.076042384 -0.22337152 1.1457491 6589614
0.084138758 -0.2237412 1.1459658 8757678
-0.069757231 -0.20960957 1.1339794 1855898
-0.063173994 -0.21230544 1.137349 2249885
-0.055647776 -0.21483612 1.1415448 2381985
-0.047580861 -0.21712849 1.142451 3039902
0.070122704 -0.21767581 1.1456962 2841504
0.076153122 -0.21724042 1.1458715 3302564
0.085792139 -0.21513766 1.1448449 4420011
0.095726356 -0.21440187 1.1407505 6984117
0.1052736 -0.21177882 1.1387787 6254993
-0.080730356 -0.19890164 1.1346848 2710418
-0.073165968 -0.20237786 1.1384094 2775447
-0.066564076 -0.20478626 1.1413658 2906776
0.088355705 -0.20731117 1.1460021 3171492
0.096964531 -0.20604175 1.1434633 3237285
0.1054361 -0.20490067 1.1394888 3629215
-0.083601512 -0.19197935 1.1387424 2775191
-0.075602151 -0.1956705 1.1414267 2906012
0.099044994 -0.196906 1.1452329 3040421
0.10610945 -0.19528687 1.142072 3105703
0.11209031 -0.19559181 1.1392823 2777257
-0.098537438 -0.17753392 1.1338079 2710677
-0.091941997 -0.18161184 1.1374424 2709909
-0.085860915 -0.18538278 1.1400092 2709910
0.10731307 -0.1870016 1.1458476 3368100
0.11504649 -0.18522277 1.1417006 3302561
-0.099732965 -0.17102966 1.1370143 2710421
-0.095114805 -0.17404932 1.1411744 2644886
0.1094695 -0.17930898 1.1475315 3040936
0.11762214 -0.17632011 1.145727 3237031
0.12415675 -0.17348254 1.1430483 3368615
-0.10905422 -0.15776162 1.1339018 2776209
-0.10383727 -0.16243486 1.1387079 2841240
0.11974937 -0.16791537 1.1480377 3237287
0.12638509 -0.16570967 1.1431184 3302822
-0.11005952 -0.15118118 1.1385381 2710683
-0.10550306 -0.15461424 1.1413989 2841499
0.12872812 -0.1573872 1.1459012 3237541
0.13385223 -0.15469149 1.1422815 3237798
-0.11204963 -0.14260083 1.1392599 2907293
0.13049895 -0.14870584 1.1487091 3237797
0.13541453 -0.14615418 1.1438917 3303334
-0.1180327 -0.13071249 1.1353236 2907805
-0.11603189 -0.13250691 1.1414046 2907805
0.13735262 -0.1368783 1.146683 3434407
-0.11840562 -0.12142891 1.1370188 3039392
-0.11595698 -0.1227634 1.1423969 3039391
0.13947171 -0.12734269 1.1468002 3500202
0.14382315 -0.1244013 1.1415461 3631274
-0.12143976 -0.11224231 1.1389813 3170979
0.14154933 -0.11715665 1.1491842 3631791
0.14511004 -0.11653863 1.1435136 3566510
-0.12168946 -0.10191148 1.1403573 3105957
0.14096186 -0.10600741 1.148162 3632305
0.14634416 -0.10708453 1.1422865 3501227
-0.12182655 -0.091837689 1.1382625 3237546
0.14069268 -0.096913837 1.1474524 3698099
0.14544052 -0.09728086 1.1425191 3698094
-0.12103427 -0.082109146 1.1387122 3434923
0.1420808 -0.087676823 1.1482164 3895479
0.14445156 -0.0896101 1.1422409 3895477
-0.12048379 -0.071674615 1.1395499 3566256
0.14250676 -0.076408975 1.1497816 4027579
0.14510192 -0.075814828 1.1465297 4157882
-0.11930775 -0.062771648 1.138999 3567024
0.14065439 -0.066826686 1.1494068 4159422
0.14510125 -0.06696786 1.145101 4289724
-0.1167559 -0.052938472 1.1370637 3567791
-0.11376662 -0.051166695 1.1425173 3764403
0.13916795 -0.056731921 1.1480712 4356797
-0.11169625 -0.042148124 1.1366514 3830196
0.13670549 -0.047084853 1.147257 4619718
-0.11009178 -0.031323373 1.1392455 3896507
0.13281798 -0.035129733 1.1478714 4817095
0.13742188 -0.035728283 1.144763 4948420
-0.11756062 -0.022032678 1.1403112 6916535
-0.11007646 -0.02269607 1.1401975 5210049
0.13202892 -0.028766058 1.1500858 5013440
0.13655947 -0.02838663 1.1478838 5998788
0.033210196 0.047229409 1.1446867 5859448
0.041456286 0.047190458 1.1430558 6122362
0.046932634 0.047157213 1.1462083 6319482
0.057951249 0.048138931 1.1505346 5330522
0.033914249 0.051693887 1.1432685 5792108
0.041765761 0.052403599 1.1429658 5527648
0.047011461 0.051521346 1.1462955 5067354
-0.021361336 -0.2307913 1.1459119 4354997
-0.014079598 -0.23199418 1.1480911 4684224
-0.0041414229 -0.23185547 1.1469012 4289976
0.0068883263 -0.22974828 1.1467136 2054307
0.017304627 -0.23049113 1.1469873 2777510
0.022772284 -0.23169093 1.1471152 4026798
0.039234728 -0.23199725 1.1475646 5604271
0.043105707 -0.23042218 1.1477023 4881326
-0.040145408 -0.22008857 1.1456008 3039902
-0.032230373 -0.22116366 1.146299 2710943
-0.023877986 -0.2232841 1.1492947 2645152
-0.014149551 -0.22639038 1.1528677 2514339
-0.0041968329 -0.22646129 1.1526079 2514851
0.0058036735 -0.22411117 1.151396 2842787
0.01575258 -0.22382866 1.1494755 2908579
0.025412638 -0.22362322 1.1502359 3039651
0.035558235 -0.22453725 1.1516105 2908578
0.044926252 -0.22383469 1.1516331 2778020
0.055047266 -0.22231519 1.1496199 2646433
0.064609319 -0.22514898 1.1483998 5012145
0.076109901 -0.22664404 1.1486888 8955830
-0.053025886 -0.21143553 1.1456988 2841242
-0.043281991 -0.21373048 1.1479725 2775960
-0.034354463 -0.21521044 1.150125 2841500
-0.025093954 -0.21762943 1.1540695 2907551
0.0065992125 -0.21748203 1.1549491 3105184
0.015815128 -0.21728498 1.1552079 3170722
0.025761131 -0.21747002 1.1554793 3302053
0.035901297 -0.21710588 1.155767 3170723
0.046416491 -0.21638012 1.1560719 3105188
0.055805501 -0.21572711 1.1546291 3170467
0.065518618 -0.21562061 1.1510118 3236258
0.075775169 -0.21233022 1.149403 3171236
-0.069420926 -0.19977862 1.1451863 2906776
-0.062965587 -0.20215786 1.1464621 2907033
-0.054639772 -0.20337155 1.1503614 2841497
-0.045549683 -0.2076662 1.1536977 2775704
0.056843996 -0.21030858 1.1564785 3105443
0.065684892 -0.21047309 1.1567199 3105443
0.076576181 -0.20693278 1.1558262 3105956
0.085088067 -0.20414963 1.1525769 3105956
-0.080197625 -0.18859743 1.145106 2644884
-0.073279329 -0.1923544 1.1482259 2775705
-0.065038048 -0.19543348 1.1510621 2841497
0.080250978 -0.19968727 1.1573328 3172006
0.087975554 -0.19742888 1.1565899 3040421
0.093947232 -0.19514021 1.1542982 2974628
-0.088818982 -0.17965248 1.1450416 2645144
-0.082296081 -0.18160319 1.1482446 2710425
-0.077086553 -0.18445179 1.1498468 2776216
0.097562164 -0.18657282 1.1548151 3171493
0.10266602 -0.1843743 1.1518472 3237026
-0.091783002 -0.17163166 1.1477056 2710424
-0.085566133 -0.17403576 1.1517901 2710937
0.10050233 -0.18016177 1.1582731 3302823
0.10699148 -0.17613424 1.1553713 3172005
0.1128644 -0.17308606 1.1547505 3172006
-0.10017533 -0.160042 1.1451093 2841498
-0.095964275 -0.16273919 1.1500992 2907290
0.10954288 -0.16927314 1.1587352 3303592
0.11588585 -0.1659824 1.1576406 3237544
0.12229686 -0.16161945 1.1512324 3303337
-0.10183427 -0.15158801 1.1469433 2973342
-0.097475834 -0.15491708 1.1532884 3038879
0.11963747 -0.15830192 1.1585609 3237544
0.12417614 -0.15526651 1.1542096 3303336
-0.10962762 -0.13987583 1.1462411 2973342
-0.10374688 -0.14323969 1.1508408 2973600
0.12771536 -0.14623094 1.1556841 3368872
-0.11110056 -0.13201264 1.1477071 3039392
-0.10584565 -0.13304253 1.1534827 3236259
0.12913769 -0.13685237 1.157657 3500460
0.1337675 -0.13438123 1.1520799 3434923
-0.11204083 -0.12236309 1.1484052 3170978
0.13031487 -0.12796365 1.1587799 3500719
0.13514437 -0.12548652 1.1556264 3500718
-0.11831962 -0.11102346 1.1455617 3237029
-0.11469954 -0.11258109 1.1516351 3237286
0.13556533 -0.11669293 1.1585828 3697329
-0.118161 -0.10224187 1.1457371 3237543
-0.11580283 -0.10200032 1.1533114 3172263
0.13696145 -0.1075976 1.1582929 3697843
-0.11837263 -0.092660971 1.1489196 3303340
-0.1164174 -0.09172485 1.1539947 3303852
0.13691336 -0.097159162 1.158895 3764149
-0.11817659 -0.08284241 1.1461143 3500716
-0.11565695 -0.081682533 1.1542112 3501229
0.14008117 -0.086753041 1.1577559 3764661
-0.11766533 -0.074799433 1.1462851 3566512
-0.11455467 -0.071522482 1.1508011 3632306
0.13728821 -0.076490775 1.1577775 3896764
-0.11377954 -0.061916377 1.1510096 3698357
0.13142711 -0.066385321 1.1600095 4291265
0.13539046 -0.067517512 1.1545701 4225217
-0.11199666 -0.052934676 1.1508698 3764408
0.13240105 -0.056787211 1.1595563 4554434
0.1351752 -0.056444719 1.1536362 4488640
-0.10887122 -0.042296752 1.1519639 3895997
-0.10478301 -0.039237011 1.1553384 4027323
0.1322322 -0.045966521 1.1587616 4817354
-0.10706094 -0.032727458 1.1487316 3962044
-0.10322706 -0.031710744 1.1547275 4093118
0.12304959 -0.033525184 1.1617516 5014224
0.1285018 -0.036278911 1.1578465 4751563
-0.10573869 -0.022314183 1.1476368 4290235
-0.10098259 -0.022365026 1.1523033 4158908
-0.094859332 -0.020256445 1.1559824 4028609
0.12156282 -0.026423782 1.1600699 4817874
0.12839286 -0.026161656 1.1550387 5145287
-0.098420754 -0.01572226 1.1503689 4487616
-0.093113124 -0.013243139 1.1548332 4356800
0.11294558 -0.013744414 1.1598561 5276623
0.11933203 -0.016800947 1.1562568 5604813
0.12874764 -0.018165551 1.1550931 6720449
-0.090922743 -0.0063243508 1.1563625 5671109
0.11114828 -0.0081742033 1.1613442 5802961
0.11761169 -0.008981593 1.1574097 6787017
0.035379376 0.0090164766 1.1601548 12972031
-0.019609541 0.019992679 1.1568463 5869264
0.012653544 0.015704893 1.1596564 7515376
0.020137087 0.015197068 1.1598535 8764660
0.029731296 0.014576286 1.1601068 10146554
0.036343325 0.013421275 1.1602672 10870005
-0.076990366 0.029492036 1.1494406 8028800
-0.071862109 0.029762641 1.1495878 7305855
-0.015256097 0.021015517 1.1589878 5671370
-0.011940765 0.020953827 1.1590782 5869265
0.011266574 0.020522006 1.1597118 6988787
0.015687019 0.020439751 1.1598325 7185904
0.10204542 0.027678326 1.1623621 6314850
-0.070552342 0.034740567 1.1497209 8028802
0.09901499 0.031272918 1.1623483 6117979
0.075479984 0.042393938 1.1539092 5593178
0.077674977 0.042353094 1.1539692 5658970
-0.019785836 -0.22077373 1.1581575 2973083
-0.014261271 -0.22198603 1.1582867 2973595
-0.0048480248 -0.22174421 1.1592188 2973598
-0.039546043 -0.20931111 1.1578341 2842012
-0.033194803 -0.21081617 1.1579804 2776219
-0.023945481 -0.21349913 1.1597087 2907806
-0.014425687 -0.21508816 1.1615762 2907807
-0.0038876394 -0.21582833 1.1620288 2973599
0.0051041101 -0.21360311 1.1596526 3039136
0.01584151 -0.21282607 1.1606318 3170723
0.025835384 -0.21287936 1.1602402 3236770
0.035655934 -0.21258804 1.1598505 3170979
0.044701736 -0.212543 1.1601015 3170980
0.051385298 -0.21100309 1.1603163 3171236
-0.050474964 -0.20023179 1.1577085 2842012
-0.043850567 -0.20264965 1.1593001 2842011
-0.034310088 -0.20510617 1.1605237 2842012
-0.026095156 -0.20673922 1.1622585 2907805
0.020336032 -0.20899481 1.1634989 3302309
0.026397478 -0.20792806 1.1625438 3302308
0.03508617 -0.20794152 1.1614259 3171236
0.045880776 -0.20868167 1.1602093 3171236
0.056479897 -0.20753872 1.1621923 3105443
0.06635043 -0.20578632 1.1618325 3171492
0.072957955 -0.20400786 1.1610492 3040420
-0.071344092 -0.18874854 1.1573548 2841497
-0.062636949 -0.19167036 1.1580725 2907291
-0.054288164 -0.19450334 1.159598 2907549
-0.047696754 -0.19585365 1.1618729 2907551
0.069497004 -0.1987765 1.1650577 3040420
0.076595657 -0.19702931 1.1633922 3106213
0.084517799 -0.19453338 1.1615535 3106214
-0.072785012 -0.18227503 1.1594422 2907290
-0.066294909 -0.18530509 1.1610636 2973340
0.080785073 -0.19008011 1.1655391 3302823
0.086936906 -0.18776175 1.1633531 3237030
0.093130261 -0.18447384 1.1637664 3237031
-0.089835107 -0.16843358 1.1572388 2841497
-0.081519939 -0.17207859 1.1579316 2842012
-0.075511783 -0.17447579 1.1605191 2907547
0.098475292 -0.17687187 1.1632071 3368361
0.10364117 -0.17369787 1.1624881 3237285
-0.091206826 -0.16249073 1.1573167 2973085
-0.084509328 -0.16289483 1.1602324 3039135
0.10093899 -0.16976437 1.1624899 3368615
0.10750014 -0.16657066 1.1634613 3237799
0.11214838 -0.16331598 1.1629255 3303337
-0.09836591 -0.14941342 1.1573732 2973857
-0.093046509 -0.15307343 1.1590055 3039137
-0.087199934 -0.15411191 1.1615928 3104930
0.10958842 -0.15913504 1.1649373 3172264
0.11589709 -0.15633531 1.1638322 3238059
-0.099436216 -0.1412113 1.1585039 3039650
-0.095605113 -0.14493775 1.161539 3105700
0.11926898 -0.1466843 1.1656014 3369132
0.12353806 -0.14688548 1.1635605 3434410
-0.10205618 -0.13261385 1.1593134 3171236
0.12127745 -0.13862048 1.1668606 3500719
0.12472272 -0.13635655 1.1657994 3435183
-0.10893424 -0.12036991 1.1576463 3302823
-0.10439493 -0.12248719 1.1603988 3171495
0.12567163 -0.12627329 1.1658399 3566514
-0.11056441 -0.11173344 1.1592247 3368873
-0.1069565 -0.11301196 1.161046 3368875
0.12858002 -0.11711409 1.16508 3697588
-0.11133783 -0.10267716 1.1605924 3303850
0.13024752 -0.10759806 1.1679415 3763892
0.13357818 -0.10690859 1.1646165 3698099
-0.11246706 -0.09242937 1.1596935 3435181
-0.10668982 -0.09307418 1.1622421 3435438
0.13143361 -0.097505003 1.1687424 3829942
0.13436775 -0.096953712 1.1659756 3764149
-0.11126792 -0.082786463 1.1603146 3501229
0.13167481 -0.084149845 1.1690092 3896505
0.1360767 -0.087070704 1.166891 3830455
-0.11047916 -0.072931007 1.1600665 3632563
-0.10626768 -0.069702655 1.1627088 3567542
0.12951712 -0.076899886 1.1665177 4027837
0.13472033 -0.080523871 1.1651617 3896505
-0.10953327 -0.062886052 1.1600829 3829940
-0.10614707 -0.063025072 1.162842 3699127
0.12815569 -0.067285791 1.167906 4291009
-0.10891705 -0.052745886 1.1597638 3895737
-0.10531306 -0.052066591 1.1630785 4027576
0.1286514 -0.057242919 1.1674483 4422849
-0.10759202 -0.04605874 1.1591302 4158911
-0.10309515 -0.042483222 1.1613253 4093372
0.12878498 -0.047491156 1.1671416 4817355
-0.099166192 -0.033148132 1.1611539 4093630
-0.094416745 -0.029844217 1.1638125 4094397
0.12151025 -0.036622524 1.1678746 5080014
0.12602572 -0.039865531 1.1657128 4883149
-0.096868157 -0.025547713 1.1598262 4028348
-0.092360012 -0.023104161 1.1614993 4028864
0.11720682 -0.026890025 1.1675003 4949202
-0.088634729 -0.013587192 1.1621059 4029123
-0.084438086 -0.011474833 1.1644462 3963586
0.11127841 -0.016932741 1.1684195 5146069
0.11471263 -0.021348365 1.1657604 5080276
-0.087636203 -0.0057485849 1.160467 5342665
-0.080589324 -0.0038104057 1.1647018 4882633
-0.017095882 -0.0012237355 1.1665086 6070261
-0.010419522 -0.0013479665 1.1666907 6528744
-0.0037431652 -0.0014721975 1.166873 8827627
0.011835002 -0.0017620623 1.1672983 10340848
0.020566365 -0.0025606975 1.1675242 8895736
0.028056685 -0.0033998638 1.1677151 6266608
0.10245031 -0.0039848462 1.1687609 5475287
0.10691248 -0.0075524375 1.1671473 5475028
-0.076954417 0.002152808 1.1629174 5999306
-0.070277058 0.0031380579 1.1631212 5540557
-0.061634511 0.0063253939 1.1627554 5803727
-0.048965778 0.0077809095 1.1658022 4950220
-0.040028092 0.0064900815 1.1660243 5016280
-0.030307479 0.0057060868 1.1658777 5411294
-0.020214066 0.0055414736 1.1643127 5806569
-0.010275555 0.0053365901 1.1662246 7120874
-0.00069486815 0.0058931112 1.1671008 12379901
0.0099547813 0.0052211434 1.1648545 13891069
0.019779788 0.0048131272 1.1644442 12969723
0.029709682 0.0048477426 1.1656044 9946095
0.039761156 0.0044210926 1.1662771 10013177
0.049533367 0.0061246157 1.1663395 7449069
0.056160759 0.0078039914 1.1687106 5411552
0.099652626 -1.3887882e-005 1.1672601 6526426
-0.046898264 0.012690455 1.1659551 6264275
-0.039223786 0.013401136 1.1636797 5803990
-0.029598467 0.013882048 1.1624545 5345755
-0.019573677 0.014957286 1.1627527 5412839
-0.0099912314 0.015362084 1.1635259 5676266
-0.0010399288 0.014227137 1.1661099 7253489
0.0088356975 0.013898976 1.1645186 8436213
0.018797612 0.011502206 1.1637468 12051453
0.033293687 0.015670456 1.164229 10082302
0.041116692 0.014785238 1.1644281 10607102
0.049582016 0.013782389 1.1646428 7515119
0.056569152 0.013012052 1.1661551 6068200
-0.0076561766 0.020870395 1.1631975 6001365
-0.0032205014 0.020787857 1.1633186 6396124
0.10932804 0.02446302 1.1665033 6447199
-0.011006863 -0.21143427 1.1665868 3039391
-0.0034985403 -0.21103182 1.1683031 3039135
0.0079742111 -0.21178745 1.167105 3104930
-0.039835036 -0.19972673 1.1660173 2776478
-0.033533067 -0.20077962 1.1681722 2842271
-0.023725029 -0.20264515 1.1705903 2907807
-0.014550268 -0.20468548 1.1713184 2908063
-0.0045823855 -0.20574275 1.1726786 2973600
0.0057641491 -0.20494351 1.1725134 3105187
0.015719332 -0.20475921 1.1718723 3236773
0.025462676 -0.20358753 1.1714838 3237029
0.036401413 -0.20387803 1.1718473 3171237
0.046094783 -0.20496218 1.1697931 3171236
0.055654757 -0.20356894 1.1695074 3105444
0.064550787 -0.20222762 1.168856 3171493
-0.051951356 -0.19069493 1.1690598 2841758
-0.04391934 -0.19316776 1.1700343 2907551
-0.035111427 -0.19449466 1.1730772 2842271
-0.024484735 -0.19590461 1.1745209 2908064
-0.01776015 -0.19715449 1.1746826 2973857
0.0035986733 -0.19755191 1.1752657 3105444
0.016481983 -0.19679186 1.1756368 3237030
0.026541881 -0.19737886 1.1751032 3302823
0.036216356 -0.196775 1.1752594 3171495
0.045612149 -0.19553111 1.1750749 3105703
0.055318452 -0.19596618 1.1751262 3105703
0.065182216 -0.19561353 1.1735047 3105702
0.073634438 -0.19321078 1.170998 3105958
-0.06304311 -0.18275948 1.1673536 2973598
-0.055203065 -0.18471324 1.1718879 2907551
-0.045405138 -0.18679868 1.1741195 2908065
0.067016624 -0.18731159 1.1772192 3237288
0.075913139 -0.18671459 1.1750311 3302823
0.08469227 -0.18477552 1.1723257 3237287
-0.072273076 -0.17134351 1.1685314 3105183
-0.064964734 -0.17491886 1.1719263 2974112
-0.05676011 -0.17730835 1.1739901 2842786
0.077459171 -0.18003076 1.1776497 3171750
0.086186782 -0.17655641 1.1766247 3172008
0.094400689 -0.1748672 1.172549 3303081
-0.080158733 -0.16147038 1.1663138 3104930
-0.074142933 -0.16402338 1.1724339 3170978
0.088788033 -0.16828725 1.1781918 3303337
0.096651964 -0.16686881 1.1761856 3368873
0.10370255 -0.16562945 1.1731983 3237543
-0.089812048 -0.14854279 1.1682996 3040164
-0.083191209 -0.15244532 1.1695302 3105701
-0.077010728 -0.15706128 1.1738242 3302822
0.09832485 -0.15792435 1.1786573 3303597
0.10588894 -0.15555046 1.1745466 3238059
0.11305939 -0.15259293 1.1731652 3303852
-0.092168853 -0.14218649 1.1694698 3106213
-0.084560998 -0.14445499 1.1738608 3172007
0.10683725 -0.14658171 1.1789135 3369387
0.11488114 -0.14641607 1.175337 3435181
-0.09906628 -0.13177171 1.1670359 3237030
-0.092628345 -0.13265184 1.1715328 3237800
-0.086381033 -0.13626681 1.1739699 3303594
0.10875899 -0.14057268 1.1792837 3500972
0.11733127 -0.13638884 1.1763505 3500976
0.1221964 -0.13348064 1.1717889 3500977
-0.10008711 -0.12253089 1.1689664 3237545
-0.095566623 -0.12436025 1.1730582 3303852
0.1192004 -0.12697025 1.1798373 3566772
0.12262572 -0.12728487 1.1759237 3566515
-0.10242666 -0.11278053 1.1692306 3369389
0.12022903 -0.11745594 1.1800511 3763639
0.12374301 -0.11648798 1.1752754 3763639
-0.1089051 -0.098784409 1.1674061 3435181
-0.10369153 -0.10263362 1.1707153 3435438
0.12107158 -0.10638497 1.1802899 3895737
0.12619901 -0.10625694 1.1752548 3764149
-0.10831759 -0.092340119 1.168615 3435438
-0.10307251 -0.093150288 1.1728082 3501231
0.12117312 -0.10076319 1.1804022 3961530
0.1267643 -0.096783333 1.1754549 3961528
0.13408789 -0.093485825 1.1728965 3895735
-0.10788586 -0.083108664 1.169407 3501489
-0.10369583 -0.083022103 1.1724087 3501490
0.12149805 -0.082773522 1.1807613 4159679
0.12725243 -0.087462515 1.1760993 3962041
0.13412824 -0.091252357 1.1729411 3895735
-0.10819446 -0.075741716 1.1685413 3501747
-0.10340448 -0.072694026 1.1714014 3567541
0.1208637 -0.07638824 1.1808681 4225473
0.12465683 -0.07688114 1.1769612 4159424
-0.10141852 -0.062557995 1.1705863 3764919
0.1207741 -0.067513682 1.1810385 4422597
0.12483899 -0.066796213 1.1771625 4357059
-0.10074496 -0.052794769 1.1706235 3896505
-0.096119702 -0.05285541 1.1753244 3962298
0.12084099 -0.056892455 1.1812471 4685767
0.12502114 -0.056711301 1.1773639 4422851
-0.099069186 -0.04366361 1.169018 4027836
-0.094172679 -0.042096369 1.1744962 4028094
0.11921681 -0.046226438 1.1792909 4948684
0.1252134 -0.048136614 1.1745344 4751818
-0.097182937 -0.035561055 1.1676271 4093632
-0.091713592 -0.03232985 1.1736908 4094399
0.11260161 -0.035744131 1.1814309 5080784
0.11702555 -0.036797732 1.17673 5211343
-0.088273391 -0.023921832 1.1724663 4094402
-0.081766047 -0.021031767 1.1753404 4226244
-0.075275779 -0.019501284 1.1765503 4620744
-0.021296337 -0.019380964 1.1780457 5412064
0.0011866372 -0.0197993 1.1786596 6463211
0.0091847694 -0.023785464 1.1788032 6397929
0.018878635 -0.023325108 1.1790802 6397929
0.028142996 -0.021586299 1.1793704 6003432
0.1098358 -0.026363902 1.1790355 5081042
0.11514001 -0.029457785 1.1736189 5081041
-0.080123857 -0.013147987 1.170403 4160963
-0.072180331 -0.012464933 1.1759152 4752075
-0.057106622 -0.0097167715 1.1772434 4949201
-0.050371885 -0.010404453 1.1774163 5016022
-0.040797468 -0.011688948 1.1769891 5213659
-0.030972827 -0.012764618 1.1766754 5411552
-0.021158099 -0.013737798 1.177359 5740773
-0.011077461 -0.013947442 1.1784343 6003172
-0.00095014647 -0.014124863 1.1783106 6331366
0.0092149712 -0.01423654 1.1759881 6989552
0.019300424 -0.014436387 1.1766634 6792432
0.029399503 -0.014603779 1.1762892 5937640
0.037837293 -0.013890848 1.1787877 5806054
0.048543036 -0.012807362 1.1801056 5674725
0.055308238 -0.0118085 1.1803122 5674983
0.10107161 -0.015190683 1.1815121 5146841
0.10720726 -0.017252736 1.1759241 5080789
-0.076520547 -0.0046663433 1.1688001 4554184
-0.073143534 -0.0039626956 1.1719089 4751049
-0.057976849 -0.0040369779 1.1753287 4818129
-0.050515898 -0.0041575283 1.1747323 5015507
-0.04088629 -0.0042550936 1.1715947 5147609
-0.030747775 -0.0044133142 1.1705714 5346018
-0.021191273 -0.0050255507 1.1734364 5937898
-0.01076728 -0.0059703812 1.1739287 6462952
-0.00027840119 -0.005400084 1.1733406 8303605
0.009116861 -0.0056576207 1.1725789 8501495
0.018973881 -0.006802775 1.1720157 7252467
0.030263457 -0.0064868703 1.1731738 6069484
0.039402809 -0.0055865273 1.1743058 6135528
0.049417142 -0.0062184185 1.1776682 5741031
0.058761336 -0.0062281564 1.1795157 5543655
0.06823121 -0.0051275268 1.1807997 5477092
0.078314856 -0.0039885566 1.1811007 5739747
0.08967673 -0.0044499114 1.181406 5280481
0.098946929 -0.007173866 1.177915 5015513
0.1044612 -0.0092024133 1.175719 4949463
-0.069700323 0.0019094348 1.1691167 4818122
-0.060253881 0.0027266368 1.169394 5147606
-0.051556289 0.0033095405 1.1696459 4818639
-0.042903516 0.0014108196 1.1698483 5344472
0.0017679268 0.0011381656 1.1710787 12971007
0.0062239766 0.0004966855 1.1711894 12905215
0.030787718 3.9622188e-005 1.17186 5807584
0.044186123 -0.00020968914 1.1722257 6004710
0.050264593 0.00063474476 1.1724102 5807083
0.059037551 0.0029047877 1.1748316 5477863
0.067459144 0.0022620857 1.1775869 5542628
0.079118438 -0.0010042191 1.1811811 5673698
0.089758568 0.00078651309 1.1800094 5804766
0.09554667 -0.0011653677 1.1736277 5147865
0.062252369 0.010625288 1.1729364 5412324
-0.011201405 -0.20027632 1.1788055 3039650
-0.0047675865 -0.20104092 1.1789685 3039650
-0.031361971 -0.1920014 1.1784089 2842271
-0.02459424 -0.19212735 1.1785936 2973857
-0.014329177 -0.19343501 1.1801159 2973857
-0.0046488857 -0.19539317 1.1816095 3039395
0.0060608913 -0.19364294 1.1811908 3171237
0.015407559 -0.19238448 1.1807624 3237030
0.025744619 -0.19203579 1.1815271 3302569
0.034082338 -0.19232802 1.1815468 3237546
-0.05083143 -0.18115982 1.1780814 2908065
-0.043275468 -0.18226774 1.1782688 2973857
-0.034657568 -0.18421188 1.1794699 2973857
-0.024981588 -0.18631533 1.1808149 2973858
-0.016760401 -0.18733501 1.1829059 3105444
0.014928977 -0.18792465 1.1837709 3237030
0.026651125 -0.18663296 1.1841203 3302825
0.03559475 -0.18633811 1.1840656 3171754
0.045484234 -0.18700664 1.1826329 3171752
0.055846252 -0.18676424 1.1823356 3171753
0.064347163 -0.1837965 1.1822165 3237546
0.072634131 -0.18152252 1.1814895 3303592
-0.061832778 -0.17149684 1.1779653 2908579
-0.053737901 -0.17385736 1.1801443 2908579
-0.043960176 -0.17552739 1.1812918 3105444
-0.03537593 -0.17747688 1.1825829 3105443
0.059231311 -0.1796902 1.1851567 3303339
0.06733834 -0.17754099 1.1840887 3303082
0.0758266 -0.17554861 1.1822659 3237545
0.081820793 -0.17266513 1.181916 3303850
-0.070652671 -0.16004732 1.1779442 3302822
-0.064183697 -0.16451809 1.1802874 3040165
-0.057176739 -0.16846535 1.1821553 3040167
0.070712514 -0.17084502 1.1856464 3303598
0.076870106 -0.16694573 1.1849509 3238061
0.085521296 -0.16500537 1.1832793 3303596
0.09328375 -0.16272154 1.1824267 3369131
-0.080238089 -0.14933591 1.1778876 3171751
-0.073920563 -0.15311471 1.1794013 3368615
-0.067158155 -0.15695611 1.1821033 3171751
0.095174767 -0.15621161 1.1841066 3369134
-0.082084656 -0.14224815 1.1779745 3369130
-0.076087348 -0.14437969 1.1811006 3434922
0.096431799 -0.14660063 1.185877 3435183
-0.083690643 -0.1336465 1.1794316 3434923
0.099306472 -0.13956232 1.1862459 3501232
0.10613685 -0.13654479 1.1858815 3435694
0.11296842 -0.13487427 1.1835134 3501232
-0.09169843 -0.1223473 1.1790966 3369646
-0.086096831 -0.12623884 1.1808434 3435182
0.10998986 -0.12741417 1.1875784 3567282
0.11416306 -0.12691364 1.1855205 3567027
-0.099828109 -0.10947242 1.1781218 3501231
-0.095392577 -0.11354049 1.1809168 3435439
0.11013299 -0.11949038 1.1877366 3829686
0.11533469 -0.11673893 1.1861553 3829431
-0.099766977 -0.10608793 1.1781894 3501231
-0.095370263 -0.10296279 1.1800394 3567024
0.11779801 -0.10741368 1.1868497 3830201
-0.099512264 -0.091985904 1.178471 3632818
-0.096352786 -0.092805088 1.1805435 3698612
0.12012453 -0.09683314 1.186453 3896507
-0.09933906 -0.082396522 1.1786624 3633333
-0.095577143 -0.082718238 1.1815618 3764919
0.12015829 -0.08661548 1.1861526 4093886
-0.099631302 -0.073588453 1.1788259 3633334
-0.095667198 -0.072792619 1.1821527 3830201
0.11730998 -0.076952286 1.1869845 4291523
-0.095015652 -0.062472206 1.1808375 3896506
0.1170271 -0.066450223 1.1865586 4619975
-0.091566093 -0.052986506 1.1811652 4028348
0.1112984 -0.054968044 1.189025 5146320
0.1157121 -0.057251092 1.1881021 4883148
-0.089639723 -0.043578826 1.1799723 3962814
-0.084708296 -0.042362932 1.1827053 3963072
0.11050764 -0.046096228 1.1876751 5146577
0.11429492 -0.047749095 1.1857466 5080527
-0.088093795 -0.03452988 1.1799054 4028607
-0.081945799 -0.032940134 1.182241 4291526
-0.032067537 -0.031918071 1.1855083 5147865
-0.024593808 -0.031830668 1.1857166 5344731
-0.0082800565 -0.031228334 1.1861796 5345501
-0.0014894754 -0.031354688 1.186365 5739743
0.0086815367 -0.033749007 1.1852657 5936862
0.017722473 -0.033932149 1.1858457 5871068
0.027915929 -0.033034191 1.1871457 5739228
0.046044588 -0.032239169 1.1876626 5213656
0.10879537 -0.037180644 1.1877012 4949970
-0.079975627 -0.025483325 1.1803061 4422856
-0.071512006 -0.020914756 1.1824484 4686797
-0.061132185 -0.019983329 1.1829355 4884690
-0.050808862 -0.021643668 1.1846895 4950486
-0.04034967 -0.022580698 1.1841269 5213659
-0.031754173 -0.023874879 1.1824716 5279707
-0.021630358 -0.02520854 1.183126 5345244
-0.011438697 -0.023764148 1.1833471 5411808
-0.001599093 -0.025056981 1.1833919 5806052
0.0077008782 -0.02833733 1.1826757 6068964
0.019725617 -0.02893725 1.1829966 6068963
0.029774681 -0.026762001 1.1842406 6003173
0.03823369 -0.025218464 1.185382 5608417
0.048411865 -0.025429122 1.1862597 5411038
0.055221371 -0.025615819 1.1880454 5279709
0.099946551 -0.024672866 1.1883773 5212630
0.10557294 -0.028333396 1.186717 5015248
-0.067661621 -0.015273444 1.1808455 4949712
-0.060893886 -0.015399374 1.1810303 4949713
-0.050742276 -0.015588269 1.1813073 5016279
-0.041349433 -0.016139217 1.1815565 5213659
-0.03271535 -0.017052233 1.1817775 5345501
0.040047999 -0.01784189 1.1837748 5871590
0.04851786 -0.01743523 1.1840169 5871847
0.058754556 -0.015433051 1.1863402 5543139
0.066048667 -0.014445387 1.1868471 5280225
0.090510502 -0.014948942 1.1892291 5411294
0.096413866 -0.01642143 1.1868169 5279196
0.06840992 -0.0093412995 1.1847248 5411556
0.078028113 -0.0078274459 1.1850203 5412066
0.089307673 -0.0080373287 1.1853282 5477344
0.096034653 -0.010419592 1.185468 5213404
-0.0037236838 -0.19093327 1.1871988 3105189
-0.0239584 -0.18211132 1.1878114 3039906
-0.014313023 -0.18443382 1.1884618 3039908
-0.0048572095 -0.18580884 1.1906024 3105447
0.0058317585 -0.18517938 1.1883255 3105702
0.014953901 -0.18408512 1.1878487 3171750
0.023942698 -0.18383923 1.1881021 3237289
0.035435203 -0.18219391 1.1884521 3237548
0.045655344 -0.18238407 1.1887311 3171752
0.054739911 -0.18255311 1.188979 3171752
-0.051360786 -0.17012618 1.1862862 3039909
-0.0435532 -0.17102046 1.1873741 3105701
-0.035494808 -0.17385325 1.1891993 3105443
-0.026038248 -0.1794519 1.1908073 3040163
0.0047414387 -0.17911264 1.1916653 3105960
0.016155349 -0.17821038 1.1919986 3105958
0.025297698 -0.17685312 1.1914774 3237545
0.035739783 -0.17596456 1.1906883 3237547
0.04579711 -0.17582873 1.1904635 3237544
0.055857684 -0.17579037 1.1908268 3237545
0.06456963 -0.173944 1.1900856 3303339
-0.062432677 -0.16049004 1.1861675 3172009
-0.05413799 -0.16385651 1.1887327 3105961
-0.044891272 -0.16627643 1.1905423 3171752
0.039112154 -0.16926447 1.1928077 3303337
0.045948423 -0.16939166 1.1929944 3303593
0.056057703 -0.16860268 1.1932894 3303594
0.065342069 -0.16613576 1.1923435 3303596
0.072263934 -0.1647006 1.1898113 3238062
-0.069660023 -0.15183435 1.1861361 3434409
-0.064031422 -0.15375841 1.1890795 3237547
-0.055772059 -0.15630649 1.1904354 3237805
0.066400729 -0.15887918 1.1937647 3238318
0.075776726 -0.15609838 1.1929576 3238572
0.085945889 -0.15603958 1.1915591 3434926
0.092487201 -0.15553316 1.1905493 3369134
-0.07187064 -0.14278588 1.1874826 3435179
-0.066030748 -0.14495139 1.1899281 3369388
0.080500275 -0.14951512 1.194337 3500977
0.086210661 -0.14606243 1.1935617 3435186
0.091748334 -0.14612715 1.1907119 3500720
-0.080181375 -0.13188431 1.187234 3566511
-0.074580021 -0.13490082 1.1889979 3566767
-0.067454234 -0.13764231 1.1904757 3500977
0.087797903 -0.13846907 1.1942537 3501234
0.095802896 -0.13612136 1.1917692 3501490
-0.089505374 -0.11851643 1.1862358 3566770
-0.082903206 -0.12327451 1.1889273 3632306
-0.076404609 -0.12835601 1.1904089 3632563
0.097709335 -0.12752952 1.1938286 3699127
0.10523096 -0.12634005 1.1919409 3633076
-0.090640031 -0.11292686 1.1873138 3566770
-0.084737279 -0.11399519 1.1904579 3763892
0.098726682 -0.11850508 1.1954449 3633335
0.10550755 -0.11638805 1.1932279 3764407
-0.090639517 -0.10288271 1.1893104 3698868
-0.086341925 -0.10359842 1.190616 3699126
0.099512503 -0.10655002 1.1956995 3962811
0.10607942 -0.10673732 1.1947101 3830969
0.11387508 -0.10704377 1.1920849 3830714
-0.091580838 -0.092871867 1.1876013 3699126
-0.086414449 -0.093590677 1.1908089 3830712
0.10694189 -0.096824534 1.1954939 4028606
0.11519237 -0.097005144 1.1923168 3962300
-0.090848334 -0.083413646 1.188483 3830970
-0.086010218 -0.083229899 1.1910217 3962813
0.10736044 -0.087785959 1.1962818 4291522
0.11534608 -0.08744923 1.1928709 4094399
-0.090971045 -0.073344842 1.18879 3962044
-0.086165205 -0.07378155 1.1912014 4093630
0.10914497 -0.077069461 1.196273 4554438
0.11407816 -0.077831984 1.1926591 4357059
-0.090155683 -0.06330891 1.1886268 4093886
-0.085639723 -0.062717326 1.1914313 4291009
0.10752095 -0.06648244 1.1958116 4686026
0.11363146 -0.066624381 1.192865 4685769
-0.088377066 -0.056048591 1.1874832 4159935
-0.083412312 -0.053729519 1.1905245 4225985
0.10041817 -0.056408186 1.1967007 5015248
0.10655297 -0.057743438 1.1941762 5014991
-0.080200091 -0.043956462 1.1900636 4292037
-0.074922606 -0.046305753 1.1920474 4619977
-0.052011527 -0.039892253 1.1928059 5279449
-0.044035885 -0.040040657 1.1930236 5016538
-0.031523302 -0.041413449 1.193343 4950743
-0.0220364 -0.043266408 1.1935693 4950488
-0.012940899 -0.043279182 1.1938207 5147351
-0.0024794443 -0.042523861 1.1941247 5278422
0.0080666225 -0.045016833 1.1934786 5212886
0.017449198 -0.044511594 1.1928864 5278423
0.027418151 -0.043869715 1.1936748 5147094
0.038271967 -0.044503532 1.1952134 4885460
0.047801249 -0.043162294 1.1947755 4950741
0.056896575 -0.042830713 1.1957612 5016279
0.09914571 -0.046503294 1.1954576 5212370
0.10658876 -0.047746684 1.1930377 5212369
-0.077990226 -0.037028015 1.1901419 4423370
-0.075849272 -0.033864908 1.1898625 4554187
-0.051447056 -0.034874961 1.1926523 5147610
-0.041532777 -0.034295529 1.1912036 5081818
-0.032472625 -0.036738813 1.1914066 5016538
-0.021305412 -0.035512678 1.1918728 5278938
-0.012193135 -0.035075784 1.1921334 5344730
-0.0017149933 -0.03612788 1.1913354 5673948
0.0084952051 -0.038536385 1.1905037 5805277
0.017579772 -0.038705423 1.1907517 5541848
0.027820427 -0.037759796 1.1910534 5475544
0.03808159 -0.035678424 1.1913778 5213397
0.048699982 -0.03651312 1.1923615 5082070
0.058353119 -0.035944901 1.1943346 5016536
0.067281924 -0.03396932 1.196221 5213915
0.078042276 -0.033192441 1.1965337 5279453
0.088972062 -0.033851795 1.1968232 5213659
0.098395787 -0.036914915 1.1954234 5212628
0.10508028 -0.036925092 1.1932067 5146833
-0.075372927 -0.02788654 1.1883912 4554443
-0.050130427 -0.026538372 1.1891156 5016281
-0.04287919 -0.027582228 1.1892959 5147611
-0.011780956 -0.029069811 1.1901271 5411294
0.059085019 -0.025843807 1.1921502 5148123
0.067797251 -0.026014484 1.192588 5213915
0.077781193 -0.026460782 1.1943954 5213917
0.088517129 -0.026606224 1.1952665 5213659
0.096541978 -0.028448641 1.193469 5212887
0.089490011 -0.019592591 1.1931129 5279708
0.094032295 -0.01967711 1.1932369 5411037
-0.020559624 -0.18039653 1.1959434 3106213
-0.014838931 -0.18050298 1.1960995 3105959
-0.0035728151 -0.18136674 1.1963943 3105706
0.0068996847 -0.18090746 1.1966929 3105960
-0.031304915 -0.17332819 1.1957837 3105700
-0.023922753 -0.17473099 1.1967111 3105957
-0.014764891 -0.17490138 1.196961 3106216
-0.0044855261 -0.17523058 1.1980895 3106217
0.0061645629 -0.17490998 1.1982187 3171752
0.014076473 -0.17455631 1.1981066 3303337
0.025371242 -0.1720933 1.1973754 3369130
0.032236066 -0.17222103 1.1975628 3369132
-0.043707337 -0.16189137 1.1959968 3171753
-0.034147404 -0.16453259 1.1985979 3171752
-0.02392276 -0.16504775 1.2009519 3172010
-0.014791804 -0.16651669 1.2021264 3172012
-0.0047735972 -0.16630396 1.2032036 3237802
0.0059166416 -0.16578962 1.2029635 3303338
0.015109776 -0.16599286 1.203414 3369133
0.025471143 -0.16591606 1.2019811 3369388
0.035626169 -0.16575488 1.2015742 3303853
0.044984624 -0.16471151 1.1998127 3369643
0.055143531 -0.16406377 1.1985908 3303851
-0.061211169 -0.1498771 1.195413 3303598
-0.053204693 -0.15288961 1.1972911 3303341
-0.044771031 -0.15486029 1.2009165 3303340
-0.035536151 -0.15653349 1.2039982 3369132
-0.027403224 -0.15857048 1.2041835 3303600
0.0059975996 -0.15919198 1.2050953 3303598
0.018666878 -0.15942773 1.2054411 3435186
0.02615327 -0.15956703 1.2056456 3369391
0.035943165 -0.15974919 1.2059128 3369392
0.045820668 -0.15700443 1.2056237 3369390
0.055502854 -0.15603852 1.2023237 3435184
0.065018684 -0.15451536 1.1988143 3369392
-0.062058702 -0.14287366 1.1963264 3369646
-0.055105887 -0.14542684 1.2012718 3303853
-0.047968317 -0.14896902 1.2038016 3173034
0.047890786 -0.14890894 1.2064543 3566773
0.056114446 -0.1477382 1.2060375 3566516
0.066035941 -0.14597704 1.2034112 3500977
0.076011173 -0.14675733 1.2009547 3500975
-0.071983136 -0.1307068 1.1954883 3632562
-0.063247867 -0.13400872 1.1986674 3501236
-0.055866972 -0.13442202 1.2034216 3501494
0.068325646 -0.13701662 1.2072511 3698612
0.07594768 -0.13744663 1.2050886 3567283
0.084924042 -0.13511348 1.2026777 3567283
0.092475317 -0.13213161 1.2000096 3501747
-0.079000644 -0.12092777 1.1954845 3895478
-0.073536314 -0.12362169 1.1980847 3698613
-0.06478475 -0.12483025 1.2024723 3633080
0.069884971 -0.13041964 1.2074226 3699128
0.076498717 -0.12735158 1.2076653 3830713
0.086014815 -0.12711532 1.2067325 3699126
0.093048736 -0.12573177 1.20015 3633333
-0.080163553 -0.11289301 1.1956089 3961271
-0.07356666 -0.11357962 1.2007809 3896247
-0.066965528 -0.11634972 1.2039112 3764921
0.07651788 -0.12040237 1.2078011 3962300
0.087433763 -0.11808344 1.2076774 3896506
0.095158868 -0.11621564 1.2023948 3764920
-0.081398681 -0.10358214 1.1972568 3830712
-0.074678779 -0.10339069 1.2026161 4093627
0.090580277 -0.10729676 1.2084453 4028352
0.096129574 -0.10668324 1.2032744 3962812
-0.081626087 -0.093271703 1.1979516 3962556
-0.075367227 -0.094638407 1.2036568 4028606
0.090241618 -0.096886382 1.2086385 4357317
0.096757367 -0.097114466 1.204812 4225985
0.10233118 -0.093394101 1.2010363 4225985
-0.080972008 -0.084275402 1.1981448 4028606
-0.076378658 -0.084676981 1.2042674 4094655
0.090913191 -0.088865355 1.2088133 4554695
0.096911989 -0.086724393 1.2044183 4554182
0.1032455 -0.085016415 1.2012248 4619462
-0.081419505 -0.073583268 1.1968102 4159424
-0.073605426 -0.072871439 1.2033426 4160448
-0.067305803 -0.071401715 1.2047769 4554440
0.091615245 -0.07551115 1.2090927 4620747
0.097227968 -0.07658729 1.2069757 4686026
0.10376471 -0.07739453 1.2013875 4619977
-0.08061225 -0.063925363 1.1965498 4291265
-0.072698332 -0.064189017 1.2020166 4357573
-0.067180961 -0.064489931 1.2049148 4751563
0.0069636772 -0.063180745 1.2069912 4818903
0.014655899 -0.062555633 1.2072161 4819160
0.089926414 -0.066952325 1.2092127 4752590
0.097391732 -0.067388676 1.2071594 4817869
0.10276523 -0.069362812 1.2015163 4752076
-0.078452662 -0.054379996 1.1967953 4291778
-0.072549112 -0.053860616 1.2005497 4554440
-0.06703531 -0.056426186 1.2050759 4883149
-0.048216663 -0.049622361 1.2017267 5674209
-0.042476937 -0.049729161 1.2018833 5082331
-0.031222064 -0.052815158 1.2040023 4950745
-0.021870799 -0.054675717 1.2017566 4884953
-0.012682307 -0.05483355 1.2018076 4753366
-0.0023721708 -0.053952631 1.2033106 4884692
0.0082034459 -0.055755235 1.2027231 4884692
0.01695385 -0.05520881 1.2036312 4884692
0.027099524 -0.054256219 1.2063879 4950484
0.038064804 -0.055374991 1.2048906 4950488
0.046817139 -0.055297751 1.2061282 4950489
0.057415675 -0.054068502 1.2074969 5411037
0.066368483 -0.054010972 1.208813 5542623
0.080513865 -0.052257568 1.2092384 5213404
0.088236168 -0.055282138 1.209393 5081558
0.096566334 -0.057629708 1.2071764 5015248
-0.07303334 -0.044014707 1.197147 4685772
-0.05084005 -0.043985549 1.198853 5542365
-0.041879274 -0.0443337 1.199146 4951002
-0.033105951 -0.045500983 1.1982225 4884951
-0.023882661 -0.047545806 1.1984378 4753366
-0.010132336 -0.046656929 1.1988355 4950484
-0.0012704395 -0.047108002 1.1990718 5015763
0.028747674 -0.04852511 1.1998745 5015764
0.035612497 -0.048652846 1.2000619 4885461
0.047561936 -0.047893994 1.2004073 4884950
0.058313757 -0.04706734 1.2025679 5082072
0.067624032 -0.046160698 1.2057987 5542624
0.077111878 -0.047542978 1.2084357 5279197
0.087358281 -0.046428986 1.2059391 5213144
0.094740056 -0.048989892 1.2016909 5212627
0.062093027 -0.039987721 1.2009631 5016538
0.067844711 -0.038377643 1.2011535 5213917
0.077423967 -0.036075629 1.2014633 5345245
0.087708682 -0.038590107 1.2023659 5213917
0.1786209 -0.042559564 1.2121409 13158081
