# .PCD v0.7 - Point Cloud Data file format
VERSION 0.7
FIELDS x y z rgba
SIZE 4 4 4 4
TYPE F F F U
COUNT 1 1 1 1
WIDTH 174
HEIGHT 1
VIEWPOINT 0 0 0 1 0 0 0
POINTS 174
DATA ascii
-0.35677165 0.096300937 1.0847205 5134174
-0.3500177 0.094750278 1.0848707 5134176
-0.35729584 0.10097594 1.0846775 4871515
-0.3649579 0.078650154 1.0916744 4936281
-0.35450047 0.076190688 1.0919074 5199967
-0.34962156 0.076228052 1.092008 5397348
-0.37321961 0.085306875 1.0911578 4673880
-0.36544502 0.084827408 1.0894039 4870232
-0.35590291 0.084981129 1.0903176 5068382
-0.34610653 0.085434414 1.0910625 5068384
-0.33830643 0.087046683 1.0921674 4476504
-0.37366188 0.094751947 1.0897167 4607822
-0.36656094 0.094817072 1.0885293 4673623
-0.35556519 0.094151661 1.0887611 5134174
-0.34513983 0.095126428 1.0889698 4739419
-0.33737195 0.094954126 1.0904176 4081746
-0.37394428 0.10313872 1.0913203 4410445
-0.36553848 0.10425642 1.0884855 4213839
-0.35522854 0.10484777 1.0886945 4345429
-0.3451494 0.10451189 1.0889051 4016211
-0.33702743 0.1042359 1.0902289 3621193
-0.36496478 0.109703 1.0884598 3884109
-0.35558215 0.11075675 1.0886465 3752784
-0.34515581 0.11076888 1.0888619 3621192
-0.33785629 0.10973454 1.0890199 3686459
-0.37348127 0.066476844 1.1020131 4673626
-0.36529106 0.06560719 1.0993472 4870741
-0.35612634 0.064511456 1.0997287 5265754
-0.34606406 0.065303251 1.1001985 5397604
-0.33760458 0.068126529 1.1033146 4608350
-0.37445545 0.075458474 1.0980016 4673629
-0.36602896 0.073967367 1.0960188 4870744
-0.35756072 0.072461367 1.0958707 5134174
-0.3452439 0.074557051 1.0967631 5397606
-0.33704713 0.075434208 1.1010935 4476760
-0.33085805 0.079540983 1.1033756 4015442
-0.38154867 0.083706647 1.1022995 3883351
-0.37795895 0.083710738 1.0971723 4475995
-0.34434834 0.081082635 1.0960845 5068641
-0.33524504 0.084354632 1.0983032 4082513
-0.32938349 0.085574098 1.1028644 3752531
-0.37920845 0.093688205 1.0958775 4079443
-0.33330482 0.093474269 1.0977278 3621705
-0.32883105 0.091159262 1.1009369 3751503
-0.334925 0.10103409 1.0961419 3490378
-0.36209059 0.048356503 1.1139473 5002588
-0.35889125 0.048360229 1.1140133 5528419
-0.37276474 0.057943858 1.1136607 4739163
-0.36544913 0.055058997 1.1108866 5002333
-0.35595074 0.054763746 1.1110294 5397092
-0.34677032 0.056812737 1.1125624 5332066
-0.34077162 0.057981092 1.1143216 4740695
-0.37408674 0.061885998 1.108355 4082256
-0.36709756 0.060728747 1.106757 5068120
-0.34423059 0.061299819 1.1092261 5200736
-0.33606505 0.064686313 1.1115084 4345175
-0.32901931 0.066641517 1.1139333 4278096
-0.33332267 0.074154079 1.10822 4147028
-0.32858965 0.073717624 1.1124058 3819087
-0.32871088 0.081217811 1.1086096 3687502
-0.35511863 0.036514636 1.1251755 5528423
-0.35081151 0.037058208 1.1252607 5397348
-0.36532944 0.044333026 1.1195761 4804702
-0.35583419 0.044135142 1.1191938 5462626
-0.34648326 0.044804499 1.1219628 5003105
-0.33841613 0.048372954 1.1230384 4804440
-0.37453142 0.054397829 1.1206503 3817824
-0.3684783 0.050634492 1.1168003 4673622
-0.35243884 0.050653156 1.1171316 5660265
-0.3450526 0.05221739 1.1172734 5069150
-0.33606237 0.055055451 1.1194402 4475986
-0.33062416 0.059351202 1.119523 4014924
-0.33320245 0.061370533 1.1174554 4606547
-0.32748079 0.063813686 1.1180569 3620428
-0.36180344 0.029727237 1.1320857 4079956
-0.35515255 0.028733646 1.1299437 5266270
-0.34934172 0.029199846 1.1323467 5002845
-0.36464542 0.035879977 1.1299841 4079963
-0.35698947 0.033278093 1.1281598 5330781
-0.34650126 0.035523627 1.1300085 5002331
-0.34317681 0.04150198 1.1283886 5001816
-0.33902979 0.044366453 1.1296549 4540755
-0.33454859 0.051231802 1.1285 4213074
-0.35602462 0.019161802 1.1442807 5265766
-0.35726458 0.023618085 1.1413665 5068639
-0.34855187 0.025281316 1.1410588 4214103
-0.36534068 0.029849775 1.1360127 1580089
-0.34417167 0.031709448 1.1371042 4145996
-0.34142599 0.037490766 1.1364543 4212054
-0.36250889 0.018122604 1.1471545 3618132
-0.35701847 0.017030923 1.1472754 5199718
-0.3504324 0.01813666 1.1474038 4214875
-0.35225293 -0.041645061 1.1637814 528927
-0.347132 -0.042307097 1.1638918 1517876
-0.34825194 -0.052125908 1.1759391 4419983
-0.36334005 -0.045332666 1.1735801 1651559
-0.35782945 -0.044579536 1.1705451 1782104
-0.34567809 -0.04709236 1.1687059 4154236
-0.34060431 -0.043653797 1.1726094 3028033
-0.355014 -0.037512213 1.1756989 2369321
-0.34712139 -0.037629396 1.1722618 2040105
-0.35486427 -0.018350564 1.1715691 4146252
-0.36324167 -0.05018913 1.1836178 5077683
-0.35639611 -0.052771579 1.1824434 4617364
-0.34697139 -0.053138055 1.1826407 4549258
-0.34162518 -0.047759261 1.1800469 6582660
-0.36420101 -0.038757171 1.1795185 7695014
-0.35652342 -0.035004675 1.1803181 2040625
-0.34840944 -0.033773195 1.1798105 2172202
-0.34163439 -0.038730908 1.1799846 2760198
-0.35786945 -0.061877858 1.1918112 4683677
-0.35217065 -0.061871223 1.1919289 3831442
-0.36547968 -0.055003617 1.1904635 3299734
-0.35840067 -0.057212867 1.1892221 4683420
-0.34984905 -0.057697956 1.1903478 3960460
-0.36495838 -0.13462707 1.2051682 3829135
-0.35683107 -0.13413574 1.2053329 4223637
-0.35060611 -0.13457745 1.2054645 3960467
-0.3657833 -0.12524965 1.2050867 3498881
-0.3573513 -0.12478486 1.2048577 3895695
-0.34951022 -0.12344173 1.2054106 3631246
-0.36562011 -0.11408331 1.2020125 3499128
-0.35837418 -0.11487695 1.2021677 4025235
-0.34961173 -0.11389922 1.2041997 3499655
-0.36498088 -0.10471658 1.1999609 3826560
-0.35825357 -0.10475056 1.2006003 4156303
-0.35033956 -0.10527381 1.2032679 3630985
-0.36481166 -0.095180675 1.2028995 3893387
-0.35818371 -0.094869412 1.2014784 4157333
-0.3508763 -0.094342448 1.2036818 3762828
-0.36316392 -0.086687043 1.2048756 3762325
-0.35739359 -0.08413808 1.2013098 4420507
-0.35122645 -0.084282413 1.2037721 3828877
-0.36433017 -0.072860144 1.2047563 4222878
-0.35707316 -0.074715026 1.2011849 4552347
-0.3509424 -0.07510376 1.2042482 3631755
-0.36597189 -0.064987376 1.1990669 3627913
-0.35728371 -0.066705659 1.1971911 4683676
-0.35018584 -0.065389588 1.2002689 3892613
-0.3491762 -0.057520952 1.196962 3563127
-0.36666831 -0.14443247 1.2106303 3033484
-0.35838726 -0.14539799 1.2132037 2897991
-0.34830654 -0.14458685 1.212916 3891064
-0.34079555 -0.14381254 1.214733 2638186
-0.3706755 -0.13535522 1.2090561 666715
-0.35977432 -0.1375888 1.2092968 4813457
-0.34619501 -0.13462478 1.2095571 3499654
-0.33909902 -0.13447466 1.2133877 3561592
-0.3713477 -0.12395953 1.2089639 6722
-0.34633613 -0.12508658 1.2094885 3694979
-0.33980989 -0.12481322 1.211622 3233144
-0.34477046 -0.1146793 1.2094493 3104639
-0.34015477 -0.11464141 1.212727 2640231
-0.34547395 -0.10496833 1.2093679 2907007
-0.34121016 -0.10505698 1.2140031 3099492
-0.36791176 -0.092739105 1.2088201 4089741
-0.34588969 -0.095381573 1.2096505 3496061
-0.34167528 -0.094225459 1.2143737 4278874
-0.36560813 -0.084643282 1.208812 2972810
-0.34658194 -0.085025758 1.2105718 3757171
-0.34284431 -0.08610034 1.2142936 3748927
-0.36445808 -0.078861125 1.208796 3630740
-0.34596419 -0.077683434 1.2091701 3953004
-0.35912606 -0.15160635 1.2184087 984897
-0.34864938 -0.14771171 1.2185984 4350584
-0.33839116 -0.12369128 1.219312 4674411
-0.33851013 -0.1151563 1.2215847 6974583
-0.34027395 -0.10406671 1.221472 3815753
-0.37199515 -0.093384579 1.2177422 5799072
-0.33938763 -0.094511367 1.2184238 5064001
-0.33852717 -0.12958458 1.231686 7039097
-0.33882797 -0.12379341 1.2326401 7565430
-0.33952311 -0.11512815 1.2322328 8223350
-0.33971703 -0.10689411 1.2275044 9076613
