# .PCD v0.7 - Point Cloud Data file format
VERSION 0.7
FIELDS x y z rgba
SIZE 4 4 4 4
TYPE F F F U
COUNT 1 1 1 1
WIDTH 174
HEIGHT 1
VIEWPOINT 0 0 0 1 0 0 0
POINTS 174
DATA ascii
-0.35709834 0.097270377 1.0867873 5134174
-0.35039869 0.095495403 1.0868715 5134176
-0.35746726 0.10196038 1.0867903 4871515
-0.36581454 0.079837278 1.0936457 4936281
-0.35544312 0.077030517 1.0937759 5199967
-0.35056502 0.076905228 1.0938392 5397348
-0.37385419 0.08676865 1.0932525 4673880
-0.36611301 0.086047955 1.0914345 4870232
-0.35656458 0.08587689 1.0922759 5068382
-0.34675327 0.085998364 1.0929492 5068384
-0.33889598 0.087340958 1.0940082 4476504
-0.37399319 0.096236072 1.0918995 4607822
-0.36690298 0.096076749 1.0906581 4673623
-0.35593399 0.095045149 1.0907991 5134174
-0.34548074 0.095671877 1.0909361 4739419
-0.33771235 0.095228873 1.0923222 4081746
-0.37398496 0.10461246 1.0935804 4410445
-0.36556792 0.10547703 1.090691 4213839
-0.35524282 0.10572439 1.0908257 4345429
-0.34517908 0.1050527 1.0909555 4016211
-0.33706117 0.10449549 1.0922141 3621193
-0.36481386 0.11090159 1.0907098 3884109
-0.35540026 0.11164203 1.0908334 3752784
-0.34497797 0.1113066 1.0909685 3621192
-0.33771589 0.11002947 1.0910609 3686459
-0.37466061 0.067858398 1.1039402 4673626
-0.3665238 0.066742375 1.1012037 4870741
-0.35739794 0.065340005 1.1015046 5265754
-0.34731174 0.065793507 1.1019038 5397604
-0.33874029 0.068306006 1.1049798 4608350
-0.37536567 0.076903969 1.1000171 4673629
-0.36700827 0.07515274 1.0979561 4870744
-0.35859606 0.073368318 1.0977291 5134174
-0.34621015 0.075046301 1.0985453 5397606
-0.33795691 0.075611368 1.1028199 4476760
-0.3316181 0.079489537 1.1050909 4015442
-0.38214898 0.085342757 1.1044433 3883351
-0.37859923 0.085275121 1.0992888 4475995
-0.34510341 0.081544593 1.0979182 5068641
-0.33588028 0.08449249 1.1000959 4082513
-0.3299478 0.085474931 1.1046225 3752531
-0.3795262 0.095300019 1.0980933 4079443
-0.33364254 0.093547724 1.0995873 3621705
-0.32922447 0.091056235 1.1027409 3751503
-0.33502245 0.10117138 1.0980818 3490378
-0.36378989 0.049261272 1.1156232 5002588
-0.36059177 0.049158346 1.1156647 5528419
-0.37414157 0.059199382 1.115505 4739163
-0.36694655 0.056099318 1.1126488 5002333
-0.35746244 0.055488113 1.1127156 5397092
-0.34820789 0.057217482 1.1141961 5332066
-0.34216082 0.058170117 1.1159194 4740695
-0.37537119 0.063231893 1.1102452 4082256
-0.36843634 0.061858401 1.1085831 5068120
-0.34554538 0.061648481 1.1108806 5200736
-0.33725515 0.064741284 1.1131302 4345175
-0.33013058 0.066439472 1.1155181 4278096
-0.33422428 0.074142866 1.1099056 4147028
-0.32947749 0.073511213 1.1140507 3819087
-0.32937768 0.081045963 1.110323 3687502
-0.35713202 0.037091855 1.1266906 5528423
-0.35280874 0.037491564 1.1267476 5397348
-0.36711878 0.045295648 1.1212405 4804702
-0.35763842 0.044786695 1.1207833 5462626
-0.34825015 0.045120206 1.1234859 5003105
-0.34006122 0.048409257 1.1245313 4804440
-0.37597317 0.055649582 1.122476 3817824
-0.37007707 0.051723335 1.1185458 4673622
-0.35404384 0.051207323 1.1187536 5660265
-0.34660888 0.052524511 1.1188524 5069150
-0.33751354 0.055042941 1.1209751 4475986
-0.3319352 0.059155144 1.1210544 4014924
-0.33446026 0.061277796 1.1190249 4606547
-0.32865629 0.063524321 1.1196042 3620428
-0.36398715 0.03046635 1.1335912 4079956
-0.357389 0.029272649 1.1313891 5266270
-0.35154825 0.029523831 1.1337514 5002845
-0.36663875 0.036729015 1.1315669 4079963
-0.35908717 0.033891734 1.1296602 5330781
-0.34851673 0.035771277 1.131448 5002331
-0.34500766 0.041650835 1.1298562 5001816
-0.3407585 0.04436449 1.131116 4540755
-0.33606046 0.051087894 1.1299882 4213074
-0.3584722 0.019603247 1.145646 5265766
-0.35958505 0.024124848 1.1427816 5068639
-0.35082442 0.025501154 1.1424216 4214103
-0.36748919 0.030669864 1.1375463 1580089
-0.34626257 0.031816751 1.138491 4145996
-0.34333128 0.037509635 1.1378719 4212054
-0.36496592 0.018753096 1.1485603 3618132
-0.35951403 0.017478971 1.1486291 5199718
-0.35289413 0.018364578 1.1487167 4214875
-0.35657769 -0.041472349 1.1645712 528927
-0.3514809 -0.042304736 1.164636 1517876
-0.352837 -0.052191645 1.1766032 4419983
-0.36770824 -0.044880599 1.1744217 1651559
-0.36219832 -0.044282589 1.1713512 1782104
-0.35015109 -0.047179721 1.1693958 4154236
-0.34493709 -0.043947335 1.1732907 3028033
-0.35911155 -0.037360262 1.1765461 2369321
-0.35125288 -0.037707292 1.1730474 2040105
-0.35835612 -0.018176859 1.1725873 4146252
-0.36769679 -0.049829956 1.1844144 5077683
-0.36094967 -0.052626941 1.1831641 4617364
-0.35154113 -0.053307399 1.1832854 4549258
-0.34603858 -0.048085071 1.1806988 6582660
-0.36830628 -0.038335185 1.1804252 7695014
-0.36050257 -0.034846749 1.1811992 2040625
-0.35235617 -0.033880245 1.18064 2172202
-0.34574839 -0.039061185 1.1807175 2760198
-0.36265516 -0.061765328 1.1924609 4683677
-0.35695857 -0.061948664 1.1925347 3831442
-0.37004265 -0.054630503 1.1912336 3299734
-0.36305031 -0.057061635 1.1899179 4683420
-0.35451141 -0.057840247 1.1909733 3960460
-0.37205717 -0.13435964 1.2052196 3829135
-0.36391702 -0.13413949 1.2053258 4223637
-0.35770935 -0.13478847 1.2054056 3960467
-0.37257075 -0.12495966 1.2052284 3498881
-0.3641299 -0.1247725 1.2049385 3895695
-0.35624468 -0.12369516 1.2054429 3631246
-0.37205958 -0.11377701 1.2022535 3499128
-0.36484304 -0.11481177 1.2023456 4025235
-0.35603815 -0.11414377 1.2043185 3499655
-0.37112483 -0.10441811 1.2002809 3826560
-0.36439779 -0.10468093 1.200868 4156303
-0.35648599 -0.10549074 1.2034698 3630985
-0.37061724 -0.094920523 1.2033035 3893387
-0.36399329 -0.094816029 1.2018341 4157333
-0.35665631 -0.094551884 1.2039857 3762828
-0.36867368 -0.086504757 1.2053428 3762325
-0.36284849 -0.084115699 1.2017556 4420507
-0.35667145 -0.084487036 1.2041688 3828877
-0.36938092 -0.07264629 1.2053566 4222878
-0.36221617 -0.074707687 1.2017127 4552347
-0.35607919 -0.075327612 1.204725 3631755
-0.3708024 -0.06467133 1.1997508 3627913
-0.36219022 -0.066659264 1.1977926 4683676
-0.35502994 -0.065607592 1.2008272 3892613
-0.35378402 -0.057746604 1.1975834 3563127
-0.37405127 -0.14415286 1.2106066 3033484
-0.36578801 -0.14541604 1.2131071 2897991
-0.35568833 -0.14493683 1.212749 3891064
-0.3481425 -0.14442867 1.2145149 2638186
-0.37776634 -0.1349337 1.2091448 666715
-0.36694387 -0.13752949 1.2092813 4813457
-0.35327205 -0.13501969 1.2094632 3499654
-0.34614679 -0.13514015 1.2132403 3561592
-0.37806034 -0.12352161 1.2091599 6722
-0.35309678 -0.12548183 1.2094814 3694979
-0.34654945 -0.12544458 1.2115668 3233144
-0.35118669 -0.11513222 1.2095233 3104639
-0.34654808 -0.11527754 1.2127655 2640231
-0.35156783 -0.10540294 1.2095345 2907007
-0.34727511 -0.10567558 1.2141356 3099492
-0.37359053 -0.092432223 1.2092694 4089741
-0.35166284 -0.095810682 1.2099063 3496061
-0.34737745 -0.09483847 1.2146069 4278874
-0.37101942 -0.084417462 1.2093161 2972810
-0.3520039 -0.085446537 1.2109256 3757171
-0.34827653 -0.086678676 1.2146087 3748927
-0.36967811 -0.078676701 1.2093431 3630740
-0.35115305 -0.078116126 1.2095851 3953004
-0.36669397 -0.15164419 1.218262 984897
-0.35609263 -0.14810085 1.2184057 4350584
-0.34503728 -0.12444119 1.2192553 4674411
-0.34485584 -0.11592828 1.2216054 6974583
-0.34625116 -0.10478576 1.2216057 3815753
-0.37762687 -0.093024194 1.2182167 5799072
-0.3450706 -0.095237345 1.2186365 5064001
-0.34527719 -0.13044056 1.2315767 7039097
-0.3453784 -0.12465162 1.2325851 7565430
-0.34578836 -0.1159647 1.2322607 8223350
-0.34574375 -0.10768552 1.227608 9076613
