# .PCD v0.7 - Point Cloud Data file format
VERSION 0.7
FIELDS x y z rgba
SIZE 4 4 4 4
TYPE F F F U
COUNT 1 1 1 1
WIDTH 1127
HEIGHT 1
VIEWPOINT 0 0 0 1 0 0 0
POINTS 1127
DATA ascii
-0.12429132 -0.10696889 1.1324961 3236770
-0.12213405 -0.11133278 1.1357337 3236770
0.15094587 -0.11494911 1.1289134 3500458
-0.1241922 -0.10049014 1.132576 3237027
-0.12239551 -0.10092842 1.136537 3302821
0.15348226 -0.1044438 1.1294647 3632048
-0.12404352 -0.09077201 1.1326958 3302824
-0.1222546 -0.091717817 1.1366504 3302569
0.15188897 -0.095529139 1.1295041 3632047
-0.12433664 -0.081695259 1.1328161 3434408
-0.12144721 -0.079420537 1.1367902 3434665
0.14865907 -0.084428675 1.1293427 4026292
-0.12374616 -0.071335763 1.1329354 3631531
-0.12193134 -0.070587613 1.1369109 3631531
0.14886153 -0.076436162 1.1280656 4157366
-0.12364704 -0.064857014 1.1330153 4025255
-0.12037516 -0.059811551 1.1353023 3632304
0.14849676 -0.064635113 1.127777 4289211
-0.11678899 -0.05086606 1.1347746 3568048
0.14551906 -0.05382983 1.1286376 4094399
0.14780834 -0.058268216 1.1298711 4224702
-0.11542106 -0.044820134 1.1331098 3764911
-0.11186749 -0.040589545 1.1355954 3895729
0.14310709 -0.045381553 1.1295787 4487616
-0.11630029 -0.026737496 1.1363558 6458567
-0.11143521 -0.030576266 1.1356134 3895996
0.14318533 -0.034331888 1.1286619 5735616
0.15008853 -0.031177841 1.1281687 9477559
-0.11580107 -0.024074376 1.13738 6852289
-0.11255064 -0.024123326 1.1373168 5933254
0.055600002 0.075009011 1.1313287 9474701
-0.023583775 -0.22960725 1.145013 7248329
0.0092145465 -0.23168299 1.1435549 5801654
0.01724224 -0.23066789 1.1428796 5210039
0.03004992 -0.23151022 1.1439561 6328255
0.037714265 -0.23162565 1.1438069 7379645
0.049273476 -0.23167801 1.1435837 8430007
0.057172723 -0.22997403 1.139452 8625323
-0.061508723 -0.22081147 1.1378522 9678537
-0.05056069 -0.22105861 1.1441664 4422071
-0.041207351 -0.22189394 1.1454498 2778029
-0.031474799 -0.22385553 1.1452376 2513574
-0.023904068 -0.22668168 1.145056 2315684
0.0060122209 -0.22786239 1.144465 2120102
0.018056197 -0.22804374 1.1442307 2185635
0.031211836 -0.22714657 1.1439887 2186146
0.036669616 -0.22832406 1.1438688 2316696
0.052031823 -0.22636482 1.1435976 4486314
0.059557706 -0.22605854 1.141456 5997746
0.070765682 -0.22327816 1.1421326 6063288
0.079478212 -0.22195894 1.1431247 6589614
0.087577164 -0.22229995 1.1429644 8757678
-0.066762172 -0.2087681 1.1381054 1855898
-0.060018517 -0.21141843 1.141181 2249885
-0.05229485 -0.2138947 1.1450367 2381985
-0.044185974 -0.21615364 1.1455796 3039902
0.073541656 -0.21628362 1.1433107 2841504
0.079572022 -0.21582679 1.1432003 3302564
0.089144617 -0.21369888 1.1417091 4420011
0.098873451 -0.21295819 1.1371489 6984117
0.1083082 -0.21031687 1.1347142 6254993
-0.077729531 -0.1980924 1.1392516 2710418
-0.069986314 -0.20151731 1.1426411 2775447
-0.063244425 -0.20388299 1.1453012 2906776
0.091730766 -0.205856 1.1426919 3171492
0.10020655 -0.20457534 1.139744 3237285
0.10847849 -0.20343344 1.1353694 3629215
-0.080432966 -0.19115181 1.1433923 2775191
-0.072303183 -0.19479741 1.1457237 2906012
0.10233399 -0.19542061 1.1413523 3040421
0.10923669 -0.19379975 1.137853 3105703
0.11508148 -0.19410396 1.1347885 2777257
-0.095636562 -0.17679115 1.1390651 2710677
-0.088863239 -0.18082163 1.1424141 2709909
-0.082654819 -0.18455423 1.1447188 2709910
0.11058532 -0.18548451 1.1415119 3368100
0.11810949 -0.18370855 1.1369952 3302561
-0.09670455 -0.17026883 1.14228 2710421
-0.091885582 -0.17324407 1.1462395 2644886
0.11278994 -0.17777321 1.1430409 3040936
0.12083811 -0.17476958 1.1408362 3237031
0.12722966 -0.17192876 1.1378351 3368615
-0.10621001 -0.15705405 1.1395179 2776209
-0.10075661 -0.16167632 1.1441058 2841240
0.1230403 -0.16634195 1.1429877 3237287
0.12943023 -0.16414815 1.1377481 3302822
-0.10702131 -0.15044504 1.1441514 2710683
-0.1023233 -0.15384287 1.1468189 2841499
0.13187042 -0.15579878 1.1403618 3237541
0.13680947 -0.15311107 1.1364878 3237798
-0.10900696 -0.14186661 1.1449077 2907293
0.13373883 -0.14709227 1.1430247 3237797
0.13841406 -0.1445576 1.1379653 3303334
-0.11521145 -0.130026 1.1411755 2907805
-0.11292153 -0.13177148 1.1471682 2907805
0.14044659 -0.13525614 1.1405997 3434407
-0.11553869 -0.12073217 1.1428233 3039392
-0.11283603 -0.12202112 1.1480898 3039391
0.14253379 -0.12571289 1.140553 3500202
0.1466236 -0.12279343 1.1350811 3631274
-0.11851137 -0.11154242 1.1448637 3170979
0.1446833 -0.11550365 1.142768 3631791
0.14797229 -0.11491303 1.1369328 3566510
-0.11873435 -0.1012032 1.1461798 3105957
0.14400767 -0.10436381 1.1416991 3632305
0.14911285 -0.10546358 1.1355853 3501227
-0.11900639 -0.091144696 1.1440257 3237546
0.14367211 -0.095276318 1.1409413 3698099
0.14818506 -0.095661618 1.1357936 3698094
-0.11822971 -0.081410661 1.1443717 3434923
0.14506051 -0.086029626 1.1415768 3895479
0.14715596 -0.087996334 1.1355101 3895477
-0.11767893 -0.070968777 1.1451122 3566256
0.1455179 -0.074749835 1.1430441 4027579
0.14795575 -0.074169546 1.1396703 4157882
-0.11656269 -0.062065955 1.1444466 3567024
0.14361477 -0.065176651 1.1426916 4159422
0.14785564 -0.065332755 1.1381832 4289724
-0.11414044 -0.052237935 1.1423273 3567791
-0.11090561 -0.050418358 1.1476227 3764403
0.14203036 -0.055096425 1.1413589 4356797
-0.10914534 -0.041433789 1.1416054 3830196
0.13949701 -0.045463551 1.1405956 4619718
-0.10746097 -0.030585989 1.1440481 3896507
0.13559864 -0.033517569 1.1413105 4817095
0.14005411 -0.034122206 1.1379939 4948420
-0.1149058 -0.021313243 1.1453997 6916535
-0.10743281 -0.021952294 1.14494 5210049
0.13489074 -0.027141377 1.1435163 5013440
0.13931178 -0.026762024 1.141102 5998788
0.035648912 0.048482902 1.1422381 5859448
0.043809686 0.048460312 1.140223 6122362
0.049427725 0.048467271 1.1431156 6319482
0.060633138 0.049515955 1.1469142 5330522
0.036269374 0.052939765 1.1407582 5792108
0.044095442 0.053673722 1.1400833 5527648
0.049494505 0.052832149 1.1431695 5067354
-0.017783111 -0.22970411 1.1479007 4354997
-0.010402951 -0.23086742 1.1497445 4684224
-0.00053197145 -0.23070362 1.1480894 4289976
0.010469079 -0.22856078 1.1473711 2054307
0.020889431 -0.22926676 1.1471615 2777510
0.026361452 -0.23044732 1.1470412 4026798
0.042827897 -0.23069528 1.1467209 5604271
0.046695262 -0.22910631 1.1466665 4881326
-0.036600366 -0.21906686 1.1483973 3039902
-0.028657423 -0.22011054 1.1487314 2710943
-0.020166183 -0.22218211 1.1513468 2645152
-0.010269776 -0.22523087 1.1544809 2514339
-0.00033994205 -0.22527021 1.1537558 2514851
0.0095841493 -0.22289503 1.1520609 2842787
0.01943111 -0.22259246 1.1496744 2908579
0.029115357 -0.22234935 1.1499801 3039651
0.039317481 -0.22321978 1.150884 2908578
0.048673637 -0.22248566 1.150463 2778020
0.058683634 -0.22094622 1.1479676 2646433
0.068188421 -0.22375628 1.1463201 5012145
0.079695329 -0.22521073 1.1460801 8955830
-0.049493849 -0.21045661 1.1490402 2841242
-0.039645806 -0.21270303 1.1508703 2775960
-0.030621903 -0.21413808 1.1526123 2841500
-0.021178028 -0.21649858 1.156135 2907551
0.010520807 -0.21623877 1.1555277 3105184
0.019737944 -0.21600901 1.1553531 3170722
0.029686363 -0.21615881 1.1551596 3302053
0.039827466 -0.21575867 1.1549693 3170723
0.050342672 -0.21499553 1.1547765 3105188
0.05965136 -0.21432105 1.152891 3170467
0.069183998 -0.21420705 1.1488221 3236258
0.079341799 -0.21089353 1.1467122 3171236
-0.065937646 -0.19885862 1.1492175 2906776
-0.059420943 -0.20120725 1.1502055 2907033
-0.050917275 -0.20236593 1.1537186 2841497
-0.041665211 -0.20660685 1.1566544 2775704
0.060755394 -0.20888638 1.1546531 3105443
0.069598436 -0.20901956 1.1544811 3105443
0.080422848 -0.20544899 1.1530542 3105956
0.088762976 -0.20265993 1.1493911 3105956
-0.076747306 -0.18771446 1.1495663 2644884
-0.069676749 -0.19142646 1.152384 2775705
-0.061300449 -0.19445816 1.1548519 2841497
0.084137499 -0.19818094 1.1543379 3172006
0.091810465 -0.19590186 1.1532186 3040421
0.097659826 -0.19360912 1.1506343 2974628
-0.085395038 -0.17879915 1.1498454 2645144
-0.078722194 -0.18070571 1.1527524 2710425
-0.073432922 -0.18352562 1.1541281 2776216
0.10126349 -0.18502626 1.1509233 3171493
0.10621466 -0.18283127 1.1477048 3237026
-0.088260539 -0.17077003 1.1525909 2710424
-0.081850447 -0.17312486 1.1563959 2710937
0.10433877 -0.17858157 1.1541963 3302823
0.11067007 -0.17455252 1.1509664 3172005
0.11649624 -0.17148903 1.1500506 3172006
-0.096807778 -0.15922686 1.1503122 2841498
-0.092357807 -0.16187525 1.1551175 2907290
0.11335094 -0.16765973 1.1541605 3303592
0.11962359 -0.1643554 1.1527478 3237544
0.12571141 -0.16001552 1.1460168 3303337
-0.098410077 -0.15076597 1.1521646 2973342
-0.093747124 -0.15403631 1.1583209 3038879
0.12338592 -0.15665618 1.1534393 3237544
0.12770468 -0.1536358 1.1488597 3303336
-0.10627076 -0.13908516 1.151749 2973342
-0.10016877 -0.14239728 1.1560909 2973600
0.13127582 -0.1445784 1.1501056 3368872
-0.10770234 -0.13121697 1.1532291 3039392
-0.102179 -0.13218915 1.1587591 3236259
0.13275449 -0.13518165 1.1519462 3500460
0.13710895 -0.13273375 1.1461416 3434923
-0.10864436 -0.12156601 1.1539053 3170978
0.13395026 -0.12628147 1.1529524 3500719
0.13861768 -0.12381009 1.1495595 3500718
-0.11509103 -0.11026751 1.1512823 3237029
-0.11118484 -0.11177083 1.1571897 3237286
0.13914429 -0.11499485 1.1524333 3697329
-0.11495665 -0.10148443 1.1513906 3237543
-0.11224731 -0.10118245 1.1588442 3172263
0.14049186 -0.10589711 1.1520168 3697843
-0.11505424 -0.091882452 1.1545146 3303340
-0.11286698 -0.090904616 1.1594861 3303852
0.14043365 -0.095454969 1.1525499 3764149
-0.11502587 -0.082082987 1.1516368 3500716
-0.11213415 -0.080858544 1.1595987 3501229
0.14350636 -0.085046425 1.1511931 3764661
-0.11453674 -0.074037351 1.151729 3566512
-0.11123011 -0.070718735 1.1560719 3632306
0.14067979 -0.074793689 1.1512761 3896764
-0.11048139 -0.061108876 1.1561788 3698357
0.13489251 -0.064692713 1.1537117 4291265
0.13860096 -0.065849304 1.1481004 4225217
-0.10874001 -0.052122429 1.155895 3764408
0.13580887 -0.055094767 1.1531484 4554434
0.13830151 -0.054784037 1.1471026 4488640
-0.1056059 -0.041466754 1.1567694 3895997
-0.10137544 -0.038369987 1.1599278 4027323
0.13556324 -0.044280473 1.1522894 4817354
-0.10398413 -0.031914085 1.1533911 3962044
-0.099877477 -0.030842967 1.1591938 4093118
0.12648505 -0.031849585 1.1556219 5014224
0.1317585 -0.03461203 1.1514844 4751563
-0.10275289 -0.021504276 1.1521651 4290235
-0.097783349 -0.021506801 1.1566039 4158908
-0.091502324 -0.019352235 1.1599777 4028609
0.12489507 -0.02476503 1.1539637 4817874
0.13148102 -0.024514899 1.1486163 5145287
-0.095339321 -0.014869049 1.1545068 4487616
-0.089837641 -0.012341239 1.1587005 4356800
0.11623071 -0.01211644 1.1540679 5276623
0.12245281 -0.015176415 1.1501942 5604813
0.13180856 -0.016517475 1.1485999 6720449
-0.087603502 -0.0054047108 1.1600786 5671109
0.11448459 -0.0065421015 1.1556008 5802961
0.12075961 -0.0073550716 1.1513734 6787017
0.038680427 0.010385655 1.157846 12972031
-0.016443068 0.021154113 1.157043 5869264
0.01593175 0.016994171 1.1583675 7515376
0.02341813 0.016512834 1.1582172 8764660
0.033015892 0.015926018 1.158025 10146554
0.03963238 0.014794327 1.1578833 10870005
-0.074142255 0.030409373 1.1522694 8028800
-0.069013759 0.030698188 1.1521742 7305855
-0.01199792 0.022206374 1.1589712 5671370
-0.0086817816 0.022156432 1.1589067 5869265
0.014531199 0.021806873 1.1584551 6988787
0.018952718 0.02174028 1.1583692 7185904
0.10530766 0.0292859 1.1568013 6314850
-0.067717507 0.035681285 1.1522121 8028802
0.10226672 0.032870121 1.1569052 6117979
0.078321658 0.043853335 1.1495029 5593178
0.08051718 0.043820269 1.1494601 5658970
-0.015672794 -0.21959662 1.1599909 2973083
-0.010143822 -0.22078946 1.1598694 2973595
-0.00069820695 -0.22050962 1.1603578 2973598
-0.035468474 -0.2082029 1.160516 2842012
-0.029111857 -0.20968558 1.1603749 2776219
-0.019781953 -0.21232545 1.1616861 2907806
-0.010179391 -0.21386956 1.1631161 2907807
0.00037094206 -0.21457121 1.1630795 2973599
0.0092333313 -0.21233235 1.1602697 3039136
0.020001873 -0.21151254 1.1607395 3170723
0.029966578 -0.21153501 1.1598805 3236770
0.039756976 -0.21121345 1.1590292 3170979
0.04880438 -0.21113633 1.1588559 3170980
0.055484973 -0.20957258 1.1587471 3171236
-0.04642459 -0.19916137 1.1608411 2842012
-0.039724089 -0.20154591 1.1621369 2842011
-0.030127821 -0.20396185 1.1629288 2842012
-0.021834726 -0.20555526 1.1642878 2907805
0.0246116 -0.20764643 1.1633669 3302309
0.030617718 -0.20656601 1.1621218 3302308
0.039244529 -0.20655808 1.1605983 3171236
0.049972974 -0.20727043 1.1588823 3171236
0.060649052 -0.20607822 1.1603588 3105443
0.070485398 -0.20429522 1.159525 3171492
0.077042423 -0.2025001 1.1584212 3040420
-0.067329451 -0.18775091 1.1613877 2841497
-0.058587581 -0.19063845 1.1617163 2907291
-0.05016616 -0.19343278 1.1628683 2907549
-0.043470554 -0.19474515 1.1648409 2907551
0.073753744 -0.19725269 1.1625518 3040420
0.080760166 -0.1954933 1.1605438 3106213
0.088578299 -0.19298363 1.1583191 3106214
-0.068694845 -0.18126798 1.1634964 2907290
-0.062124848 -0.18426491 1.1648324 2973340
0.085019954 -0.18851537 1.1624451 3302823
0.091054112 -0.18619162 1.1599575 3237030
0.097247899 -0.18288015 1.1600579 3237031
-0.085880168 -0.16749936 1.1620007 2841497
-0.077528343 -0.17111161 1.1623276 2842012
-0.07139685 -0.17347062 1.1646471 2907547
0.10253289 -0.17526433 1.1591973 3368361
0.10764775 -0.17207809 1.1582158 3237285
-0.087268576 -0.16156079 1.1621023 2973085
-0.080440454 -0.16192219 1.1647037 3039135
0.10493418 -0.16815376 1.1583176 3368615
0.11152182 -0.1649314 1.1589588 3237799
0.11612789 -0.16166493 1.1581838 3303337
-0.094465174 -0.14850749 1.1624056 2973857
-0.089061767 -0.1521382 1.1638117 3039137
-0.083096676 -0.15313911 1.1661292 3104930
0.11364958 -0.15747878 1.1602849 3172264
0.11988925 -0.15466562 1.1588666 3238059
-0.095511518 -0.14030136 1.1635296 3039650
-0.091528818 -0.14399379 1.1664071 3105700
0.12330479 -0.14499132 1.1604105 3369132
0.12747434 -0.14519233 1.1581733 3434410
-0.098122276 -0.13170734 1.1644028 3171236
0.12534036 -0.13691227 1.1615196 3500719
0.12872382 -0.1346442 1.1602829 3435183
-0.10511581 -0.11949839 1.162977 3302823
-0.10044485 -0.1215813 1.1655281 3171495
0.12963651 -0.12455778 1.1602107 3566514
-0.10670202 -0.1108567 1.1645715 3368873
-0.10300811 -0.11211045 1.1662304 3368875
0.13247244 -0.11539436 1.1592534 3697588
-0.10744382 -0.1017938 1.1659126 3303850
0.13423711 -0.10585318 1.1619691 3763892
0.13740587 -0.10517561 1.1584871 3698099
-0.10865157 -0.09155634 1.1649982 3435181
-0.102759 -0.092164077 1.1672776 3435438
0.13542229 -0.095750891 1.1626452 3829942
0.13822162 -0.095208965 1.1597403 3764149
-0.10746012 -0.081905387 1.1654971 3501229
0.13562664 -0.082393467 1.16281 3896505
0.13993524 -0.085314162 1.1605077 3830455
-0.10672008 -0.072049305 1.1651456 3632563
-0.10240138 -0.068788588 1.1675657 3567542
0.13332802 -0.075168245 1.1603733 4027837
0.13847531 -0.078784063 1.1587996 3896505
-0.10581139 -0.062001355 1.1650498 3829940
-0.10229921 -0.062109876 1.1676481 3699127
0.13199775 -0.065549374 1.1617588 4291009
-0.10524806 -0.051861644 1.1646334 3895737
-0.10149534 -0.05114729 1.167771 4027576
0.13243456 -0.055508312 1.1612103 4422849
-0.10397873 -0.045174643 1.1638932 4158911
-0.09939719 -0.041568916 1.165851 4093372
0.13251781 -0.045758519 1.1608316 4817355
-0.095514908 -0.032222115 1.1654326 4093630
-0.090658352 -0.028883927 1.1678433 4094397
0.12524547 -0.034909539 1.161831 5080014
0.12966667 -0.038152285 1.1594821 4883149
-0.093309507 -0.024623424 1.1639471 4028348
-0.088736989 -0.022153221 1.1653906 4028864
0.12089349 -0.025194354 1.1615928 4949202
-0.08502239 -0.012619831 1.1657577 4029123
-0.080728561 -0.010477223 1.1678843 3963586
0.11497807 -0.015250877 1.1627214 5146069
0.11830021 -0.019673288 1.1599343 5080276
-0.084130511 -0.0047894716 1.1640207 5342665
-0.076900244 -0.0027983412 1.1679076 4882633
-0.01340178 1.3768673e-005 1.1667202 6070261
-0.0067238007 -8.6791813e-005 1.1665903 6528744
-4.5821071e-005 -0.00018735975 1.1664604 8827627
0.015536131 -0.00042200834 1.1661574 10340848
0.024271375 -0.0011897683 1.1659795 8895736
0.031765446 -0.0020024553 1.1658249 6266608
0.1061281 -0.0023306087 1.1633884 5475287
0.1105229 -0.0058943182 1.1615916 5475028
-0.073374815 0.0031645149 1.1659144 5999306
-0.066698909 0.004173547 1.1657987 5540557
-0.058094755 0.0073872358 1.1650066 5803727
-0.045302682 0.0089063421 1.1674469 4950220
-0.036359705 0.0076470673 1.1672587 5016280
-0.026653809 0.0068946928 1.1666622 5411294
-0.016644208 0.0067531019 1.1646272 5806569
-0.0066263918 0.0065948144 1.1660726 7120874
0.0029826993 0.0071895346 1.1664952 12379901
0.013517892 0.006537728 1.1637572 13891069
0.023314349 0.0061598495 1.1628898 12969723
0.033287473 0.0062358081 1.1635832 9946095
0.043360919 0.0058475509 1.1637871 10013177
0.053119019 0.007584244 1.1633803 7449069
0.059843943 0.0093022436 1.1654269 5411552
0.10324864 0.0016204342 1.1619933 6526426
-0.04324834 0.013823733 1.1674693 6264275
-0.035691477 0.01454436 1.1648322 5803990
-0.026135916 0.015049055 1.1631542 5345755
-0.016112177 0.016159959 1.1629752 5412839
-0.0065055881 0.016602255 1.1632959 5676266
0.0025609937 0.01551529 1.1654654 7253489
0.012352416 0.015209213 1.1634153 8436213
0.022276014 0.012840591 1.162194 12051453
0.036763348 0.01706069 1.1619682 10082302
0.044590298 0.016203113 1.1618067 10607102
0.053060018 0.015230186 1.1616313 7515119
0.060113087 0.014493793 1.1628199 6068200
-0.0042087361 0.022115953 1.1628212 6001365
0.00022801571 0.022049136 1.1627349 6396124
0.11278797 0.026123822 1.1606185 6447199
-0.0065431576 -0.21016954 1.1679362 3039391
0.0010357667 -0.20973001 1.1692961 3039135
0.012442531 -0.21045545 1.167567 3104930
-0.035409212 -0.19856301 1.1686387 2776478
-0.029009422 -0.19957979 1.1705031 2842271
-0.019092137 -0.2013956 1.1724715 2907807
-0.0098859072 -0.20340002 1.1727829 2908063
0.00013854913 -0.2044144 1.1736817 2973600
0.010462994 -0.2035816 1.1730266 3105187
0.020376494 -0.20336838 1.1719186 3236773
0.030086588 -0.20216674 1.171066 3237029
0.041031346 -0.20241801 1.1709188 3171237
0.050621808 -0.20348385 1.1684201 3171236
0.060152747 -0.20206058 1.1676774 3105444
0.069003522 -0.20069396 1.1666009 3171493
-0.047402903 -0.18955104 1.1721842 2841758
-0.039325036 -0.19199008 1.172798 2907551
-0.03037948 -0.1932663 1.175434 2842271
-0.019691737 -0.19463053 1.1763877 2908064
-0.01296241 -0.19585669 1.1762426 2973857
0.0084016081 -0.19617842 1.1758271 3105444
0.021285284 -0.19537261 1.1755892 3237030
0.031311255 -0.19592953 1.1745888 3302823
0.040980145 -0.19529216 1.1742876 3171495
0.050352365 -0.19401807 1.1736548 3105703
0.060051955 -0.19442022 1.1732541 3105703
0.069827616 -0.19404572 1.1711701 3105702
0.078144312 -0.19163206 1.168254 3105958
-0.058591478 -0.18166485 1.1709459 2973598
-0.050540589 -0.1835608 1.1751211 2907551
-0.040641315 -0.18559784 1.1769052 2908065
0.071803406 -0.18571211 1.1747382 3237288
0.08058545 -0.18510047 1.1721317 3302823
0.089221105 -0.18315077 1.169005 3237287
-0.067798063 -0.17027202 1.1724774 3105183
-0.06032569 -0.1737992 1.1755503 2974112
-0.052024707 -0.17614678 1.1772437 2842786
0.082227826 -0.17839348 1.1746298 3171750
0.090885036 -0.17489707 1.1731735 3172008
0.098892838 -0.17320862 1.1687062 3303081
-0.075815149 -0.16044101 1.1705649 3104930
-0.069510035 -0.16293132 1.1764135 3170978
0.093526401 -0.16660857 1.174561 3303337
0.10128251 -0.1651777 1.1721791 3368873
0.10818089 -0.16393544 1.1688565 3237543
-0.085412346 -0.14753242 1.1729131 3040164
-0.07872685 -0.15140408 1.1738586 3105701
-0.072335169 -0.15596938 1.1778896 3302822
0.1030364 -0.15621075 1.174509 3303597
0.11039095 -0.15384007 1.1700325 3238059
0.11747792 -0.15086815 1.1682968 3303852
-0.087735124 -0.14117609 1.1741495 3106213
-0.079921722 -0.14338855 1.1781945 3172007
0.11150972 -0.14483812 1.1742895 3369387
0.11937666 -0.14467031 1.170339 3435181
-0.094777167 -0.13080163 1.171971 3237030
-0.08813256 -0.13162896 1.176167 3237800
-0.081764743 -0.13520597 1.1783333 3303594
0.11342458 -0.13882025 1.1745286 3500972
0.12183469 -0.13462812 1.1711686 3500976
0.12647016 -0.13173532 1.1663646 3500977
-0.095740467 -0.12155113 1.1738845 3237545
-0.091026649 -0.1233369 1.1777723 3303852
0.12383039 -0.12517937 1.1745003 3566772
0.12706985 -0.12550962 1.1704327 3566515
-0.098100916 -0.11180709 1.174192 3369389
0.12483291 -0.1156604 1.1746012 3763639
0.12811586 -0.1147138 1.1696597 3763639
-0.10470906 -0.097845763 1.1725782 3435181
-0.099332139 -0.10165441 1.1756656 3435438
0.12564503 -0.10458528 1.1747253 3895737
0.13053057 -0.10447496 1.1694548 3764149
-0.10408929 -0.091391303 1.1737146 3435438
-0.098650672 -0.092154779 1.177663 3501231
0.12573105 -0.098962553 1.1747947 3961530
0.13106979 -0.09499836 1.169564 3961528
0.13825339 -0.091694124 1.1666431 3895735
-0.10365488 -0.082153179 1.1744231 3501489
-0.099329241 -0.082031757 1.1772245 3501490
0.12600632 -0.080969833 1.1750164 4159679
0.13155329 -0.085671708 1.1701217 3962041
0.13828756 -0.089460276 1.1666707 3895735
-0.10403075 -0.074793488 1.1735229 3501747
-0.099123336 -0.071709991 1.1761348 3567541
0.1253542 -0.074586123 1.1751096 4225473
0.12896203 -0.075093374 1.1710325 4159424
-0.097214982 -0.06157326 1.175159 3764919
0.12524006 -0.065710947 1.1752238 4422597
0.12911634 -0.065006748 1.1711569 4357059
-0.096576311 -0.051807798 1.1750985 3896505
-0.09173584 -0.051820319 1.1795778 3962298
0.12527759 -0.055088367 1.1753572 4685767
0.12927066 -0.054920126 1.1712812 4422851
-0.095011123 -0.042682424 1.1733545 4027836
-0.089869283 -0.041060809 1.1785865 4028094
0.12352442 -0.044441681 1.1734071 4948684
0.1292987 -0.046364672 1.168388 4751818
-0.093221866 -0.034583434 1.1718218 4093632
-0.087486528 -0.031291924 1.1776006 4094399
0.11697818 -0.03396704 1.1757836 5080784
0.121181 -0.035038367 1.1708878 5211343
-0.084138364 -0.022881106 1.1761594 4094402
-0.077514239 -0.019949369 1.1787059 4226244
-0.070980117 -0.018388771 1.1796 4620744
-0.016990652 -0.018077001 1.1785642 5412064
0.0054977871 -0.018415652 1.1781268 6463211
0.013508469 -0.02237387 1.1779226 6397929
0.023202918 -0.021879092 1.1777421 6397929
0.032464251 -0.020107239 1.1775862 6003432
0.11406879 -0.024612971 1.173457 5081042
0.11912489 -0.027726538 1.1678189 5081041
-0.076134026 -0.012094557 1.1736437 4160963
-0.067943677 -0.011346653 1.178773 4752075
-0.052834526 -0.00853879 1.1793749 4949201
-0.046096593 -0.0092026591 1.1792368 5016022
-0.036548018 -0.010457955 1.1783702 5213659
-0.026744949 -0.01150281 1.177604 5411552
-0.01690547 -0.012438305 1.1778336 5740773
-0.0067848396 -0.012606673 1.1784368 6003172
0.0033261664 -0.012750953 1.1778401 6331366
0.01337173 -0.012844637 1.1750447 6989552
0.023478407 -0.013005964 1.1752481 6792432
0.033549435 -0.013142079 1.1744022 5937640
0.042092286 -0.012383543 1.1764979 5806054
0.052843936 -0.011255033 1.1773055 5674725
0.05960767 -0.010232076 1.177188 5674983
0.10538916 -0.013452321 1.1762657 5146841
0.11126398 -0.015532471 1.1704105 5080789
-0.072640918 -0.0036121905 1.1718165 4554184
-0.069124654 -0.0028756708 1.1747588 4751049
-0.053814307 -0.0028753504 1.1774647 4818129
-0.046389066 -0.0029750243 1.1765202 5015507
-0.036916636 -0.0030620322 1.1729358 5147609
-0.026836654 -0.0031933412 1.1714396 5346018
-0.017154293 -0.0037536249 1.1738579 5937898
-0.0067152828 -0.004660055 1.1738677 6462952
0.003732386 -0.0040586591 1.172785 8303605
0.013082569 -0.0042899624 1.1715859 8501495
0.022906546 -0.0054059103 1.1705692 7252467
0.034236729 -0.0050441176 1.1711949 6069484
0.043415688 -0.0041052923 1.1718915 6135528
0.053578734 -0.004680261 1.1747853 5741031
0.062999152 -0.0046458393 1.176193 5543655
0.072514653 -0.0035045668 1.1770244 5477092
0.082597084 -0.0023297071 1.1768451 5739747
0.093962401 -0.0027508289 1.1766208 5280481
0.10306893 -0.0054678097 1.1727179 5015513
0.10848174 -0.0074930266 1.1702797 4949463
-0.065837562 0.0029884726 1.1717687 4818122
-0.056391567 0.0038392544 1.1715975 5147606
-0.047693916 0.004453063 1.1714377 4818639
-0.03903424 0.0025848374 1.1712475 5344472
0.0056465138 0.0024705753 1.1703855 12971007
0.010105191 0.0018448234 1.1702918 12905215
0.034674898 0.0014748275 1.1698139 5807584
0.048076563 0.0012730062 1.1695533 6004710
0.054153867 0.0021390766 1.1694472 5807083
0.063022174 0.0044552907 1.1714394 5477863
0.071565852 0.0038599595 1.1738014 5542628
0.083392575 0.00065778196 1.1768675 5673698
0.09395951 0.0024760291 1.1751865 5804766
0.099449597 0.00049937516 1.1685541 5147865
0.066116326 0.012173198 1.1693434 5412324
-0.0062063802 -0.19892785 1.1800748 3039650
0.00023078546 -0.19966969 1.1799414 3039650
-0.026393684 -0.19072355 1.1805671 2842271
-0.019624302 -0.19082551 1.1804354 2973857
-0.0092944819 -0.19208814 1.1814841 2973857
0.00045225397 -0.19400342 1.1825356 3039395
0.011124178 -0.19222021 1.1816039 3171237
0.020435842 -0.19093339 1.1807295 3237030
0.030796025 -0.19054475 1.1810068 3302569
0.039126538 -0.19080886 1.1806378 3237546
-0.045896836 -0.17994988 1.1810787 2908065
-0.038336366 -0.18103111 1.1809194 2973857
-0.029664593 -0.18293795 1.1817286 2973857
-0.019928584 -0.18499959 1.182633 2973858
-0.011614813 -0.18597713 1.1843435 3105444
0.020082267 -0.18645446 1.1837269 3237030
0.03180309 -0.18512106 1.1835181 3302825
0.040733196 -0.1847966 1.1830424 3171754
0.050547145 -0.18544187 1.1811525 3171752
0.060882919 -0.18516678 1.1803685 3171753
0.069357961 -0.18217142 1.1798313 3237546
0.077593386 -0.17987476 1.1787014 3303592
-0.056927003 -0.17032491 1.1814126 2908579
-0.048730358 -0.1726431 1.183226 2908579
-0.038903542 -0.1742723 1.1839255 3105444
-0.030261157 -0.176184 1.1848261 3105443
0.064370334 -0.17806202 1.1829799 3303339
0.072410509 -0.1758931 1.1815188 3303082
0.080796733 -0.17388493 1.179287 3237545
0.086757332 -0.17098385 1.1786371 3303850
-0.06578023 -0.15890545 1.1817273 3302822
-0.059192248 -0.16333815 1.183795 3040165
-0.05209107 -0.16724882 1.1853594 3040167
0.07582929 -0.16917521 1.1828715 3303598
0.081933178 -0.1652602 1.1818619 3238061
0.090489417 -0.16330245 1.1797736 3303596
0.098195001 -0.16099858 1.178543 3369131
-0.075397097 -0.1482269 1.1820472 3171751
-0.069001779 -0.1519739 1.1832889 3368615
-0.062106207 -0.15577376 1.1856971 3171751
0.10013865 -0.15447086 1.1800883 3369134
-0.077263609 -0.14114495 1.1821727 3369130
-0.071118712 -0.14323463 1.1850287 3434922
0.10144187 -0.14484365 1.1817327 3435183
-0.078831218 -0.13253884 1.1836451 3434923
0.10430477 -0.13779335 1.181919 3501232
0.11109946 -0.13475552 1.1812146 3435694
0.11780647 -0.13307856 1.1785176 3501232
-0.086887389 -0.12126915 1.1836091 3369646
-0.081195869 -0.12512967 1.1851178 3435182
0.11499411 -0.12560049 1.1826673 3567282
0.1190645 -0.12510023 1.1804128 3567027
-0.095101058 -0.10842869 1.182929 3501231
-0.090524606 -0.11246237 1.1855407 3435439
0.11511537 -0.11767535 1.1827649 3829686
0.12022717 -0.1149175 1.180923 3829431
-0.095049269 -0.10504363 1.1829708 3501231
-0.090582266 -0.10189101 1.1845917 3567024
0.12268601 -0.10557944 1.1814381 3830201
-0.094833486 -0.090939216 1.1831447 3632818
-0.091577448 -0.091733404 1.1850724 3698612
0.1249525 -0.094994172 1.1808612 3896507
-0.094686754 -0.081348203 1.1832629 3633333
-0.09079206 -0.081637189 1.185985 3764919
0.1249346 -0.084778786 1.1804904 4093886
-0.095003396 -0.072540246 1.1833802 3633334
-0.090890817 -0.071708068 1.1865124 3830201
0.12209287 -0.075119659 1.1813895 4291523
-0.090339512 -0.061394896 1.1850982 3896506
0.12175175 -0.064621806 1.1809062 4619975
-0.086913273 -0.051895637 1.1851997 4028348
0.11610265 -0.053142089 1.1835605 5146320
0.12047666 -0.055416666 1.1824472 4883148
-0.085079469 -0.042490043 1.1838542 3962814
-0.080029987 -0.041238695 1.1863447 3963072
0.11521695 -0.044282548 1.182189 5146577
0.11891583 -0.045936037 1.1800964 5080527
-0.083571643 -0.033436641 1.1836536 4028607
-0.077326924 -0.03181012 1.1856878 4291526
-0.027354466 -0.030598119 1.1866078 5147865
-0.019879548 -0.030484207 1.1864653 5344731
-0.0035643354 -0.029823951 1.1861594 5345501
0.0032278951 -0.02992624 1.1860273 5739743
0.013345009 -0.032293983 1.1844689 5936862
0.022403801 -0.032442763 1.184626 5871068
0.032643579 -0.031501636 1.1854409 5739228
0.050773516 -0.030642234 1.1851026 5213656
0.11347502 -0.035372794 1.182235 4949970
-0.07547693 -0.024360344 1.1836123 4422856
-0.06693913 -0.019748665 1.1853247 4686797
-0.056551382 -0.018779077 1.1853187 4884690
-0.046151221 -0.020392574 1.1865985 4950486
-0.035726465 -0.021298386 1.1855527 5213659
-0.027213199 -0.02257517 1.1835055 5279707
-0.017065013 -0.023870297 1.1836939 5345244
-0.0068795569 -0.022390224 1.1834275 5411808
0.002956043 -0.0236497 1.1830201 5806052
0.012224273 -0.026903719 1.1818912 6068964
0.024252973 -0.027461059 1.1816525 6068963
0.034341201 -0.025243543 1.1824095 6003173
0.042838641 -0.023663752 1.1831429 5608417
0.053047463 -0.023834176 1.1835443 5411038
0.059933744 -0.023985639 1.1850102 5279709
0.10462165 -0.022890389 1.1832401 5212630
0.11017755 -0.026543446 1.181343 5015248
-0.063188776 -0.014105722 1.1835051 4949712
-0.056419395 -0.014207661 1.1833735 4949713
-0.046265319 -0.014360577 1.1831759 5016279
-0.036869153 -0.014878273 1.1829884 5213659
-0.028230896 -0.015760764 1.1828109 5345501
0.044548582 -0.01629246 1.1814026 5871590
0.053018942 -0.015855715 1.181245 5871847
0.063345768 -0.013803154 1.1830726 5543139
0.070651926 -0.012787536 1.1832304 5280225
0.095200151 -0.013192505 1.1844673 5411294
0.10098948 -0.014661856 1.1817911 5279196
0.072892442 -0.0076903924 1.1809653 5411556
0.082508296 -0.0061422735 1.1807997 5412066
0.093790598 -0.0063121766 1.1805803 5477344
0.10052545 -0.0086708218 1.1804208 5213404
0.0016217493 -0.18950179 1.1880451 3105189
-0.018594379 -0.18074372 1.1895453 3039906
-0.0089206565 -0.18302929 1.1897588 3039908
0.00063000806 -0.1843577 1.1914634 3105447
0.011198256 -0.18370819 1.188684 3105702
0.020283986 -0.18258667 1.187773 3171750
0.029273823 -0.18230888 1.1876034 3237289
0.040763989 -0.18062264 1.1874034 3237548
0.05098661 -0.18077657 1.1872046 3171752
0.060073383 -0.18091342 1.1870278 3171752
-0.046082005 -0.16886145 1.1892244 3039909
-0.038228795 -0.16972196 1.1899514 3105701
-0.03008342 -0.17251498 1.1914163 3105443
-0.020541428 -0.17807057 1.1926173 3040163
0.010243219 -0.17762214 1.1920301 3105960
0.021656822 -0.1766793 1.1918222 3105958
0.030759692 -0.17529503 1.1908641 3237545
0.041150033 -0.17437696 1.1895806 3237547
0.05118525 -0.17420892 1.188884 3237544
0.061251588 -0.17413431 1.1887753 3237545
0.069912426 -0.17226391 1.1876143 3303339
-0.057182647 -0.15926355 1.1895593 3172009
-0.048764631 -0.16258432 1.1917559 3105961
-0.039434485 -0.16496059 1.1931466 3171752
0.044593304 -0.16765103 1.1914943 3303337
0.051431231 -0.16775399 1.1913614 3303593
0.061540268 -0.16692907 1.1911771 3303594
0.070761032 -0.16443764 1.1897807 3303596
0.077551425 -0.16299689 1.1869174 3238062
-0.064435303 -0.15063259 1.1898079 3434409
-0.058668017 -0.15251729 1.1924973 3237547
-0.050344914 -0.15502819 1.193482 3237805
0.071858399 -0.15716788 1.1911017 3238318
0.081176035 -0.15436131 1.1898373 3238572
0.091268279 -0.1542781 1.1879636 3434926
0.097753219 -0.15375677 1.1866449 3369134
-0.066613682 -0.14158246 1.1911952 3435179
-0.060657777 -0.14371136 1.193379 3369388
0.085934773 -0.14775282 1.1909493 3500977
0.091589853 -0.14428647 1.1898839 3435186
0.096988209 -0.14435238 1.1867784 3500720
-0.07496696 -0.13071081 1.1912625 3566511
-0.069278114 -0.13369621 1.1927823 3566767
-0.06208092 -0.13640347 1.1939431 3500977
0.093179837 -0.1366832 1.1904495 3501234
0.10105103 -0.13432595 1.1875769 3501490
-0.084376551 -0.11738154 1.1906117 3566770
-0.077638157 -0.12209866 1.193023 3632306
-0.071058668 -0.12714794 1.1942329 3632563
0.10302022 -0.12571368 1.1894864 3699127
0.11044078 -0.1245121 1.1872405 3633076
-0.085480027 -0.11178847 1.1917038 3566770
-0.079432636 -0.11281516 1.1945751 3763892
0.10407895 -0.11667489 1.1909922 3633335
0.11074075 -0.11455055 1.1884457 3764407
-0.085422948 -0.10173076 1.1936301 3698868
-0.081066333 -0.10242299 1.1947378 3699126
0.10483188 -0.10471578 1.1911286 3962811
0.11134592 -0.10488791 1.1898341 3830969
0.11901117 -0.10518641 1.1868486 3830714
-0.086480051 -0.091735221 1.1918992 3699126
-0.081166528 -0.092414439 1.1948661 3830712
0.11220769 -0.09496709 1.1905096 4028606
0.12030096 -0.095142052 1.1869506 3962300
-0.085741833 -0.082268715 1.1926816 3830970
-0.080790855 -0.082051143 1.1949896 3962813
0.11262946 -0.085921913 1.1912158 4291522
0.12044533 -0.085582063 1.1874322 4094399
-0.085887037 -0.072198495 1.1929258 3962044
-0.080971986 -0.072602347 1.1951123 4093630
0.11437221 -0.075199813 1.1910508 4554438
0.11913354 -0.075970821 1.1872151 4357059
-0.085117124 -0.062161259 1.1926566 4093886
-0.080476977 -0.061535094 1.1952425 4291009
0.11268947 -0.064621747 1.1905943 4686026
0.11865579 -0.06476362 1.1873658 4685769
-0.083420694 -0.054903116 1.1913819 4159935
-0.078327544 -0.052546371 1.1941714 4225985
0.10559914 -0.054565459 1.191747 5015248
0.11161386 -0.055897597 1.188947 5014991
-0.075176366 -0.042766027 1.1934946 4292037
-0.069803171 -0.045083787 1.1952446 4619977
-0.046905443 -0.038588356 1.1948856 5279449
-0.038927853 -0.038708493 1.1947304 5016538
-0.026409084 -0.040037055 1.1944726 4950743
-0.016915241 -0.041856565 1.1942668 4950488
-0.0078179631 -0.041837085 1.1940918 5147351
0.0026434101 -0.041044585 1.1939003 5278422
0.013156745 -0.043506589 1.1927778 5212886
0.022499379 -0.042973995 1.1917431 5278423
0.032491893 -0.042293228 1.1920594 5147094
0.043408103 -0.042879943 1.1930921 4885460
0.052901432 -0.041509818 1.1921991 4950741
0.062031657 -0.041140895 1.1927555 5016279
0.10423345 -0.044673748 1.1904978 5212370
0.11155955 -0.045908917 1.1877403 5212369
-0.072990738 -0.035829838 1.1934223 4423370
-0.070876852 -0.032661572 1.1930214 4554187
-0.046367228 -0.033570379 1.1946719 5147610
-0.036533855 -0.032967769 1.1927563 5081818
-0.027465208 -0.035379179 1.1925513 5016538
-0.016292995 -0.034112372 1.1924855 5278938
-0.0071801823 -0.033643119 1.1923158 5344730
0.0032529021 -0.034665577 1.191035 5673948
0.013421743 -0.037045524 1.1897422 5805277
0.022508519 -0.037182361 1.1895655 5541848
0.03274852 -0.036200322 1.1893808 5475544
0.043005899 -0.034082331 1.1892099 5213397
0.053661704 -0.034874558 1.1897007 5082070
0.063394487 -0.034260295 1.1912156 5016536
0.072394498 -0.032241747 1.1926682 5213915
0.083154775 -0.031426623 1.1924713 5279453
0.09408848 -0.032047279 1.1922529 5213659
0.1034475 -0.035088412 1.1904337 5212628
0.11002087 -0.035091534 1.1879065 5146833
-0.070491903 -0.026691996 1.191489 4554443
-0.045248292 -0.025254168 1.191021 5016281
-0.037992775 -0.026272409 1.1908684 5147611
-0.0068844687 -0.027649872 1.1902519 5411294
0.063986167 -0.024172202 1.188931 5148123
0.072709911 -0.024310611 1.1889613 5213915
0.082769111 -0.024710864 1.190302 5213917
0.093534522 -0.024814248 1.1906701 5213659
0.10147312 -0.026642144 1.1885113 5212887
0.094379701 -0.017812498 1.1884259 5279708
0.098923087 -0.017880917 1.1883376 5411037
-0.014824891 -0.17896119 1.1974972 3106213
-0.0091028102 -0.17904736 1.197386 3105959
0.0021678507 -0.17987126 1.1971585 3105706
0.012641089 -0.17937481 1.1969631 3105960
-0.025591781 -0.17193022 1.1977934 3105700
-0.018169185 -0.17330176 1.1983833 3105957
-0.0090090986 -0.17343971 1.1982051 3106216
0.0013129655 -0.17372659 1.198853 3106217
0.011956179 -0.17336938 1.1984811 3171752
0.01985281 -0.17298996 1.197996 3303337
0.031091824 -0.17049421 1.1967199 3369130
0.037958317 -0.17059761 1.1965863 3369132
-0.038012572 -0.16053385 1.1985098 3171753
-0.028331691 -0.16312489 1.200678 3171752
-0.018006219 -0.16358942 1.2025539 3172010
-0.0088249464 -0.16501954 1.2033093 3172012
0.0012318632 -0.16476575 1.2039144 3237802
0.011897173 -0.1642172 1.2031704 3303338
0.021102 -0.16438648 1.203191 3369133
0.031384561 -0.16428486 1.2012738 3369388
0.041508734 -0.16409245 1.2003906 3303853
0.050770551 -0.16302994 1.1981856 3369643
0.060858645 -0.16235662 1.1964847 3303851
-0.055568591 -0.14858271 1.1986654 3303598
-0.047471933 -0.15155527 1.2001867 3303341
-0.03887058 -0.15347244 1.2034264 3303340
-0.02949545 -0.15509325 1.2060832 3369132
-0.021355333 -0.15710162 1.205901 3303600
0.012053609 -0.15760472 1.2052513 3303598
0.024725966 -0.15779556 1.2050048 3435186
0.03221418 -0.15790832 1.2048593 3369391
0.042006455 -0.15805578 1.2046688 3369392
0.051849432 -0.15527999 1.2038987 3369390
0.06136287 -0.1543045 1.2001423 3435184
0.070698276 -0.1527738 1.1961807 3369392
-0.056398161 -0.14157599 1.1995701 3369646
-0.049212076 -0.14407149 1.2042015 3303853
-0.041950911 -0.14757207 1.206418 3173034
0.053926401 -0.14717202 1.2045766 3566773
0.062117167 -0.14597663 1.2037671 3566516
0.071898267 -0.14420044 1.200667 3500977
0.081750333 -0.14496428 1.1977512 3500975
-0.066395603 -0.12944861 1.1991154 3632562
-0.05750899 -0.13269907 1.2019041 3501236
-0.04991211 -0.13305463 1.20631 3501494
0.074332304 -0.135206 1.2043346 3698612
0.08184626 -0.13562541 1.2018204 3567283
0.090691246 -0.13327894 1.1989759 3567283
0.098098308 -0.13029033 1.1959368 3501747
-0.073441483 -0.11969343 1.1993742 3895478
-0.067851551 -0.12235092 1.2017337 3698613
-0.05889976 -0.12349964 1.2057146 3633080
0.075873695 -0.12860279 1.2043883 3699128
0.082480237 -0.12551095 1.2043 3830713
0.091941275 -0.12524925 1.2029209 3699126
0.098654136 -0.12388778 1.196007 3633333
-0.074626826 -0.11166195 1.1994984 3961271
-0.067792535 -0.11229053 1.2043602 3896247
-0.061041914 -0.1150167 1.2071966 3764921
0.082480185 -0.11856094 1.2043878 3962300
0.093369707 -0.11620632 1.2037371 3896506
0.10083207 -0.11434928 1.198086 3764920
-0.075817659 -0.10234407 1.2011395 3830712
-0.068854943 -0.10209292 1.2061765 4093627
0.096509054 -0.10540408 1.2042837 4028352
0.10180786 -0.10480782 1.1988544 3962812
-0.076050177 -0.092029884 1.2017742 3962556
-0.069526061 -0.093335986 1.2071891 4028606
0.096141562 -0.094993807 1.2044222 4357317
0.10247178 -0.095226564 1.2002963 4225985
0.10784898 -0.09151379 1.1962385 4225985
-0.075420849 -0.083030313 1.2018757 4028606
-0.070544399 -0.083374016 1.207779 4094655
0.096791081 -0.086969547 1.2045109 4554695
0.1025696 -0.084839009 1.1998254 4554182
0.10874032 -0.083131976 1.1963272 4619462
-0.075969629 -0.07234925 1.2004912 4159424
-0.067860931 -0.071565941 1.2066453 4160448
-0.061506495 -0.070065171 1.207773 4554440
0.097456366 -0.073611446 1.2046667 4620747
0.10296772 -0.074683413 1.2022965 4686026
0.10923856 -0.075507447 1.1964138 4619977
-0.075210966 -0.062690735 1.2001278 4291265
-0.06704884 -0.062889919 1.2052195 4357573
-0.061400734 -0.063152216 1.2078582 4751563
0.012754489 -0.061579943 1.2064499 4818903
0.020446457 -0.060927495 1.20631 4819160
0.095743552 -0.06505771 1.2048078 4752590
0.10310609 -0.065483242 1.20241 4817869
0.1082167 -0.067478433 1.1965349 4752076
-0.073077351 -0.053136699 1.2002074 4291778
-0.067006432 -0.052571498 1.2036774 4554440
-0.061277345 -0.055087108 1.2079576 4883149
-0.042661302 -0.048243586 1.2036844 5674209
-0.036920175 -0.048330043 1.2035728 5082331
-0.025567165 -0.051363491 1.205183 4950745
-0.016324533 -0.053208202 1.2025144 4884953
-0.0071432125 -0.053334855 1.2021359 4753366
0.0032226844 -0.052408956 1.2031482 4884692
0.013765749 -0.054180101 1.2020782 4884692
0.022547005 -0.053598043 1.2025716 4884692
0.03280706 -0.05259233 1.2048435 4950484
0.043694247 -0.05368467 1.2028418 4950488
0.052494586 -0.053569485 1.2036674 4950489
0.063140996 -0.05229523 1.2045298 5411037
0.072145335 -0.052198537 1.2054245 5542623
0.086288579 -0.050394785 1.2051749 5213404
0.094020732 -0.053392287 1.2049881 5081558
0.10224654 -0.055727221 1.2023996 5015248
-0.067685634 -0.042751107 1.2002345 4685772
-0.04543706 -0.042635668 1.2008988 5542365
-0.036471173 -0.042951718 1.2007741 4951002
-0.027746493 -0.044095937 1.1994485 4884951
-0.018515779 -0.046108264 1.1992452 4753366
-0.0047652759 -0.045170534 1.1989923 4950484
0.0040995665 -0.045590226 1.1988163 5015763
0.034127347 -0.046901025 1.1982214 5015764
0.04099384 -0.047004428 1.1980879 4885461
0.052943476 -0.046203122 1.1978679 4884950
0.063781567 -0.045325443 1.1995169 5082072
0.073229507 -0.044365186 1.2023017 5542624
0.082835436 -0.045697317 1.2045004 5279197
0.092949547 -0.0445663 1.2015193 5213144
0.10013367 -0.047131822 1.1969473 5212627
0.067455493 -0.038244482 1.1976888 5016538
0.073203832 -0.036613837 1.1975987 5213917
0.082778566 -0.034277618 1.1974438 5345245
0.093103424 -0.036751252 1.1978806 5213917
0.18438761 -0.040347837 1.2034124 13158081
-0.0086835325 -0.16017236 1.2096194 3303598
0.0040307175 -0.16036382 1.2093722 3303850
-0.036954522 -0.14910924 1.2103035 3303853
-0.027204426 -0.15085667 1.2104509 3304111
-0.017635429 -0.15314133 1.2119864 3303857
-0.0085525215 -0.15361084 1.2124504 3303856
0.001877225 -0.15380241 1.2124972 3369903
0.0122454 -0.15239388 1.2093146 3435441
0.021295667 -0.15344299 1.2091269 3435187
0.031780407 -0.15296336 1.2089311 3500978
0.042297266 -0.15284643 1.2087301 3369649
0.049025893 -0.15132904 1.2086196 3435441
-0.045008101 -0.14151101 1.2105545 3370159
-0.038470127 -0.14238028 1.2104176 3370416
-0.028078241 -0.14282739 1.2124624 3436469
-0.017658604 -0.14334106 1.215006 3502005
-0.0083737932 -0.1434809 1.2148254 3501749
0.0020183465 -0.14712037 1.2145793 3501493
0.01248455 -0.14362958 1.2131715 3567542
0.021792237 -0.14389381 1.2139267 3567541
0.032181121 -0.14389455 1.2125388 3633333
0.042485505 -0.14371811 1.2097794 3567541
0.05107262 -0.14310615 1.208684 3633079
0.061140276 -0.14107233 1.2085158 3632566
-0.045263685 -0.13302809 1.2106665 3501750
-0.038364984 -0.13343367 1.2130291 3567798
-0.029930143 -0.13413623 1.2153585 3633848
-0.016409216 -0.13755491 1.215055 3633591
-0.0094456039 -0.13765977 1.2149196 3699128
0.012623581 -0.13683112 1.214505 3830714
0.023068994 -0.13698843 1.2143018 3764921
0.032579355 -0.13618173 1.2141289 3830712
0.04313954 -0.13542169 1.2135779 3830713
0.051846161 -0.13524884 1.2131028 3830458
0.062138334 -0.1351134 1.2109408 3764409
0.070249073 -0.13367751 1.2089894 3764407
-0.054113008 -0.12202624 1.2109758 3698874
-0.047466733 -0.12283848 1.2130882 3764923
-0.038868248 -0.1236945 1.2156625 3765435
-0.032515571 -0.12802438 1.2154855 3699641
0.061106287 -0.12943426 1.2136647 3896252
0.071250118 -0.12508589 1.2109045 3831226
0.078570463 -0.12448685 1.2083894 3830458
-0.05659309 -0.11255319 1.2119328 3896508
-0.047372542 -0.1127077 1.2159649 4028352
-0.039491102 -0.11352299 1.2158029 4094143
0.072653942 -0.11518871 1.2100497 4159936
0.081967168 -0.11405481 1.2084557 4028352
0.090021186 -0.11280788 1.2083163 3962559
-0.06445317 -0.10267705 1.2114192 4093628
-0.057538949 -0.10285471 1.212034 4028352
-0.047222413 -0.10339256 1.215767 4094401
-0.040474124 -0.10189823 1.2159685 4225986
0.074302204 -0.10606568 1.2123415 4357317
0.082571268 -0.10516152 1.2113695 4225732
0.091357738 -0.10479219 1.2083918 4159938
-0.065294832 -0.092918977 1.2115586 4028609
-0.057091884 -0.093131885 1.2127619 3963330
-0.047691368 -0.093375742 1.2162151 4160708
-0.041320913 -0.096544899 1.2160524 4292035
0.07714922 -0.092523985 1.2138216 4620236
0.082531109 -0.095319547 1.2122934 4488649
0.090922572 -0.096033834 1.2085108 4357318
-0.066294037 -0.082663 1.2117072 4160449
-0.057626419 -0.083016559 1.2152325 4160708
-0.048314206 -0.083204232 1.2163554 4489161
0.083787955 -0.086065471 1.2127036 4555212
0.092008665 -0.084914774 1.2086301 4620489
-0.15820426 -0.07272581 1.2186041 14082013
-0.064805187 -0.075307548 1.2117715 4226242
-0.056620687 -0.073172018 1.2141414 4620234
-0.049447246 -0.071267612 1.2165279 5079759
-0.015397007 -0.071393386 1.2158706 6791922
-0.0072550438 -0.070354998 1.215727 5608162
0.0031903703 -0.070512295 1.2155237 5016279
0.013251519 -0.072679974 1.2139387 5608413
0.021751113 -0.071372308 1.2151555 4950485
0.028723603 -0.070896804 1.2150272 5016277
0.086700402 -0.075252876 1.2138556 4752847
0.092539802 -0.075311966 1.2105063 4620747
-0.057186857 -0.064235844 1.2127647 4948687
-0.046679981 -0.067439303 1.2165231 5408980
-0.025110105 -0.064607263 1.2142198 6134248
-0.016456803 -0.064254433 1.2134805 5344990
-0.0075202845 -0.064577982 1.2136616 4884696
0.003645909 -0.064790592 1.2135278 4818902
0.014027044 -0.066165671 1.2103686 4818646
0.023183566 -0.065228641 1.2109185 4818646
0.033316702 -0.064954259 1.2117629 4884696
0.043408699 -0.064612508 1.2116085 5344733
0.052650206 -0.06472823 1.2110718 5936870
0.062433295 -0.064386927 1.2136266 5608416
0.071554489 -0.063647032 1.2142938 5082072
0.084280826 -0.064576201 1.2110362 5016278
0.090561405 -0.06616199 1.2088947 4884178
-0.025620701 -0.05816872 1.2112331 5082331
0.0032753227 -0.058603872 1.2106712 4687574
0.026392143 -0.058951989 1.2102215 4687574
0.034328014 -0.05841079 1.2100755 4819159
0.041418076 -0.05917827 1.2099293 4950233
0.054132327 -0.059369735 1.209682 5542369
0.062885001 -0.05821684 1.209528 5805540
0.07576108 -0.056226745 1.2093052 5213659
0.083081409 -0.056336988 1.2091628 5147866
0.09191338 -0.058397043 1.2089667 5081557
0.0021592826 -0.14299262 1.2186297 3633335
-0.025201166 -0.13199143 1.2192955 3699641
-0.01768606 -0.13255309 1.2191437 3765177
-0.0079428758 -0.13289492 1.2205993 3830714
0.0023525394 -0.13402161 1.2216201 3962299
0.012833342 -0.13158336 1.2192351 4028092
0.021630049 -0.13250323 1.218673 3962300
0.031155176 -0.13228993 1.2189339 3962299
0.040760584 -0.13115069 1.2202587 3962299
0.05313421 -0.1302485 1.217809 3896509
0.062922381 -0.12992997 1.2176244 3830714
-0.034781143 -0.12146981 1.2196128 3962813
-0.028216103 -0.1233206 1.2212414 3962813
-0.017241573 -0.12472918 1.223235 4028350
-0.0080345329 -0.12699257 1.2230291 4093886
-0.0010252241 -0.12709813 1.2228929 4093886
0.013047017 -0.12380421 1.2226634 4291263
0.022392765 -0.12394495 1.2224816 4291265
0.031738505 -0.12408569 1.2222999 4291265
0.042252474 -0.12424402 1.2220954 4225471
0.052616455 -0.1241183 1.2193967 4159424
0.061847046 -0.12408976 1.2177188 4028351
-0.03580302 -0.11213598 1.2197504 4159681
-0.030239636 -0.11400755 1.2225295 4159937
0.013172138 -0.11562578 1.2227643 4685507
0.02276583 -0.11483537 1.2225895 4685766
0.031644285 -0.11496907 1.2224168 4685768
0.043665014 -0.11523508 1.2221819 4685254
0.052894033 -0.11502846 1.2217567 4553924
0.062005468 -0.11479916 1.2180831 4357059
0.067847274 -0.11253206 1.2177492 4291524
-0.036655761 -0.10419441 1.2202004 4291267
-0.030802855 -0.10343345 1.2229648 4291525
0.023793351 -0.10877404 1.2226461 5080013
0.03080266 -0.1088796 1.2225099 5013964
0.046060994 -0.10443491 1.2222722 5014215
0.053070307 -0.10454047 1.2221358 4948424
0.062361717 -0.10460081 1.2211559 4686025
0.069957033 -0.10409506 1.2194155 4554696
-0.043633193 -0.091051564 1.2201673 4423366
-0.038101539 -0.09331657 1.2218994 4489158
-0.032102376 -0.096246146 1.2238808 4554697
0.04622186 -0.093919799 1.2224017 6725605
0.053461239 -0.09426254 1.222258 5541334
0.06257692 -0.094166093 1.2220837 4949456
0.072510265 -0.095456347 1.2203518 4752076
-0.044655077 -0.08171773 1.2203047 4751821
-0.038891122 -0.083182544 1.2228427 4817612
-0.013160644 -0.08017078 1.2237189 6133729
-0.010824209 -0.080205962 1.2236735 5804510
0.013696458 -0.081354305 1.2231867 6726116
0.021885902 -0.08069855 1.2230372 6791913
0.034736298 -0.080892071 1.2227874 5673696
0.043385368 -0.084138624 1.2225798 5344728
0.054542392 -0.084696181 1.2223579 5475805
0.062719919 -0.084819324 1.2221988 5147095
0.073140025 -0.084881447 1.2207971 4949712
0.081710108 -0.081873477 1.2178692 4621777
0.19010931 -0.083231859 1.2197655 11781308
-0.046894811 -0.075859979 1.2204219 4883150
-0.037937984 -0.074053518 1.2202722 6001884
-0.027046403 -0.072664462 1.2200799 6133474
-0.015438644 -0.075755104 1.2214178 6067939
-0.0075918268 -0.075157285 1.220765 6594284
0.0034490405 -0.074052855 1.2205663 6002915
0.01434245 -0.077481039 1.2192221 6857704
0.023402948 -0.075609788 1.219738 6397928
0.032629363 -0.075099722 1.2207671 6397674
0.041673005 -0.075430311 1.2211223 6002659
0.053686343 -0.075338162 1.2214255 5476060
0.062746495 -0.075347796 1.2205675 5213402
0.073297143 -0.076738149 1.2212969 5081814
0.083331838 -0.075804785 1.2185302 4818898
