# .PCD v0.7 - Point Cloud Data file format
VERSION 0.7
FIELDS x y z rgba
SIZE 4 4 4 4
TYPE F F F U
COUNT 1 1 1 1
WIDTH 174
HEIGHT 1
VIEWPOINT 0 0 0 1 0 0 0
POINTS 174
DATA ascii
-0.35346347 0.097161338 1.084655 5134174
-0.34678736 0.096627831 1.0864404 5134176
-0.35463193 0.10170721 1.0843357 4871515
-0.36042947 0.078477077 1.0900676 4936281
-0.35008419 0.07759317 1.0928344 5199967
-0.34542674 0.078352563 1.0940781 5397348
-0.36920434 0.083837807 1.0874032 4673880
-0.36125031 0.084519155 1.0875436 4870232
-0.35232332 0.086082481 1.09067 5068382
-0.34315521 0.087980136 1.0936823 5068384
-0.33615759 0.090727463 1.0965366 4476504
-0.37065098 0.093116418 1.0855875 4607822
-0.36355725 0.094235286 1.0861019 4673623
-0.35295361 0.095205382 1.0889348 5134174
-0.34312931 0.097713113 1.0915569 4739419
-0.33598632 0.098690026 1.0947957 4081746
-0.37251416 0.10136521 1.086802 4410445
-0.36392781 0.10372204 1.0859882 4213839
-0.35415909 0.10583349 1.0885961 4345429
-0.34447852 0.10699376 1.091182 4016211
-0.33695102 0.10792086 1.0943871 3621193
-0.3641572 0.10919354 1.0859184 3884109
-0.35534066 0.11162501 1.0882714 3752784
-0.34537798 0.11318087 1.090932 3621192
-0.33825418 0.11323877 1.0928361 3686459
-0.36931404 0.065152332 1.098508 4673626
-0.36068791 0.065511413 1.0978732 4870741
-0.35181656 0.065784372 1.100435 5265754
-0.34237662 0.068056792 1.1032315 5397604
-0.33539808 0.072094917 1.1081547 4608350
-0.37059438 0.073899604 1.0940857 4673629
-0.36181366 0.07367754 1.0941905 4870744
-0.3534264 0.073442794 1.0960877 5134174
-0.34210938 0.077337712 1.0997819 5397606
-0.33539048 0.07940954 1.1058869 4476760
-0.33058017 0.084382586 1.1094236 4015442
-0.37961984 0.080996461 1.0963203 3883351
-0.37495464 0.081543759 1.0921838 4475995
-0.34203032 0.083925471 1.0991178 5068641
-0.33428502 0.088504747 1.1033057 4082513
-0.32991356 0.090568699 1.1090746 3752531
-0.37728834 0.091228977 1.0903029 4079443
-0.33360156 0.097812459 1.1029021 3621705
-0.32973176 0.096178412 1.1071478 3751503
-0.33587307 0.10505246 1.100731 3490378
-0.35858914 0.048892226 1.1133776 5002588
-0.35553208 0.049369644 1.114194 5528419
-0.37015927 0.056793403 1.1102726 4739163
-0.36205652 0.055030193 1.1093935 5002333
-0.3529236 0.056144774 1.1117755 5397092
-0.34476477 0.059527501 1.115356 5332066
-0.33958882 0.061567537 1.1184368 4740695
-0.37073863 0.060508177 1.1046777 4082256
-0.36347821 0.06040252 1.1048071 5068120
-0.34218088 0.064348772 1.1125642 5200736
-0.33536804 0.068902232 1.1165897 4345175
-0.329458 0.071874015 1.1205375 4278096
-0.33332008 0.078679152 1.1137276 4147028
-0.32970443 0.078939132 1.1189212 3819087
-0.33000258 0.086347155 1.1149575 3687502
-0.35284793 0.038188402 1.126315 5528423
-0.34880924 0.039363749 1.1273928 5397348
-0.36245593 0.044420727 1.1182165 4804702
-0.3532154 0.045632314 1.1200846 5462626
-0.34498703 0.047673102 1.1249512 5003105
-0.33800849 0.052394658 1.1277754 4804440
-0.37300396 0.053009067 1.1167639 3817824
-0.36573163 0.050192505 1.1145717 4673622
-0.35040542 0.052585974 1.1186647 5660265
-0.34356976 0.055226676 1.1204879 5069150
-0.33585808 0.059360169 1.1246132 4475986
-0.33127415 0.064413838 1.1258307 4014924
-0.3335515 0.066033654 1.1231492 4606547
-0.3285509 0.069295987 1.1249983 3620428
-0.35993004 0.030470176 1.1316795 4079956
-0.35288906 0.030477498 1.1311957 5266270
-0.34794515 0.031793833 1.1348811 5002845
-0.3630496 0.036138814 1.1287668 4079963
-0.35488632 0.034703743 1.1288809 5330781
-0.34557456 0.038473837 1.1330689 5002331
-0.34285977 0.044882301 1.1320798 5001816
-0.33959049 0.048326567 1.1341906 4540755
-0.33600304 0.055782523 1.1338959 4213074
-0.35574889 0.020849798 1.1452335 5265766
-0.35689157 0.025079818 1.141964 5068639
-0.34868923 0.028015912 1.1436591 4214103
-0.36427814 0.030058585 1.1346585 1580089
-0.34447083 0.035030823 1.1406354 4145996
-0.34251389 0.041156508 1.1404589 4212054
-0.36251003 0.018855153 1.1465344 3618132
-0.35710695 0.018588481 1.1479791 5199718
-0.35097057 0.020657249 1.1496162 4214875
-0.34797508 -0.038771436 1.1670705 528927
-0.34298649 -0.038667906 1.1684037 1517876
-0.34550506 -0.048571404 1.1801673 4419983
-0.36041963 -0.044082638 1.1741034 1651559
-0.35451424 -0.042514753 1.1724262 1782104
-0.34204197 -0.043195862 1.1735802 4154236
-0.33859155 -0.039052501 1.1784517 3028033
-0.35405406 -0.035119988 1.1778613 2369321
-0.34563935 -0.034059089 1.1763825 2040105
-0.3556968 -0.016138274 1.1732525 4146252
-0.36200729 -0.048893549 1.1840374 5077683
-0.35477963 -0.050430905 1.1845917 4617364
-0.34572011 -0.0493978 1.1870117 4549258
-0.34074539 -0.043280628 1.1855718 6582660
-0.36360636 -0.037720587 1.1794524 7695014
-0.35696301 -0.032874089 1.1819108 2040625
-0.349226 -0.03045322 1.1832851 2172202
-0.34204325 -0.034353115 1.1852111 2760198
-0.35710427 -0.059676036 1.1936456 4683677
-0.35165891 -0.058825642 1.1950998 3831442
-0.36508742 -0.054001834 1.1903199 3299734
-0.35767347 -0.055135373 1.1908517 4683420
-0.34965599 -0.054350983 1.1939721 3960460
-0.35657978 -0.13270271 1.2073549 3829135
-0.34888268 -0.13101335 1.2094098 4223637
-0.34287044 -0.13052845 1.2110162 3960467
-0.35870704 -0.12355076 1.2067722 3498881
-0.35061997 -0.12184162 1.2085172 3895695
-0.34341305 -0.11935315 1.2108538 3631246
-0.35943288 -0.11247651 1.2034558 3499128
-0.35239464 -0.11218848 1.2053367 4025235
-0.34460106 -0.10992823 1.2093388 3499655
-0.35968432 -0.10311382 1.2013038 3826560
-0.35336894 -0.10215241 1.2035081 4156303
-0.34632459 -0.10150368 1.2079779 3630985
-0.36159664 -0.093664676 1.2038834 3893387
-0.35493729 -0.092371918 1.2040514 4157333
-0.34851709 -0.090773366 1.2078928 3762828
-0.36170962 -0.085025154 1.2059101 3762325
-0.35568801 -0.08164157 1.2037191 4420507
-0.35032767 -0.08087638 1.207566 3828877
-0.36479837 -0.071523279 1.2050637 4222878
-0.35671133 -0.072274745 1.2033621 4552347
-0.35149339 -0.071758009 1.2077924 3631755
-0.36616138 -0.063967727 1.198891 3627913
-0.35712191 -0.064375937 1.1991687 4683676
-0.35122454 -0.062029984 1.2037841 3892613
-0.35060579 -0.054091163 1.2005496 3563127
-0.35810331 -0.14266549 1.2125823 3033484
-0.35062009 -0.14239958 1.2170613 2897991
-0.34098539 -0.14010358 1.2191256 3891064
-0.33431357 -0.13822939 1.2226313 2638186
-0.36288974 -0.13427842 1.2098112 666715
-0.35215259 -0.1348732 1.2126822 4813457
-0.33959806 -0.12993112 1.2160305 3499654
-0.33371291 -0.12874021 1.2214153 3561592
-0.36515918 -0.12310779 1.2091873 6722
-0.34109476 -0.1205189 1.2156159 3694979
-0.33537173 -0.11928668 1.219214 3233144
-0.34108442 -0.10999443 1.2156024 3104639
-0.33743432 -0.10928066 1.2198704 2640231
-0.34314325 -0.10049462 1.2150373 2907007
-0.34013528 -0.099961184 1.2205456 3099492
-0.36633307 -0.09172257 1.2088251 4089741
-0.34499419 -0.091075853 1.2148978 3496061
-0.34223425 -0.089318894 1.2204386 4278874
-0.36528739 -0.083374828 1.2090918 2972810
-0.3473734 -0.080938898 1.2152879 3757171
-0.3445116 -0.081456393 1.2198178 3748927
-0.36501387 -0.07748609 1.2091558 3630740
-0.34750745 -0.07358294 1.2138293 3953004
-0.35166919 -0.14866059 1.2221487 984897
-0.34221277 -0.14325756 1.224668 4350584
-0.33599696 -0.11798429 1.2269807 4674411
-0.33788347 -0.10956623 1.2288786 6974583
-0.34115246 -0.098859988 1.2279884 3815753
-0.37228099 -0.092985831 1.2165531 5799072
-0.34095719 -0.089271918 1.2249204 5064001
-0.33821478 -0.1238606 1.2391632 7039097
-0.33956662 -0.11818001 1.2398282 7565430
-0.341389 -0.1097124 1.2389829 8223350
-0.3416416 -0.10158728 1.2340724 9076613
