# .PCD v0.7 - Point Cloud Data file format
VERSION 0.7
FIELDS x y z rgba
SIZE 4 4 4 4
TYPE F F F U
COUNT 1 1 1 1
WIDTH 1129
HEIGHT 1
VIEWPOINT 0 0 0 1 0 0 0
POINTS 1129
DATA ascii
-0.082686402 -0.19499224 1.1347694 2513045
0.12037244 -0.1911407 1.1300501 4617903
0.12736292 -0.19113964 1.1269768 10929103
-0.097662523 -0.18059449 1.1323879 2971544
-0.09172032 -0.18432322 1.1328539 2774929
0.12238177 -0.18186627 1.1293329 2909086
0.12724006 -0.1809077 1.1269051 3105187
-0.10529614 -0.16745551 1.1309749 2709911
-0.10060478 -0.17247269 1.1332804 2644371
0.1287144 -0.1710797 1.1274232 3368356
-0.10763137 -0.16084035 1.1327873 2775444
-0.10262408 -0.16493043 1.1335758 2709910
0.13309585 -0.16118243 1.1282579 3368613
0.13725667 -0.15820573 1.1265615 3499683
-0.11089826 -0.15229043 1.1324658 2841497
0.13489594 -0.15369877 1.130572 3237027
0.13956164 -0.15098271 1.1278015 3302821
-0.11691002 -0.14073932 1.1315614 2645144
-0.11337023 -0.1424281 1.1340503 2775964
0.1426404 -0.14102559 1.1285231 3237542
0.14669281 -0.13742977 1.1275759 3106215
-0.11877177 -0.13234431 1.1324173 2907291
0.14396875 -0.13146257 1.1289151 3499683
0.14703184 -0.12947598 1.1273217 3303338
-0.11979585 -0.1224174 1.1333095 3039134
0.14860353 -0.12097417 1.1275011 3499947
-0.12506598 -0.10816451 1.1309005 3236770
-0.12282322 -0.11241856 1.134225 3236770
0.1502832 -0.11045465 1.1278014 3500458
-0.12510233 -0.10168478 1.1308544 3237027
-0.12330323 -0.10200828 1.1348251 3302821
0.15259872 -0.09988986 1.1281512 3632048
-0.12515686 -0.091965176 1.1307851 3302824
-0.12335492 -0.092796288 1.1347594 3302569
0.1508195 -0.09101139 1.1280149 3632047
-0.12563971 -0.082895912 1.1307281 3434408
-0.12280477 -0.08048442 1.1346606 3434665
0.14735873 -0.079986148 1.1276336 4026292
-0.12526594 -0.072525971 1.1306465 3631531
-0.12347349 -0.071662873 1.1346089 3631531
0.14739624 -0.072017491 1.1262014 4157366
-0.1253023 -0.066046238 1.1306003 4025255
-0.12214018 -0.060889941 1.1327925 3632304
0.14678553 -0.060234495 1.1256826 4289211
-0.11874079 -0.051883355 1.132095 3568048
0.14358141 -0.049479164 1.1263291 4094399
0.14596091 -0.053843871 1.1276516 4224702
-0.1174968 -0.045843653 1.1303145 3764911
-0.11403634 -0.041492134 1.1327214 3895729
0.140992 -0.041066475 1.1271026 4487616
-0.11875872 -0.027723655 1.1332066 6458567
-0.11381333 -0.031473547 1.132545 3895996
0.14084087 -0.030037515 1.125971 5735616
0.14767748 -0.026749954 1.1254246 9477559
-0.11831687 -0.025031276 1.1341794 6852289
-0.11506601 -0.025013454 1.1341209 5933254
0.050986651 0.077478833 1.1264038 9474701
-0.021838922 -0.22840324 1.1459229 7248329
0.010997886 -0.22982052 1.1445446 5801654
0.019003693 -0.22865102 1.1438593 5210039
0.031824436 -0.22920424 1.1449671 6328255
0.039489754 -0.22916222 1.1448294 7379645
0.05104788 -0.22897717 1.144621 8430007
0.05891639 -0.227189 1.1404662 8625323
-0.059927836 -0.22054346 1.1385472 9678537
-0.048987128 -0.22043875 1.1448779 4422071
-0.039620444 -0.22105317 1.1461884 2778029
-0.029848713 -0.22281453 1.146026 2513574
-0.022220325 -0.22548473 1.1459086 2315684
0.0077150064 -0.22605073 1.1453763 2120102
0.019760503 -0.22598469 1.14516 2185635
0.032894902 -0.22481745 1.1449162 2186146
0.038376268 -0.22588262 1.1448257 2316696
0.053694613 -0.2236082 1.1445347 4486314
0.061215866 -0.22318628 1.1423965 5997746
0.072362229 -0.22015947 1.1430322 6063288
0.081043705 -0.21863924 1.1440088 6589614
0.089148261 -0.21881385 1.1438648 8757678
-0.065432101 -0.20860995 1.1385595 1855898
-0.058639474 -0.21105836 1.1416942 2249885
-0.050871931 -0.2132971 1.1456065 2381985
-0.042718519 -0.21537498 1.1462029 3039902
0.074989624 -0.21308678 1.1440771 2841504
0.081009291 -0.21250618 1.143965 3302564
0.090537719 -0.21020791 1.142444 4420011
0.10025623 -0.2093527 1.1378819 6984117
0.10963762 -0.20656249 1.1354076 6254993
-0.07662186 -0.1981457 1.1394845 2710418
-0.068814225 -0.20134138 1.1429493 2775447
-0.062028646 -0.20351335 1.145663 2906776
0.092957914 -0.20229504 1.143277 3171492
0.1014098 -0.20089495 1.1403148 3237285
0.10966305 -0.19966558 1.1359288 3629215
-0.079476289 -0.19118395 1.1434861 2775191
-0.07127586 -0.19461271 1.1458977 2906012
0.10334299 -0.19166818 1.1417471 3040421
0.11021591 -0.18997166 1.1382251 3105703
0.11607065 -0.19021308 1.135174 2777257
-0.0949696 -0.17723128 1.138862 2710677
-0.088118918 -0.18105333 1.1422969 2709909
-0.08183758 -0.18460977 1.1446811 2709910
0.1113847 -0.18156047 1.141723 3368100
0.11887734 -0.17971569 1.1371816 3302561
-0.09617871 -0.17067146 1.1419479 2710421
-0.09130498 -0.1734677 1.1459705 2644886
0.11342534 -0.17377645 1.1431042 3040936
0.12141252 -0.1706486 1.140851 3237031
0.12774812 -0.16773362 1.1378028 3368615
-0.10595371 -0.15771456 1.1389177 2776209
-0.10041228 -0.1621317 1.1436013 2841240
0.12343476 -0.16213651 1.1428406 3237287
0.12978584 -0.15991186 1.1375669 3302822
-0.10691027 -0.15103512 1.1434208 2710683
-0.10214657 -0.15428144 1.1461594 2841499
0.13204691 -0.15146402 1.1400205 3237541
0.13693492 -0.14874944 1.1361008 3237798
-0.10907588 -0.142487 1.1440074 2907293
0.1337288 -0.14267021 1.1425154 3237797
0.13835813 -0.14013717 1.1374133 3303334
-0.11552037 -0.13085356 1.140038 2907805
-0.11320404 -0.13243391 1.1460663 2907805
0.14019173 -0.13074577 1.1398685 3434407
-0.11604429 -0.12153833 1.1415042 3039392
-0.11332373 -0.12266782 1.146798 3039391
0.1420792 -0.12116367 1.1396384 3500202
0.1461159 -0.11826625 1.1341156 3631274
-0.11921155 -0.11237483 1.1433617 3170979
0.14401147 -0.11087056 1.1416569 3631791
0.14729673 -0.11032485 1.1358151 3566510
-0.11965253 -0.10201889 1.1444759 3105957
0.14310502 -0.099770181 1.1403704 3632305
0.14824182 -0.10088161 1.1342852 3501227
-0.12013116 -0.092012063 1.1421261 3237546
0.14258091 -0.090708151 1.1394353 3698099
0.14710917 -0.091098994 1.1343014 3698094
-0.11955852 -0.082259022 1.1422834 3434923
0.14377488 -0.081423834 1.1398923 3895479
0.14592063 -0.08346387 1.1338675 3895477
-0.11922715 -0.071795486 1.1428211 3566256
0.1439942 -0.070110545 1.1411402 4027579
0.14642477 -0.069545113 1.1377586 4157882
-0.11829606 -0.062885895 1.1419835 3567024
0.14189211 -0.060587917 1.1405991 4159422
0.14614248 -0.060742922 1.1360997 4289724
-0.11607624 -0.053052422 1.1396761 3567791
-0.11288858 -0.051062968 1.1449389 3764403
0.14009959 -0.050570861 1.1390684 4356797
-0.11130673 -0.042162247 1.13875 3830196
0.13736683 -0.041009735 1.1381147 4619718
-0.10985323 -0.031236149 1.140983 3896507
0.13321865 -0.029136255 1.1385922 4817095
0.13769105 -0.029711954 1.1352934 4948420
-0.11749227 -0.022096604 1.1421449 6916535
-0.11000683 -0.022588044 1.1417066 5210049
0.1323742 -0.022734582 1.1406726 5013440
0.1367902 -0.02230987 1.1382565 5998788
0.031576585 0.050758414 1.1378039 5859448
0.039739255 0.050867312 1.1357994 6122362
0.0453513 0.051048033 1.1386981 6319482
0.056526285 0.052404486 1.1424888 5330522
0.03210618 0.055197649 1.1362383 5792108
0.039916277 0.056081854 1.1355585 5527648
0.045326807 0.055413567 1.138667 5067354
-0.016042128 -0.2283226 1.148819 4354997
-0.0086422274 -0.22929522 1.1506938 4684224
0.0012258086 -0.22895724 1.1490475 4289976
0.012180833 -0.22659916 1.1483008 2054307
0.02261398 -0.22709098 1.1481173 2777510
0.028109651 -0.22815892 1.1480266 4026798
0.044578172 -0.22806865 1.1477308 5604271
0.048411585 -0.22640049 1.14765 4881326
-0.035078231 -0.21807358 1.149086 3039902
-0.027115759 -0.21894419 1.1494497 2710943
-0.018587295 -0.22078648 1.152115 2645152
-0.0086343782 -0.22356609 1.1553197 2514339
0.0012952564 -0.22341186 1.1546073 2514851
0.011170263 -0.220863 1.1528783 2842787
0.021012556 -0.22040102 1.1504982 2908579
0.030689113 -0.21994954 1.1508105 3039651
0.040905733 -0.22058865 1.1517433 2908578
0.050245177 -0.21966736 1.1513193 2778020
0.060224805 -0.21796769 1.1488062 2646433
0.069788836 -0.22060987 1.1472251 5012145
0.081323989 -0.22182772 1.1470273 8955830
-0.048149757 -0.20972399 1.1495456 2841242
-0.038259879 -0.21172795 1.1514308 2775960
-0.029210757 -0.21293981 1.1532112 2841500
-0.019725274 -0.21503335 1.1567904 2907551
0.011962146 -0.21412247 1.1562159 3105184
0.02117274 -0.21370342 1.1560478 3170722
0.031122416 -0.21364886 1.1558691 3302053
0.041253243 -0.21304047 1.1556833 3170723
0.051750507 -0.21206149 1.155488 3105188
0.061046071 -0.21122925 1.1536009 3170467
0.070580736 -0.21099505 1.1495419 3236258
0.080670461 -0.20751145 1.14738 3171236
-0.064832471 -0.19847119 1.1494775 2906776
-0.058269724 -0.20066339 1.1505188 2907033
-0.04974933 -0.20157544 1.1540638 2841497
-0.040415406 -0.20556402 1.1570927 2775704
0.062033527 -0.20573947 1.1552581 3105443
0.070877686 -0.20569097 1.1550993 3105443
0.081627429 -0.20192322 1.1536161 3105956
0.089913316 -0.19903208 1.1499091 3105956
-0.075873092 -0.18755087 1.1495963 2644884
-0.068731055 -0.1910587 1.1524943 2775705
-0.060297206 -0.19386598 1.1550306 2841497
0.085187405 -0.19455549 1.1547624 3172006
0.092812873 -0.19213861 1.1536081 3040421
0.098617189 -0.18977472 1.1509864 2974628
-0.084705591 -0.17881465 1.1496915 2645144
-0.077999033 -0.18052435 1.1526431 2710425
-0.072654217 -0.18320575 1.1540796 2776216
0.10204032 -0.18111438 1.1511126 3171493
0.1069497 -0.17887929 1.1478579 3237026
-0.08774256 -0.17079535 1.1522766 2710424
-0.081290767 -0.17294118 1.1561345 2710937
0.10497508 -0.17454435 1.1542631 3302823
0.111226 -0.17044732 1.1509629 3172005
0.11698836 -0.16728103 1.1499946 3172006
-0.096525386 -0.15947998 1.1497635 2841498
-0.092028759 -0.16194075 1.1546247 2907290
0.11375721 -0.16343918 1.1540254 3303592
0.11996171 -0.16003247 1.1525561 3237544
0.12596831 -0.1556979 1.1457492 3303337
-0.098307036 -0.15102002 1.151449 2973342
-0.093586616 -0.15407181 1.1576732 3038879
0.12356129 -0.15224424 1.153102 3237544
0.12782334 -0.14922383 1.1484697 3303336
-0.1064093 -0.13951644 1.1507965 2973342
-0.10024641 -0.14261518 1.1552093 2973600
0.1312025 -0.14007121 1.1495432 3368872
-0.10800727 -0.13165262 1.1521215 3039392
-0.10247368 -0.13240138 1.1576759 3236259
0.13248163 -0.13061158 1.1512022 3500460
0.1367933 -0.12818646 1.1453563 3434923
-0.10915174 -0.12201217 1.1526084 3170978
0.13348965 -0.12167044 1.1520364 3500719
0.13810983 -0.11916843 1.1486015 3500718
-0.11582882 -0.1109041 1.1497583 3237029
-0.11190151 -0.11221025 1.1556985 3237286
0.1384476 -0.11028989 1.1513038 3697329
-0.11587811 -0.10211969 1.1496956 3237543
-0.11318759 -0.10161624 1.1571453 3172263
0.13960552 -0.10117577 1.1507118 3697843
-0.11618123 -0.092462927 1.1526319 3303340
-0.1140228 -0.091343075 1.1575861 3303852
0.13932836 -0.090728745 1.1510413 3764149
-0.11635294 -0.082722813 1.149564 3500716
-0.11350016 -0.081283577 1.157504 3501229
0.14218517 -0.080286562 1.1494858 3764661
-0.11603213 -0.074668437 1.1495 3566512
-0.11280245 -0.071197577 1.1537815 3632306
0.13914491 -0.070095509 1.1493658 3896764
-0.11225481 -0.061573897 1.1537021 3698357
0.13314404 -0.060072336 1.1515973 4291265
0.13688479 -0.061259992 1.146014 4225217
-0.11070106 -0.052560214 1.1532454 3764408
0.13386062 -0.050470088 1.1508483 4554434
0.13635589 -0.0502249 1.1448007 4488640
-0.10779162 -0.041826326 1.1539159 3895997
-0.10363181 -0.038580935 1.1570184 4027323
0.13339053 -0.039682046 1.1497785 4817354
-0.10636434 -0.032309331 1.1503541 3962044
-0.10229024 -0.031039923 1.1561397 4093118
0.12404934 -0.027381293 1.1528575 5014224
0.12938596 -0.030112766 1.1487809 4751563
-0.10534883 -0.021901838 1.1489271 4290235
-0.10038743 -0.021714129 1.1533711 4158908
-0.094158173 -0.019363478 1.1567098 4028609
0.12231439 -0.020365134 1.1510599 4817874
0.12890221 -0.020081319 1.1457165 5145287
-0.098079234 -0.015068747 1.151148 4487616
-0.092638254 -0.012345359 1.1552982 4356800
0.11338758 -0.0079008788 1.1509074 5276623
0.11967842 -0.010904789 1.1471014 5604813
0.12906267 -0.012080625 1.1455446 6720449
-0.090551689 -0.0053381398 1.1565437 5671109
0.11152296 -0.002335526 1.1523294 5802961
0.11782034 -0.0030991212 1.1481261 6787017
0.035378262 0.013043553 1.1541543 12972031
-0.019956779 0.022639133 1.1530762 5869264
0.012495711 0.019183747 1.1545199 7515376
0.019990742 0.018856257 1.154388 8764660
0.029598963 0.018466674 1.1542187 10146554
0.036237866 0.017471075 1.1541069 10870005
-0.077828996 0.030591033 1.1480546 8028800
-0.072707504 0.030985139 1.1479599 7305855
-0.015537662 0.023821421 1.1549888 5671370
-0.012221104 0.0238396 1.1549292 5869265
0.010994802 0.023966894 1.1545123 6988787
0.015416879 0.02399113 1.1544329 7185904
0.10159776 0.033309259 1.1528212 6314850
-0.071515679 0.035994045 1.1479024 8028802
0.098482467 0.036830433 1.1528516 6117979
0.074325062 0.047164448 1.1452082 5593178
0.076520868 0.047176488 1.1451688 5658970
-0.014162696 -0.21794003 1.1607125 2973083
-0.0086098285 -0.21901909 1.1606208 2973595
0.00082708709 -0.21853229 1.1611149 2973598
-0.03419286 -0.20695473 1.160992 2842012
-0.027806439 -0.20830661 1.1608874 2776219
-0.018425539 -0.21072479 1.1622608 2907806
-0.0087951133 -0.21203962 1.1637322 2907807
0.0017676177 -0.21252103 1.1637218 2973599
0.010585786 -0.21015237 1.1608795 3039136
0.021334089 -0.20909855 1.1613461 3170723
0.031298447 -0.2089293 1.1604995 3236770
0.041081339 -0.20841968 1.1596538 3170979
0.050125431 -0.2081567 1.1594898 3170980
0.056772064 -0.20645599 1.1593584 3171236
-0.045335945 -0.19813971 1.161128 2842012
-0.038589176 -0.20035796 1.162478 2842011
-0.028945815 -0.20255682 1.1633282 2842012
-0.020623427 -0.2039497 1.1647278 2907805
0.025857855 -0.2050865 1.1639031 3302309
0.031842075 -0.20390514 1.1626443 3302308
0.040469263 -0.20374638 1.1611311 3171236
0.051212974 -0.20426744 1.1594422 3171236
0.061859448 -0.20282371 1.1609079 3105443
0.071657725 -0.20085195 1.1600513 3171492
0.078177579 -0.19894189 1.1589205 3040420
-0.066475429 -0.18716049 1.1614275 2841497
-0.057675689 -0.18985765 1.1618227 2907291
-0.049199589 -0.1924523 1.1630388 2907549
-0.042481188 -0.19358575 1.1650447 2907551
0.074773416 -0.19368508 1.1629442 3040420
0.081744753 -0.19181889 1.1609107 3106213
0.089512318 -0.18919 1.1586468 3106214
-0.067979306 -0.18066776 1.1634078 2907290
-0.061350279 -0.1835001 1.1648097 2973340
0.085854821 -0.18471776 1.1626807 3302823
0.091843098 -0.18231711 1.1601557 3237030
0.097966194 -0.17887551 1.1601989 3237031
-0.08544606 -0.1672933 1.1616238 2841497
-0.077021137 -0.17072302 1.1620311 2842012
-0.070845418 -0.17290774 1.1644032 2907547
0.10309233 -0.17116901 1.1591965 3368361
0.10814107 -0.16789617 1.1581591 3237285
-0.086958364 -0.16138418 1.1616082 2973085
-0.080128349 -0.16155204 1.1642243 3039135
0.10534596 -0.1640282 1.1581813 3368615
0.11186383 -0.16065693 1.1587675 3237799
0.1164019 -0.15731052 1.1579345 3303337
-0.09442652 -0.14848082 1.1616488 2973857
-0.088950694 -0.15196972 1.1631316 3039137
-0.082969718 -0.1528004 1.1654754 3104930
0.11383333 -0.15313704 1.1599507 3172264
0.12001515 -0.15022211 1.1584854 3238059
-0.09564583 -0.14027807 1.1626115 3039650
-0.091591477 -0.14382975 1.165565 3105700
0.1232254 -0.1404503 1.1598446 3369132
0.1274018 -0.14060752 1.1576167 3434410
-0.098436929 -0.13172518 1.1633141 3171236
0.12509 -0.13231041 1.1607988 3500719
0.12842731 -0.12999655 1.1595221 3435183
-0.10568166 -0.1196952 1.1616423 3302823
-0.10097229 -0.12162997 1.164239 3171495
0.12912925 -0.11989655 1.1592546 3566514
-0.10745057 -0.11105921 1.1630664 3368873
-0.10373393 -0.11220293 1.1647538 3368875
0.13177468 -0.11069618 1.1581223 3697588
-0.10838366 -0.10198944 1.1642299 3303850
0.13333532 -0.10106917 1.1606537 3763892
0.1364948 -0.10039331 1.1571631 3698099
-0.10980352 -0.091799192 1.1631148 3435181
-0.10390318 -0.092239119 1.1654127 3435438
0.13430817 -0.09093307 1.1611346 3829942
0.13710019 -0.090389296 1.158223 3764149
-0.1088147 -0.082117558 1.1634272 3501229
0.13423321 -0.077573612 1.1610394 3896505
0.13860554 -0.080447771 1.1587996 3830455
-0.10828013 -0.072256848 1.1628847 3632563
-0.10403436 -0.068860084 1.165246 3567542
0.13178806 -0.070446789 1.1584598 4027837
0.13701226 -0.073984079 1.1569629 3896505
-0.10758136 -0.06219586 1.1625943 3829940
-0.10407184 -0.062180359 1.1651984 3699127
0.13025495 -0.060832724 1.159656 4291009
-0.10722928 -0.052056588 1.1619812 3895737
-0.10349733 -0.051203039 1.1651088 4027576
0.13048282 -0.050797287 1.1589127 4422849
-0.10609873 -0.045360163 1.1611124 4158911
-0.10159664 -0.041622024 1.1630051 4093372
0.130363 -0.041057087 1.1583443 4817355
-0.097909756 -0.032205977 1.1624094 4093630
-0.093127854 -0.028720699 1.1647605 4094397
0.12286405 -0.030345201 1.1591237 5080014
0.12735575 -0.033539824 1.1568437 4883149
-0.095861197 -0.024593137 1.1607789 4028348
-0.091343582 -0.022000238 1.1621795 4028864
0.11831049 -0.020729624 1.1586912 4949202
-0.087829508 -0.012385905 1.1623652 4029123
-0.083584771 -0.010113016 1.1644549 3963586
0.11218686 -0.010891981 1.1596189 5146069
0.11560509 -0.015297301 1.1569223 5080276
-0.087098613 -0.0045738593 1.1604772 5342665
-0.079917721 -0.0023567528 1.1643331 4882633
-0.016490046 0.0017591715 1.1631668 6070261
-0.0098112216 0.0017957911 1.1630468 6528744
-0.0031323982 0.0018324107 1.1629269 8827627
0.012451519 0.001917854 1.162647 10340848
0.021201167 0.0013296455 1.1624945 8895736
0.028710816 0.00067102164 1.1623647 6266608
0.1030679 0.0018508807 1.1600236 5475287
0.10753904 -0.0016543865 1.1583018 5475028
-0.076514445 0.0036386549 1.1622285 5999306
-0.069860891 0.0047846437 1.162101 5540557
-0.061324485 0.0081615895 1.1612568 5803727
-0.048570842 0.0099950507 1.1636821 4950220
-0.039603237 0.0089196712 1.1635293 5016280
-0.029882796 0.0083590075 1.162959 5411294
-0.019869186 0.0083872378 1.1609391 5806569
-0.0098525686 0.0084666535 1.1623993 7120874
-0.00025868323 0.0092703104 1.1628217 12379901
0.010292184 0.0087858662 1.1601093 13891069
0.020095769 0.008596167 1.1592612 12969723
0.030064013 0.0088941678 1.1599648 9946095
0.040143035 0.0087207258 1.1601883 10013177
0.049863361 0.010652877 1.1597593 7449069
0.05654766 0.012550622 1.16178 5411552
0.10010877 0.0057129785 1.1585484 6526426
-0.046619706 0.014953844 1.1636113 6264275
-0.039075341 0.015780948 1.1609697 5803990
-0.029529743 0.016452663 1.1592935 5345755
-0.01953112 0.017769277 1.1591048 5412839
-0.0099363895 0.018418543 1.1594284 5676266
-0.00085255597 0.01756382 1.1616293 7253489
0.0089463834 0.01742281 1.1595973 8436213
0.01891923 0.015238948 1.1584342 12051453
0.033315592 0.01975593 1.1581435 10082302
0.041159 0.019059263 1.158008 10607102
0.049647462 0.018260464 1.1578617 7515119
0.056712467 0.017695002 1.1590728 6068200
-0.0077544516 0.023968801 1.158849 6001365
-0.0033171391 0.023993127 1.1587694 6396124
0.10913638 0.030379154 1.156708 6447199
-0.0052446602 -0.20817134 1.1684836 3039391
0.002321247 -0.20754704 1.1698438 3039135
0.013743423 -0.20806724 1.1681426 3104930
-0.034347937 -0.19715962 1.1689255 2776478
-0.027931292 -0.19800588 1.170817 2842271
-0.017981395 -0.19957525 1.1728323 2907807
-0.0087358141 -0.20138027 1.1731936 2908063
0.001306192 -0.20216709 1.1741239 2973600
0.011612024 -0.20113145 1.173465 3105187
0.021520663 -0.2007325 1.1723648 3236773
0.03120489 -0.19934486 1.1715007 3237029
0.042152733 -0.19936998 1.1713713 3171237
0.051767346 -0.20028339 1.1689053 3171236
0.06126764 -0.19867581 1.1681464 3105444
0.070089653 -0.19714558 1.1670539 3171493
-0.046532892 -0.18833321 1.1722807 2841758
-0.03840683 -0.19059038 1.1729515 2907551
-0.029440794 -0.19162774 1.1756223 2842271
-0.018728424 -0.19274935 1.1766152 2908064
-0.011974731 -0.19383708 1.1765021 2973857
0.009391983 -0.19371992 1.1761184 3105444
0.022256382 -0.19264962 1.1758801 3237030
0.032293379 -0.19301608 1.1749027 3302823
0.041947316 -0.1921826 1.1746006 3171495
0.051291879 -0.19072533 1.1739542 3105703
0.060998384 -0.19093223 1.1735731 3105703
0.07076741 -0.19039395 1.1714938 3105702
0.079036511 -0.18786404 1.1685411 3105958
-0.05788175 -0.18070832 1.1708757 2973598
-0.049799696 -0.18235396 1.1750965 2907551
-0.039862908 -0.18414843 1.1769319 2908065
0.072562993 -0.18195304 1.1749012 3237288
0.081334502 -0.18120864 1.1722938 3302823
0.089932524 -0.17913993 1.1691401 3237287
-0.067326739 -0.16948292 1.1721741 3105183
-0.059787229 -0.17279264 1.1753241 2974112
-0.051441744 -0.17493272 1.1770726 2842786
0.082832433 -0.17442149 1.1746628 3171750
0.091417037 -0.17077376 1.173149 3172008
0.09939494 -0.16900536 1.1686591 3303081
-0.075544357 -0.15986079 1.1700609 3104930
-0.069197953 -0.16210447 1.1759646 3170978
0.093882479 -0.16240641 1.1743779 3303337
0.10161079 -0.16086021 1.1719779 3368873
0.10848702 -0.15953878 1.1686399 3237543
-0.085412823 -0.14711252 1.172146 3040164
-0.078649439 -0.15082438 1.1731746 3105701
-0.072170235 -0.15517578 1.1773013 3302822
0.10317329 -0.15181494 1.174135 3303597
0.11048386 -0.14937845 1.1696218 3238059
0.11750998 -0.14629327 1.1678369 3303852
-0.08786983 -0.14078331 1.1732556 3106213
-0.080018401 -0.14275283 1.1773522 3172007
0.11140755 -0.140274 1.1737039 3369387
0.11927557 -0.14001852 1.1697603 3435181
-0.095123552 -0.13060273 1.1708671 3237030
-0.088469818 -0.13120916 1.1750864 3237800
-0.082032137 -0.13460943 1.1773294 3303594
0.11319592 -0.13421389 1.1738281 3500972
0.12152198 -0.1299129 1.1703972 3500976
0.12610368 -0.12701774 1.1655433 3500977
-0.096282914 -0.12133894 1.172599 3237545
-0.091539025 -0.1229498 1.1765264 3303852
0.12331456 -0.12036147 1.1735467 3566772
0.12656669 -0.12070294 1.16949 3566515
-0.09884686 -0.11164226 1.1727138 3369389
0.12411788 -0.11082347 1.1734633 3763639
0.12738822 -0.10990468 1.1685082 3763639
-0.1057426 -0.097856209 1.1708206 3435181
-0.10029224 -0.10149083 1.173988 3435438
0.12469828 -0.099733457 1.1733727 3895737
0.12958887 -0.099623494 1.1681068 3764149
-0.1052596 -0.091369323 1.171832 3435438
-0.09981253 -0.091941975 1.1758008 3501231
0.12466673 -0.094109878 1.1733327 3961530
0.12992986 -0.090137348 1.1680322 3961528
0.13704753 -0.086741015 1.165056 3895735
-0.10501938 -0.082112111 1.1723608 3501489
-0.1007017 -0.08184579 1.1751645 3501490
0.12456577 -0.076114431 1.1732044 4159679
0.13021754 -0.080793545 1.1684088 3962041
0.137035 -0.084506825 1.1650401 3895735
-0.10554744 -0.074780785 1.1713171 3501747
-0.10070969 -0.071545124 1.1738743 3567541
0.1237803 -0.069745153 1.1731725 4225473
0.12740444 -0.07025601 1.1691103 4159424
-0.099011935 -0.061391581 1.1727035 3764919
0.12348061 -0.060873762 1.1731137 4422597
0.12734783 -0.060167853 1.1690384 4357059
-0.098577283 -0.05161792 1.1724536 3896505
-0.093744755 -0.051442116 1.1769381 3962298
0.12329606 -0.050252136 1.1730402 4685767
0.12729123 -0.0500797 1.1689665 4422851
-0.097200252 -0.042497445 1.1705341 4027836
-0.092101768 -0.040667228 1.1757396 4028094
0.121324 -0.039684374 1.170881 4948684
0.12714519 -0.041583404 1.1659073 4751818
-0.095578104 -0.034394138 1.1688461 4093632
-0.089921996 -0.030871652 1.1745666 4094399
0.11455661 -0.029304713 1.1730454 5080784
0.1187887 -0.030382887 1.1681764 5211343
-0.086747959 -0.022422262 1.1729659 4094402
-0.080190599 -0.019303672 1.1754627 4226244
-0.073691919 -0.017589658 1.176334 4620744
-0.019719176 -0.016168989 1.1753566 5412064
0.0027721031 -0.016045667 1.1749526 6463211
0.010864032 -0.019838706 1.1748351 6397929
0.02054631 -0.019144878 1.1746565 6397929
0.029768847 -0.017183088 1.1744771 6003432
0.11145619 -0.020060539 1.1705337 5081042
0.11658522 -0.023176715 1.1649632 5081041
-0.07896667 -0.011521608 1.1702502 4160963
-0.070801929 -0.010502987 1.1753737 4752075
-0.055755697 -0.0073685646 1.1759387 4949201
-0.049005166 -0.0078939348 1.1758215 5016022
-0.039431076 -0.0089658648 1.174991 5213659
-0.02960711 -0.0098201632 1.1742569 5411552
-0.019750617 -0.010545008 1.1745163 5740773
-0.0096296547 -0.010489918 1.1751348 6003172
0.00048309751 -0.010434285 1.174553 6331366
0.010532878 -0.010372177 1.171772 6989552
0.020640383 -0.0103181 1.1719905 6792432
0.030713392 -0.010259971 1.1711595 5937640
0.039235175 -0.0092823356 1.1732502 5806054
0.049959607 -0.0079137161 1.1740483 5674725
0.05670068 -0.0067519993 1.1739191 5674983
0.10254086 -0.0090313554 1.1731142 5146841
0.10846718 -0.011101641 1.1673075 5080789
-0.075648576 -0.0030051842 1.1682621 4554184
-0.072153166 -0.0021382123 1.1711938 4751049
-0.056850515 -0.0017650723 1.1739174 4818129
-0.049423322 -0.0017277673 1.1729839 5015507
-0.039945424 -0.0016863272 1.1694132 5147609
-0.029862516 -0.0016358495 1.1679319 5346018
-0.020174444 -0.0019463822 1.1703721 5937898
-0.0097188046 -0.0026339218 1.1704119 6462952
0.00071574096 -0.0018353239 1.1693301 8303605
0.010070616 -0.0018942803 1.1681468 8501495
0.019917371 -0.002824083 1.1671638 7252467
0.031236511 -0.0022132993 1.1677959 6069484
0.040392734 -0.0010693446 1.1684849 6135528
0.05056094 -0.001375258 1.1714015 5741031
0.059976324 -0.0011164546 1.1728195 5543655
0.069464572 0.00023953617 1.1736399 5477092
0.079520538 0.0016212985 1.1734496 5739747
0.090892516 0.0014336854 1.1732472 5280481
0.10006002 -0.0011676103 1.1694087 5015513
0.10551785 -0.003126204 1.167017 4949463
-0.068984516 0.003734149 1.168094 4818122
-0.059558086 0.0047788247 1.1679176 5147606
-0.050874904 0.0055711716 1.1677562 4818639
-0.042177815 0.0038811192 1.1676126 5344472
0.0024969 0.0046846271 1.1668062 12971007
0.0069678193 0.0041505694 1.1667299 12905215
0.031540629 0.0042852908 1.1662887 5807584
0.044943985 0.0043587834 1.1660479 6004710
0.051002029 0.0053495467 1.1659323 5807083
0.05981683 0.0078890175 1.1678896 5477863
0.068367295 0.0075185448 1.1702728 5542628
0.080253415 0.0046246424 1.1734148 5673698
0.090782739 0.0066304654 1.1717113 5804766
0.096323498 0.0046404824 1.1651253 5147865
0.062752441 0.015627734 1.1656474 5412324
-0.0051621506 -0.19669117 1.1804013 3039650
0.0012893081 -0.19730069 1.1802901 3039650
-0.025517184 -0.18890287 1.1807098 2842271
-0.01874695 -0.18886575 1.1805882 2973857
-0.0083946949 -0.18989144 1.1816735 2973857
0.0013882294 -0.19158164 1.1827738 3039395
0.012022053 -0.18959409 1.1818202 3171237
0.021306193 -0.18813005 1.180932 3237030
0.031655539 -0.18751949 1.181214 3302569
0.039990328 -0.18761644 1.1808602 3237546
-0.045241904 -0.17853153 1.1809883 2908065
-0.037660263 -0.17945731 1.1808591 2973857
-0.02895185 -0.18116626 1.1817156 2973857
-0.019176356 -0.18300584 1.1826715 2973858
-0.010846724 -0.18377586 1.1844106 3105444
0.020854354 -0.18360204 1.1838412 3237030
0.03254509 -0.18202811 1.1836203 3302825
0.041467216 -0.18152626 1.1831491 3171754
0.051295504 -0.18200275 1.1812838 3171752
0.06162452 -0.18152684 1.1805069 3171753
0.070036002 -0.17836592 1.1799215 3237546
0.078223445 -0.17591992 1.178757 3303592
-0.056471229 -0.16913469 1.1811216 2908579
-0.048230857 -0.17124523 1.1829895 2908579
-0.038373288 -0.17265467 1.1837323 3105444
-0.029694308 -0.17436731 1.1846802 3105443
0.064958595 -0.17430128 1.1829836 3303339
0.072954036 -0.17199349 1.1814902 3303082
0.081300035 -0.16985416 1.1792295 3237545
0.087199777 -0.16684222 1.1785305 3303850
-0.065561533 -0.15789893 1.1812032 3302822
-0.058885723 -0.16215181 1.1833647 3040165
-0.051706903 -0.16588196 1.1850134 3040167
0.076229587 -0.16518053 1.1827158 3303598
0.082251981 -0.1611591 1.1816374 3238061
0.090768777 -0.15906382 1.1795216 3303596
0.098426513 -0.15662363 1.1782554 3369131
-0.075399853 -0.14741965 1.1813039 3171751
-0.068929657 -0.15100724 1.1826258 3368615
-0.061960071 -0.15461449 1.1851157 3171751
0.10023093 -0.15002787 1.1796757 3369134
-0.077414073 -0.14037718 1.181289 3369130
-0.07123144 -0.14228195 1.1841925 3434922
0.10133014 -0.14034536 1.1811339 3435183
-0.079163447 -0.13177873 1.1825918 3434923
0.10404485 -0.13323444 1.1811862 3501232
0.11077572 -0.13006945 1.1804309 3435694
0.11745055 -0.12830533 1.1777098 3501232
-0.087453201 -0.12068284 1.1823267 3369646
-0.081684701 -0.12439342 1.1839172 3435182
0.11447597 -0.12080844 1.1817096 3567282
0.11853863 -0.12026709 1.1794508 3567027
-0.095932178 -0.10803262 1.1813871 3501231
-0.091276661 -0.11191817 1.1840822 3435439
0.11443151 -0.11288209 1.1816531 3829686
0.11948752 -0.11005428 1.179764 3829431
-0.09595117 -0.10464705 1.1813629 3501231
-0.091553599 -0.10137077 1.1829274 3567024
0.12174996 -0.10065859 1.1801001 3830201
-0.096030317 -0.090540484 1.1812624 3632818
-0.092761494 -0.091228776 1.1832091 3698612
0.12379577 -0.090041444 1.1793199 3896507
-0.09608414 -0.080948025 1.1811939 3633333
-0.092188612 -0.081102505 1.1839257 3764919
0.12356509 -0.079837807 1.1787502 4093886
-0.096584886 -0.072147995 1.1811393 3633334
-0.09249559 -0.07116925 1.1842595 3830201
0.12052079 -0.070224583 1.1794575 4291523
-0.092157573 -0.060876243 1.1826454 3896506
0.11996125 -0.059747536 1.1787696 4619975
-0.088930666 -0.051307224 1.1825662 4028348
0.11406936 -0.048339043 1.1811931 5146320
0.11849171 -0.05054285 1.1801296 4883148
-0.087291561 -0.041893277 1.1810399 3962814
-0.082273304 -0.040488403 1.1835116 3963072
0.113001 -0.039528303 1.1796483 5146577
0.11673694 -0.041144446 1.1775926 5080527
-0.085972853 -0.032815933 1.1806649 4028607
-0.079766721 -0.031019926 1.1826744 4291526
-0.029832024 -0.028745368 1.1836301 5147865
-0.022360899 -0.02847793 1.1834943 5344731
-0.0060625663 -0.027482674 1.183195 5345501
0.00073052105 -0.027445428 1.183073 5739743
0.010897361 -0.029630914 1.1815732 5936862
0.019957021 -0.029587127 1.1817439 5871068
0.030173589 -0.028416365 1.1825525 5739228
0.048282135 -0.027184717 1.182219 5213656
0.11107329 -0.030657716 1.1795187 4949970
-0.078069426 -0.023574844 1.1804564 4422856
-0.069632567 -0.018753178 1.1820889 4686797
-0.059267342 -0.017566852 1.1820765 4884690
-0.048837803 -0.018937297 1.1833997 4950486
-0.038394745 -0.019645028 1.1823843 5213659
-0.029853411 -0.020783052 1.1803724 5279707
-0.019680701 -0.021861747 1.1805979 5345244
-0.0095279692 -0.020174429 1.1803149 5411808
0.00033242907 -0.021235593 1.1799438 5806052
0.0096683968 -0.0243164 1.1788895 6068964
0.021706481 -0.024626583 1.1786761 6068963
0.031744964 -0.022184245 1.1794018 6003173
0.040206376 -0.020413131 1.1801144 5608417
0.05041587 -0.020362169 1.1805313 5411038
0.057301469 -0.020341046 1.1820079 5279709
0.10195951 -0.018346019 1.1802701 5212630
0.10759353 -0.021918274 1.1784511 5015248
-0.065997995 -0.013069488 1.1801642 4949712
-0.059227757 -0.013032362 1.1800426 4949713
-0.049072407 -0.012976684 1.1798602 5016279
-0.039667193 -0.013301305 1.1796941 5213659
-0.03101211 -0.014006212 1.179544 5345501
0.041764751 -0.013042919 1.1782329 5871590
0.050224379 -0.01243227 1.1780769 5871847
0.060503148 -0.01012902 1.1798764 5543139
0.067786239 -0.0089579374 1.1800232 5280225
0.092335559 -0.0088252798 1.1812969 5411294
0.098158576 -0.010224983 1.1786568 5279196
0.069923408 -0.0038600639 1.1776619 5411556
0.079505086 -0.0021146908 1.1774776 5412066
0.090788811 -0.0020528212 1.1772749 5477344
0.097571708 -0.0042727515 1.1771694 5213404
0.0024546422 -0.18695027 1.1881959 3105189
-0.017942376 -0.17858942 1.1895012 3039906
-0.0082233818 -0.18066758 1.1897707 3039908
0.0013502128 -0.18176256 1.1915121 3105447
0.011907014 -0.18094632 1.1887333 3105702
0.020968778 -0.17965296 1.1878114 3171750
0.02995111 -0.17919055 1.1876471 3237289
0.041403852 -0.17726856 1.187428 3237548
0.051627763 -0.17721251 1.1872444 3171752
0.060715687 -0.17716268 1.1870812 3171752
-0.045671646 -0.16729313 1.1889162 3039909
-0.037803356 -0.16797489 1.1896693 3105701
-0.029603768 -0.17056793 1.1911979 3105443
-0.019949745 -0.17589834 1.1925182 3040163
0.01081972 -0.17481765 1.191959 3105960
0.022211457 -0.17364053 1.1917464 3105958
0.031284943 -0.17208508 1.1907724 3237545
0.041655883 -0.17097503 1.1894836 3237547
0.051686492 -0.17061073 1.1887959 3237544
0.061749235 -0.17032772 1.1886978 3237545
0.070370965 -0.16829951 1.1875108 3303339
-0.056970865 -0.15792479 1.189051 3172009
-0.04848884 -0.16102543 1.1913218 3105961
-0.039113335 -0.16317856 1.1927696 3171752
0.044954848 -0.16414261 1.1912702 3303337
0.051793639 -0.16410512 1.1911473 3303593
0.061883524 -0.16307268 1.1909591 3303594
0.071052454 -0.16041657 1.1895254 3303596
0.077815831 -0.15889005 1.1866426 3238062
-0.06440261 -0.14944419 1.1891229 3434409
-0.058601514 -0.15115522 1.1918553 3237547
-0.050229363 -0.15347187 1.1928988 3237805
0.071995623 -0.15310113 1.1907058 3238318
0.081254616 -0.15012541 1.1893982 3238572
0.091345891 -0.14986759 1.1875352 3434926
0.09782064 -0.14923647 1.1862144 3369134
-0.066771761 -0.14041635 1.1903311 3435179
-0.060776182 -0.14237735 1.1925631 3369388
0.085872486 -0.14339848 1.190387 3500977
0.091455624 -0.13983598 1.1892611 3435186
0.096859142 -0.13984933 1.1861638 3500720
-0.075350389 -0.12972254 1.1901767 3566511
-0.069602862 -0.13255818 1.1917611 3566767
-0.062352553 -0.13509125 1.1929832 3500977
0.092885546 -0.13219157 1.1896802 3501234
0.10071038 -0.1297265 1.1867718 3501490
-0.085035302 -0.11660814 1.1892552 3566770
-0.0782037 -0.12113553 1.191766 3632306
-0.071522124 -0.12602161 1.1930819 3632563
0.10249618 -0.12103942 1.1885155 3699127
0.10989361 -0.11972681 1.1862555 3633076
-0.086257093 -0.11101919 1.1902369 3566770
-0.080194175 -0.11186316 1.1931349 3763892
0.10336348 -0.1119529 1.1898463 3633335
0.10998351 -0.10973962 1.1872668 3764407
-0.08641319 -0.10092694 1.1919671 3698868
-0.08204484 -0.10150623 1.1930932 3699126
0.10386623 -0.099980265 1.1897507 3962811
0.1103845 -0.10004126 1.1884675 3830969
0.11805908 -0.10023737 1.1854975 3830714
-0.087676078 -0.090991244 1.1900407 3699126
-0.082354277 -0.09150137 1.1930264 3830712
0.11103778 -0.09009333 1.1889507 4028606
0.11913862 -0.090168148 1.1854054 3962300
-0.087136999 -0.081497952 1.1906394 3830970
-0.082195349 -0.081132039 1.1929486 3962813
0.1112694 -0.081029296 1.189481 4291522
0.11908251 -0.080599681 1.185701 4094399
-0.08749292 -0.071430124 1.1906873 3962044
-0.082573995 -0.071688496 1.1928872 4093630
0.11278809 -0.070278324 1.1891094 4554438
0.11757059 -0.071024016 1.1852951 4357059
-0.086932383 -0.061386108 1.1902237 4093886
-0.082310475 -0.060612869 1.1928024 4291009
0.11088549 -0.059748642 1.1884451 4686026
0.11685861 -0.059828442 1.1852269 4685769
-0.085385904 -0.054120231 1.1888099 4159935
-0.080347538 -0.05160369 1.1915591 4225985
0.10358481 -0.04982233 1.1893932 5015248
0.10963052 -0.051082574 1.1866268 5014991
-0.077400267 -0.041774582 1.1906955 4292037
-0.071982637 -0.043944996 1.1924968 4619977
-0.049225032 -0.036980294 1.1920387 5279449
-0.04124644 -0.036936548 1.1918954 5016538
-0.028702252 -0.038007759 1.1916783 4950743
-0.019172162 -0.039631967 1.1915193 4950488
-0.010077004 -0.03942563 1.1913549 5147351
0.0003658263 -0.038418382 1.1911604 5278422
0.010930072 -0.040681329 1.1900984 5212886
0.020261183 -0.039973665 1.1890649 5278423
0.030236781 -0.039078034 1.1893797 5147094
0.041161202 -0.039416127 1.1904366 4885460
0.050625257 -0.037865374 1.1895283 4950741
0.059744876 -0.037294831 1.1900883 5016279
0.10201481 -0.039987504 1.18795 5212370
0.1093695 -0.041122556 1.185226 5212369
-0.075359873 -0.034796912 1.1904908 4423370
-0.073311992 -0.031593524 1.1900309 4554187
-0.048791416 -0.031957261 1.1917279 5147610
-0.038969718 -0.031186476 1.1898127 5081818
-0.029852368 -0.033411227 1.1896653 5016538
-0.018708963 -0.031912558 1.1895882 5278938
-0.0096076792 -0.031256191 1.1894203 5344730
0.0008465182 -0.032084934 1.1881722 5673948
0.011064904 -0.034276374 1.186938 5805277
0.020152826 -0.034226544 1.1867748 5541848
0.030370364 -0.033034332 1.1865832 5475544
0.040581524 -0.030706011 1.1863834 5213397
0.051250752 -0.031265497 1.1869022 5082070
0.060966149 -0.030418478 1.1884164 5016536
0.069919705 -0.028184272 1.1898401 5213915
0.080660909 -0.027148262 1.18964 5279453
0.091605522 -0.027544238 1.1894468 5213659
0.10102893 -0.030423753 1.1876985 5212628
0.10760495 -0.030338541 1.1851796 5146833
-0.073049374 -0.025648125 1.188383 4554443
-0.047840595 -0.023692027 1.1879171 5016281
-0.040565155 -0.024561077 1.187793 5147611
-0.0094339168 -0.02529934 1.1872405 5411294
0.06135064 -0.020366542 1.1859365 5148123
0.070075303 -0.020321846 1.1859797 5213915
0.080138519 -0.020485491 1.18734 5213917
0.090903141 -0.020356514 1.1877229 5213659
0.098881625 -0.022059619 1.1856095 5212887
0.09160547 -0.013383582 1.1853437 5279708
0.09614943 -0.013358667 1.1852622 5411037
-0.014223653 -0.17657417 1.1974214 3106213
-0.0085008508 -0.17654279 1.1973187 3105959
0.0027849134 -0.17713505 1.1971207 3105706
0.013245795 -0.17642355 1.1969281 3105960
-0.025135513 -0.16976549 1.1975677 3105700
-0.01768684 -0.17096975 1.1981932 3105957
-0.008525596 -0.17091954 1.1980286 3106216
0.0017991615 -0.17097782 1.1986942 3106217
0.012433171 -0.17040537 1.198328 3171752
0.020320917 -0.16987038 1.1978451 3303337
0.031507377 -0.16716541 1.1965339 3369130
0.038374733 -0.16712776 1.1964107 3369132
-0.037792768 -0.15861961 1.1980474 3171753
-0.028063349 -0.16096497 1.2002771 3171752
-0.017733436 -0.16117688 1.2021739 3172010
-0.0085255085 -0.16239969 1.202968 3172012
0.0015228223 -0.16192392 1.20358 3237802
0.012175523 -0.16116701 1.2028382 3303338
0.021381833 -0.1611433 1.2028731 3369133
0.031663075 -0.16086394 1.2009665 3369388
0.04178242 -0.16047704 1.2000917 3303853
0.051023528 -0.15926412 1.1978774 3369643
0.061098069 -0.15841314 1.1961758 3303851
-0.055594809 -0.14703749 1.1979493 3303598
-0.047440268 -0.14980991 1.1995379 3303341
-0.038805928 -0.15148342 1.2028245 3303340
-0.029403247 -0.15285584 1.2055235 3369132
-0.021222677 -0.15469667 1.2053902 3303600
0.012190484 -0.15451348 1.2047901 3303598
0.024864439 -0.15444399 1.2045625 3435186
0.032353595 -0.15440293 1.2044281 3369391
0.042147107 -0.15434924 1.2042521 3369392
0.05193118 -0.15138367 1.20344 3369390
0.061428148 -0.15028267 1.1996765 3435184
0.070735864 -0.14863434 1.1956971 3369392
-0.056571998 -0.14003339 1.1987163 3369646
-0.049342759 -0.14228752 1.2034039 3303853
-0.042013604 -0.14559171 1.2056969 3173034
0.053837251 -0.14322239 1.2039622 3566773
0.062002543 -0.14187193 1.2031394 3566516
0.071749352 -0.13995217 1.200017 3500977
0.081619859 -0.14056635 1.1971282 3500975
-0.066819832 -0.12812889 1.1980138 3632562
-0.057871722 -0.13113794 1.2008758 3501236
-0.050276108 -0.1312488 1.2052969 3501494
0.073989123 -0.13083917 1.2035116 3698612
0.081514202 -0.13115014 1.201015 3567283
0.090312786 -0.12867494 1.1981359 3567283
0.097660646 -0.12559173 1.195048 3501747
-0.074068345 -0.11852001 1.1980742 3895478
-0.068427883 -0.12101363 1.2004917 3698613
-0.059460416 -0.12189726 1.2045047 3633080
0.075392164 -0.12420537 1.2034385 3699128
0.08193282 -0.12097834 1.203298 3830713
0.091388516 -0.12054569 1.2019252 3699126
0.098082505 -0.11917881 1.1949941 3633333
-0.075421378 -0.11051418 1.1980406 3961271
-0.068583205 -0.11090504 1.2029219 3896247
-0.06178166 -0.11343376 1.2058188 3764921
0.08178746 -0.11402945 1.2032504 3962300
0.092626438 -0.11146069 1.2025669 3896506
0.10005741 -0.10955823 1.1968895 3764920
-0.076809198 -0.1011931 1.1994984 3830712
-0.0698613 -0.10069849 1.2045379 4093627
0.095538601 -0.10058658 1.2029067 4028352
0.10083245 -0.099985301 1.1974733 3962812
-0.077258103 -0.090875641 1.199932 3962556
-0.070716791 -0.091939479 1.205379 4028606
0.094953522 -0.090185545 1.2028421 4357317
0.10129381 -0.090366028 1.198729 4225985
0.10659874 -0.08662121 1.1946061 4225985
-0.076817051 -0.08186461 1.1998589 4028606
-0.071943924 -0.081991397 1.2057736 4094655
0.095435157 -0.082149245 1.2027754 4554695
0.10117538 -0.079989821 1.198056 4554182
0.10731468 -0.078222454 1.1945326 4619462
-0.077586614 -0.071226299 1.198266 4159424
-0.069505878 -0.070154056 1.2044133 4160448
-0.06318599 -0.068499073 1.2055191 4554440
0.095821016 -0.068779647 1.2026718 4620747
0.10135735 -0.069781989 1.2003294 4686026
0.10765341 -0.070588931 1.1944714 4619977
-0.07702928 -0.061562918 1.1977155 4291265
-0.068872914 -0.061492313 1.2028199 4357573
-0.063224785 -0.061585069 1.2054698 4751563
0.010883576 -0.058489893 1.2041194 4818903
0.018560451 -0.057679556 1.203976 4819160
0.093929701 -0.060262486 1.2026441 4752590
0.10130334 -0.060580477 1.2002639 4817869
0.10646386 -0.062582202 1.1944348 4752076
-0.07509581 -0.051966608 1.1976116 4291778
-0.069043577 -0.051207196 1.2010772 4554440
-0.063270047 -0.053518739 1.2054124 4883149
-0.044794202 -0.046371743 1.2010289 5674209
-0.039052356 -0.046340261 1.2009258 5082331
-0.027641043 -0.049103722 1.2026082 4950745
-0.018357646 -0.050806262 1.1999871 4884953
-0.0091750892 -0.050748195 1.199622 4753366
0.0011675768 -0.049586188 1.2006285 4884692
0.011747031 -0.051156912 1.1996057 4884692
0.020513415 -0.050381843 1.2000982 4884692
0.030746583 -0.049117785 1.2023622 4950484
0.041657396 -0.050020896 1.2003951 4950488
0.05045208 -0.049705651 1.2012289 4950489
0.061068159 -0.048192482 1.2020789 5411037
0.07006707 -0.047890112 1.2029823 5542623
0.084169939 -0.045796145 1.2027144 5213404
0.091963299 -0.048634343 1.2025954 5081558
0.1002402 -0.05084661 1.2000625 5015248
-0.069922261 -0.041471954 1.1974429 4685772
-0.047682039 -0.040878329 1.1981312 5542365
-0.038711317 -0.041009154 1.1980234 4951002
-0.029962532 -0.041996207 1.1967306 4884951
-0.020691488 -0.043818612 1.1965777 4753366
-0.0069631888 -0.042598594 1.1963229 4950484
0.0019087596 -0.042836133 1.1961656 5015763
0.031958282 -0.043529946 1.1956322 5015764
0.038825639 -0.043492295 1.1955088 4885461
0.050756264 -0.042445671 1.1952875 4884950
0.061571009 -0.04130961 1.196932 5082072
0.070992373 -0.040097997 1.1997088 5542624
0.080620505 -0.041185927 1.2019446 5279197
0.090713538 -0.039901804 1.1989539 5213144
0.09795697 -0.04240492 1.1944413 5212627
0.06509915 -0.034190241 1.1949707 5016538
0.070812307 -0.032441795 1.1948558 5213917
0.080336384 -0.029909283 1.1946667 5345245
0.090709955 -0.032157473 1.195164 5213917
0.18204041 -0.033735856 1.2008735 13158081
-0.008495451 -0.15742885 1.2091827 3303598
0.0042204028 -0.15735912 1.2089543 3303850
-0.036992408 -0.14694822 1.2096176 3303853
-0.02720819 -0.14848816 1.2098106 3304111
-0.017596025 -0.1505419 1.2114017 3303857
-0.0085060475 -0.15081222 1.2118856 3303856
0.001925339 -0.15078467 1.2119485 3369903
0.012266902 -0.14922175 1.2087513 3435441
0.021337394 -0.15008479 1.208595 3435187
0.031810127 -0.14938986 1.2084024 3500978
0.042322561 -0.14905696 1.2082115 3369649
0.049018197 -0.1474016 1.2080796 3435441
-0.045203332 -0.13951664 1.2097111 3370159
-0.038648415 -0.14025149 1.2095989 3370416
-0.028252739 -0.1404413 1.2116644 3436469
-0.017828722 -0.14068739 1.2142298 3502005
-0.0085427361 -0.14063647 1.2140632 3501749
0.0019235332 -0.14406191 1.2139003 3501493
0.012316776 -0.14038102 1.2124373 3567542
0.021626733 -0.1404358 1.2132084 3567541
0.03201557 -0.14024624 1.2118332 3633333
0.042318415 -0.13990802 1.2090832 3567541
0.05089261 -0.139138 1.2079864 3633079
0.060915846 -0.13689774 1.2077905 3632566
-0.045636233 -0.13104036 1.2096575 3501750
-0.038734343 -0.13125554 1.2120359 3567798
-0.030290395 -0.1317361 1.2143885 3633848
-0.016700547 -0.1348765 1.2141677 3633591
-0.0097360509 -0.13483833 1.2140425 3699128
0.012311643 -0.1335565 1.2136382 3830714
0.022758374 -0.13349923 1.2134507 3764921
0.032250077 -0.13249731 1.2132733 3830712
0.042792946 -0.13152745 1.2127202 3830713
0.051494807 -0.13118181 1.2122521 3830458
0.06178534 -0.1308732 1.2101002 3764409
0.069867432 -0.1293062 1.2081308 3764407
-0.054713912 -0.12022205 1.209742 3698874
-0.048055492 -0.12085388 1.2118777 3764923
-0.039445128 -0.12147966 1.2144784 3765435
-0.033003118 -0.12567836 1.2143933 3699641
0.060630549 -0.12516499 1.2127117 3896252
0.070685737 -0.12065992 1.2098794 3831226
0.077995978 -0.11995691 1.2073619 3830458
-0.057392843 -0.11078612 1.2105114 3896508
-0.048177518 -0.11066934 1.2145567 4028352
-0.040280528 -0.1113226 1.21442 4094143
0.071883895 -0.11075403 1.2088338 4159936
0.081173934 -0.1094568 1.2072291 4028352
0.08920037 -0.10804465 1.2070751 3962559
-0.065456651 -0.10108839 1.2097962 4093628
-0.058541231 -0.10110942 1.2104225 4028352
-0.048221685 -0.10135869 1.2141776 4094401
-0.041506406 -0.099719919 1.2143581 4225986
0.073337577 -0.10155568 1.2109494 4357317
0.081587486 -0.10049784 1.20997 4225732
0.090369076 -0.1000028 1.206996 4159938
-0.066502176 -0.091349192 1.2097446 4028609
-0.058298506 -0.091367051 1.2109616 3963330
-0.04890047 -0.091347054 1.21443 4160708
-0.042464964 -0.094384849 1.2143366 4292035
0.075898744 -0.087931186 1.2121689 4620236
0.081340291 -0.090642765 1.2107019 4488649
0.089750871 -0.091254808 1.2069439 4357318
-0.067715622 -0.081115402 1.2096922 4160449
-0.059048153 -0.081218995 1.2132341 4160708
-0.049735859 -0.08118999 1.2143716 4489161
0.082402907 -0.081358194 1.2109333 4555212
0.090604283 -0.080115244 1.206848 4620489
-0.15982425 -0.072970435 1.2162849 14082013
-0.066380851 -0.073730566 1.209615 4226242
-0.058246523 -0.071378648 1.2119527 4620234
-0.05111824 -0.069278583 1.2143103 5079759
-0.01707181 -0.068704933 1.213696 6791922
-0.0089530898 -0.067499481 1.2135417 5608162
0.0014936393 -0.067442201 1.2133542 5016279
0.01160039 -0.06942939 1.2118236 5608413
0.020068862 -0.067920834 1.2130247 4950485
0.027030094 -0.067302197 1.2128955 5016277
0.085087024 -0.070466705 1.2118781 4752847
0.090931728 -0.070468761 1.2085375 4620747
-0.058997028 -0.062484719 1.2104015 4948687
-0.048431538 -0.065394051 1.214234 5408980
-0.026921887 -0.062156823 1.2119018 6134248
-0.018276673 -0.061637536 1.211166 5344990
-0.0093356455 -0.061770525 1.211364 4884696
0.0018327544 -0.061752114 1.2112478 4818902
0.012245379 -0.062970944 1.2081282 4818646
0.021379441 -0.061832085 1.2086707 4818646
0.031503275 -0.061329477 1.2095217 4884696
0.041586164 -0.060779795 1.2093726 5344733
0.050828915 -0.060712617 1.2088494 5936870
0.060598653 -0.060117174 1.2114086 5608416
0.069701329 -0.059173845 1.2120721 5082072
0.082449473 -0.059899803 1.2088484 5016278
0.088765226 -0.061395232 1.2067456 4884178
-0.027562082 -0.055789657 1.2087897 5082331
0.001337586 -0.055631209 1.2082707 4687574
0.024457324 -0.055504449 1.2078555 4687574
0.032380383 -0.054800332 1.2077084 4819159
0.039485153 -0.055422056 1.2075856 4950233
0.052201007 -0.055352338 1.2073572 5542369
0.06092792 -0.054019846 1.2071912 5805540
0.073759973 -0.051765598 1.2069449 5213659
0.081081219 -0.051725462 1.2068135 5147866
0.089954592 -0.053603772 1.206668 5081557
0.0019717515 -0.13985413 1.2178698 3633335
-0.025613546 -0.12941673 1.2182887 3699641
-0.018088114 -0.12982394 1.2181567 3765177
-0.0083422484 -0.12993355 1.2196302 3830714
0.0019728094 -0.13082461 1.220685 3962299
0.012404192 -0.12821452 1.2182654 4028092
0.021219078 -0.12896097 1.2177318 3962300
0.030737244 -0.12854347 1.2179999 3962299
0.04031463 -0.12717804 1.2193137 3962299
0.052670613 -0.12606506 1.2168616 3896509
0.062450275 -0.12554553 1.2166826 3830714
-0.035411697 -0.11909359 1.2183895 3962813
-0.028812036 -0.12077466 1.2200615 3962813
-0.017813683 -0.12191437 1.2220954 4028350
-0.0085610515 -0.12398828 1.2219446 4093886
-0.0015508579 -0.12394984 1.2218187 4093886
0.012449858 -0.12036742 1.2215419 4291263
0.021796783 -0.12031617 1.221374 4291265
0.031143706 -0.12026492 1.2212062 4291265
0.041658998 -0.12020727 1.2210174 4225471
0.052022386 -0.11991732 1.2183291 4159424
0.061253041 -0.11972835 1.2166619 4028351
-0.036628526 -0.10978226 1.2183441 4159681
-0.031031713 -0.11148269 1.2211658 4159937
0.012403963 -0.11218775 1.2214836 4685507
0.021979317 -0.11120041 1.2213049 4685766
0.030858895 -0.11115172 1.2211454 4685768
0.042882916 -0.11117078 1.2209301 4685254
0.052106272 -0.11077949 1.2205119 4553924
0.06121679 -0.11043115 1.2168455 4357059
0.067010492 -0.10804929 1.2164744 4291524
-0.037647683 -0.10185302 1.2186384 4291267
-0.031816367 -0.10091621 1.2213944 4291525
0.022879917 -0.10511895 1.2212448 5080013
0.029890111 -0.10508052 1.2211189 5013964
0.04505264 -0.10032316 1.2208128 5014215
0.052062832 -0.10028472 1.2206869 4948424
0.061355028 -0.10016976 1.2197194 4686025
0.0689409 -0.099539198 1.2179786 4554696
-0.044898052 -0.088862106 1.218341 4423366
-0.039323065 -0.090976819 1.2201234 4489158
-0.033267196 -0.093741201 1.2221687 4554697
0.044993628 -0.089806437 1.2207378 6725605
0.052238807 -0.090000428 1.2206094 5541334
0.061350744 -0.089716762 1.2204441 4949456
0.071311638 -0.090832405 1.2187495 4752076
-0.046114895 -0.079550773 1.2182956 4751821
-0.040325657 -0.080845095 1.2208683 4817612
-0.01466513 -0.077279381 1.2217164 6133729
