# .PCD v0.7 - Point Cloud Data file format
VERSION 0.7
FIELDS x y z rgba
SIZE 4 4 4 4
TYPE F F F U
COUNT 1 1 1 1
WIDTH 174
HEIGHT 1
VIEWPOINT 0 0 0 1 0 0 0
POINTS 174
DATA ascii
-0.35377479 0.092281304 1.0880561 5134174
-0.34703466 0.091578789 1.0895122 5134176
-0.35485697 0.096855335 1.0878578 4871515
-0.36088431 0.07366889 1.0935292 4936281
-0.3504411 0.072523102 1.0957848 5199967
-0.34571427 0.073164232 1.096815 5397348
-0.36965606 0.079255015 1.0913644 4673880
-0.3616913 0.079764888 1.0911336 4870232
-0.3525936 0.081090152 1.0938512 5068382
-0.3432532 0.08274626 1.0964482 5068384
-0.33606917 0.085300297 1.0990032 4476504
-0.37098321 0.088588908 1.0897523 4607822
-0.36385018 0.089548729 1.0899425 4673623
-0.35310516 0.090249814 1.0922782 5134174
-0.34311458 0.092507802 1.0944628 4739419
-0.33580601 0.093283072 1.0973694 4081746
-0.37260494 0.096855953 1.0911719 4410445
-0.36401731 0.099041849 1.0899817 4213839
-0.35409164 0.10090508 1.092149 4345429
-0.34427592 0.10181967 1.0942849 4016211
-0.33658606 0.10253748 1.097139 3621193
-0.36412951 0.10451743 1.0900009 3884109
-0.35515985 0.10672469 1.0919636 3752784
-0.34505016 0.1080276 1.0941664 3621192
-0.33784434 0.10790498 1.095728 3686459
-0.36964813 0.060408693 1.1021945 4673626
-0.36105612 0.060593959 1.1011528 4870741
-0.35206917 0.060639109 1.1032909 5265754
-0.34245935 0.062667362 1.1056645 5397604
-0.33516768 0.066480584 1.1103051 4608350
-0.3709448 0.069247715 1.0979636 4673629
-0.36217606 0.068837471 1.0976448 4870744
-0.35371527 0.068395518 1.099135 5134174
-0.3421526 0.071992099 1.1023384 5397606
-0.33510721 0.07382717 1.1081439 4476760
-0.33002618 0.078642242 1.1115167 4015442
-0.37969577 0.076499887 1.1007283 3883351
-0.37522161 0.077010989 1.0963815 4475995
-0.34196052 0.078586064 1.1017652 5068641
-0.3339262 0.082935169 1.1056426 4082513
-0.32924122 0.084817395 1.1112244 3752531
-0.37742877 0.08677122 1.0947526 4079443
-0.33305848 0.092231326 1.1053392 3621705
-0.32902804 0.090450741 1.1093712 3751503
-0.33527106 0.099550277 1.1033826 3490378
-0.35858825 0.043699093 1.1163008 5002588
-0.35548609 0.044098891 1.1169767 5528419
-0.37011656 0.051890939 1.1138659 4739163
-0.36210546 0.049969513 1.1125749 5002333
-0.35284737 0.050853182 1.1145328 5397092
-0.34445521 0.054006632 1.1177666 5332066
-0.33909515 0.05588888 1.120625 4740695
-0.37087947 0.055702195 1.1083586 4082256
-0.3636252 0.055440251 1.1081389 5068120
-0.34190169 0.058813948 1.1149234 5200736
-0.33480683 0.063159548 1.1186825 4345175
-0.32865199 0.065944396 1.122385 4278096
-0.33268303 0.072933279 1.1158653 4147028
-0.32881975 0.073037006 1.120883 3819087
-0.3291432 0.080509365 1.1170441 3687502
-0.35247505 0.032679334 1.1287949 5528423
-0.34836486 0.033751968 1.1296948 5397348
-0.36231795 0.039237443 1.121255 4804702
-0.35297468 0.040223643 1.1226959 5462626
-0.34448144 0.042014498 1.1271918 5003105
-0.33727452 0.046542954 1.1297457 4804440
-0.37273192 0.048069261 1.1204313 3817824
-0.36563563 0.04513254 1.1178538 4673622
-0.35008332 0.047136869 1.1212424 5660265
-0.34311238 0.049603507 1.1227738 5069150
-0.33512437 0.053508647 1.1265836 4475986
-0.33037791 0.058444545 1.1276523 4014924
-0.332744 0.060153175 1.1251061 4606547
-0.3275907 0.063279845 1.1267601 3620428
-0.35946196 0.025032397 1.1343819 4079956
-0.3524535 0.024897421 1.1335617 5266270
-0.34731224 0.026051927 1.1370248 5002845
-0.36259118 0.03080989 1.1317027 4079963
-0.35446522 0.029200025 1.1314056 5330781
-0.34488434 0.03270692 1.1351966 5002331
-0.34207955 0.039070576 1.1341701 5001816
-0.33863875 0.042411935 1.1361706 4540755
-0.33490646 0.049793571 1.1358109 4213074
-0.35485357 0.015119466 1.1475818 5265766
-0.3560572 0.01942225 1.1444314 5068639
-0.34772104 0.022157082 1.1457735 4214103
-0.36367154 0.024667896 1.1375592 1580089
-0.34349808 0.029126078 1.1426517 4145996
-0.34141767 0.035210762 1.142469 4212054
-0.36158738 0.013249368 1.1491764 3618132
-0.35612893 0.012845867 1.1503569 5199718
-0.34987769 0.014758474 1.1517277 4214875
-0.34736186 -0.044980053 1.1681707 528927
-0.34231451 -0.045002967 1.169265 1517876
-0.34448794 -0.055029154 1.1809934 4419983
-0.35957173 -0.050132271 1.1757146 1651559
-0.35371971 -0.048664857 1.1737794 1782104
-0.34122467 -0.0496285 1.1743252 4154236
-0.33745641 -0.045634296 1.1790845 3028033
-0.35283941 -0.041365396 1.1792909 2369321
-0.3444832 -0.040461171 1.1774265 2040105
-0.35428205 -0.022284886 1.1750367 4146252
-0.36079067 -0.05505947 1.1856438 5077683
-0.35358033 -0.056758415 1.1858296 4617364
-0.34439552 -0.055955216 1.1878278 4549258
-0.3393617 -0.049923908 1.1862388 6582660
-0.36236006 -0.043786332 1.1813 7695014
-0.35550255 -0.039120264 1.1835065 2040625
-0.34765765 -0.036885686 1.1845434 2172202
-0.34047887 -0.040966354 1.1860677 2760198
-0.35567448 -0.066089205 1.1948519 4683677
-0.35014877 -0.065377079 1.1960558 3831442
-0.36368012 -0.060196452 1.1919931 3299734
-0.35627595 -0.061495341 1.1921532 4683420
-0.34810391 -0.06092931 1.1948974 3960460
-0.35610291 -0.13931133 1.2074792 3829135
-0.34828159 -0.13781758 1.2091873 4223637
-0.34219059 -0.13748519 1.2105107 3960467
-0.35805398 -0.1301084 1.2071292 3498881
-0.34985748 -0.12859842 1.2085094 3895695
-0.34249473 -0.12629971 1.2105337 3631246
-0.35869321 -0.11897188 1.2040094 3499128
-0.35156891 -0.1188623 1.2055553 4025235
-0.34354615 -0.11682962 1.2092116 3499655
-0.35884094 -0.1095742 1.2020056 3826560
-0.35240835 -0.10878104 1.2039185 4156303
-0.34514698 -0.10835053 1.2080548 3630985
-0.36042053 -0.10012703 1.204808 3893387
-0.35373393 -0.09897884 1.2046754 4157333
-0.34710482 -0.097575985 1.2082275 3762828
-0.36024725 -0.091519006 1.2069606 3762325
-0.35426372 -0.088231146 1.2045323 4420507
-0.34871107 -0.087638922 1.2081288 3828877
-0.36307546 -0.077943176 1.2064551 4222878
-0.35509691 -0.078840323 1.2043581 4552347
-0.34966418 -0.07850232 1.2085404 3631755
-0.36456406 -0.070266977 1.2004631 3627913
-0.35553277 -0.070871457 1.200302 4683676
-0.3493726 -0.068722151 1.2046628 3892613
-0.34873405 -0.060749821 1.2015158 3563127
-0.3575947 -0.14931816 1.2126311 3033484
-0.34990302 -0.14927982 1.2167501 2897991
-0.34013295 -0.14722094 1.2183837 3891064
-0.33326247 -0.14554276 1.2215924 2638186
-0.36232206 -0.14078987 1.2102119 666715
-0.35147625 -0.14165656 1.2125571 4813457
-0.33867127 -0.13703419 1.2153708 3499654
-0.33251205 -0.13605104 1.2204843 3561592
-0.36437273 -0.12956531 1.2098565 6722
-0.33997887 -0.12758705 1.2151623 3694979
-0.33406559 -0.12653185 1.2184995 3233144
-0.33973804 -0.1170662 1.2152982 3104639
-0.33587441 -0.11649545 1.2193965 2640231
-0.34161225 -0.10751726 1.2149677 2907007
-0.33833489 -0.10713205 1.2203327 3099492
-0.3648729 -0.098160341 1.2099978 4089741
-0.34326041 -0.098060228 1.2150509 3496061
-0.34020233 -0.096447147 1.2204778 4278874
-0.36363265 -0.089841768 1.2103329 2972810
-0.34539521 -0.087882116 1.2156988 3757171
-0.34233335 -0.088529453 1.2200787 3748927
-0.3632271 -0.083961837 1.2104676 3630740
-0.34543684 -0.080503561 1.2143531 3953004
-0.35084635 -0.15559405 1.2217922 984897
-0.34116447 -0.15043238 1.223933 4350584
-0.33429217 -0.12533522 1.226305 4674411
-0.33590099 -0.11690891 1.2284108 6974583
-0.33897269 -0.10612325 1.2278305 3815753
-0.37047306 -0.099414736 1.2179828 5799072
-0.33871293 -0.096495785 1.2248935 5064001
-0.33605695 -0.13134839 1.2384949 7039097
-0.33725056 -0.12565117 1.2393047 7565430
-0.33892465 -0.11713481 1.2386682 8223350
-0.33923185 -0.10893212 1.2338916 9076613
