# .PCD v0.7 - Point Cloud Data file format
VERSION 0.7
FIELDS x y z rgba
SIZE 4 4 4 4
TYPE F F F U
COUNT 1 1 1 1
WIDTH 1131
HEIGHT 1
VIEWPOINT 0 0 0 1 0 0 0
POINTS 1131
DATA ascii
0.16309911 -0.1052551 1.0897174 3630254
0.16930264 -0.10627265 1.0892667 11516624
0.17635383 -0.1064621 1.0910113 13685195
-0.14023274 -0.08671394 1.0823618 2708908
0.16316926 -0.096784025 1.0888406 3762605
0.16782501 -0.10072351 1.0878197 10465738
0.16363527 -0.089982107 1.0847223 6721740
-0.13738398 -0.069463708 1.0840553 1588628
-0.13426918 -0.069562688 1.0841243 3826867
-0.13330284 -0.14318395 1.0901742 3694011
-0.13802272 -0.13649952 1.0880668 7178192
-0.13280572 -0.13641393 1.0893363 2114980
-0.1378669 -0.12502727 1.088066 1063065
-0.13349912 -0.12798779 1.089064 2447769
-0.13715786 -0.11748526 1.088079 2578847
-0.13470984 -0.11711884 1.0911337 2907546
0.16294162 -0.1253632 1.0962228 6851775
0.1685728 -0.12507631 1.094847 13029078
-0.13616525 -0.10741982 1.0888474 3104917
-0.13431138 -0.1045766 1.0911379 3170462
0.16189297 -0.11453253 1.0961956 3040417
0.17153426 -0.11816484 1.0949099 13422807
0.17455141 -0.11513056 1.0949756 13619661
-0.13785318 -0.094837002 1.0888054 3104162
0.16093151 -0.10628442 1.0955282 2973607
-0.13692914 -0.086537018 1.0890728 3169952
0.16162026 -0.09619417 1.0976832 2843043
-0.13840036 -0.076807395 1.0881944 3301299
-0.12878117 -0.15524271 1.1002811 4750553
-0.12525471 -0.15758245 1.1023606 1196192
-0.1304933 -0.14791834 1.0970397 3036848
-0.12678452 -0.1503129 1.102324 1789334
0.15733323 -0.15529925 1.1061122 12898004
-0.12912935 -0.13706242 1.0984886 2776475
0.15814434 -0.14622089 1.1050265 9087435
0.16417253 -0.14176813 1.1017574 13488846
-0.13102925 -0.12625827 1.0982202 3038106
0.15835823 -0.13557161 1.104027 4354994
0.16631354 -0.13385576 1.1018019 13752800
-0.13262552 -0.11649379 1.0996261 2973083
0.15862064 -0.12580347 1.1049372 2121388
-0.13693076 -0.1027986 1.0950803 3301280
-0.13378899 -0.10785402 1.0987889 3039132
0.15965186 -0.11776982 1.1028155 2646946
0.17599685 -0.11304066 1.1050092 13817039
-0.13673081 -0.096504629 1.0950823 3366820
-0.13431242 -0.097050063 1.1001374 3105183
0.15833555 -0.10547478 1.1063161 3631271
0.17711529 -0.11097038 1.1050332 13817037
-0.13637534 -0.085315362 1.0950861 3499424
-0.1338018 -0.086418226 1.0989444 3302563
0.15834358 -0.095217869 1.1055535 3369127
-0.13345692 -0.07692229 1.0986484 3434147
0.16054042 -0.085698515 1.1065668 2908578
0.1664166 -0.083254702 1.1047863 8233160
-0.13767466 -0.065628074 1.0959074 3365295
-0.13246211 -0.06700699 1.0990131 3499689
0.16164163 -0.07615044 1.1063255 4024485
0.16668393 -0.074839897 1.1047891 11192030
-0.13590741 -0.056801286 1.0980867 2181536
-0.13070567 -0.056825001 1.0994021 3433908
0.16099043 -0.070692606 1.1086626 2708114
-0.13411893 -0.048634358 1.1021243 8233201
-0.13029245 -0.049874842 1.1004947 3564980
0.017635453 0.11851805 1.1014198 9935247
0.023372741 0.11923819 1.1015465 9934992
-0.12011489 -0.16666627 1.111172 929696
-0.11599612 -0.16715151 1.1135715 1984411
0.14634278 -0.17121893 1.1193781 13424882
-0.12077229 -0.15707676 1.1088611 2512540
-0.11628556 -0.15912004 1.1122285 2906513
0.14790775 -0.16534168 1.1169655 8955594
0.15368007 -0.16417974 1.1135365 14080986
-0.12748678 -0.14277293 1.1093074 2381461
-0.12458283 -0.14804989 1.1113116 2776212
0.14845936 -0.15575276 1.1157384 3697834
-0.12776387 -0.13684013 1.1101326 2841752
-0.12584192 -0.14122573 1.1133442 2906774
0.15061645 -0.14589955 1.1162626 2646183
-0.1293388 -0.12622339 1.1111178 2907034
-0.12550321 -0.13056444 1.1133478 2775704
0.15144613 -0.13718714 1.117378 3696546
0.15365572 -0.13271849 1.1168585 3761571
-0.13002551 -0.1167445 1.1096861 2973083
0.15554167 -0.1266748 1.1162312 3368880
-0.13078272 -0.10650668 1.1091211 3039134
0.15621513 -0.11508179 1.1158477 3500454
-0.13062128 -0.096056528 1.1088207 3171232
0.15538993 -0.10661291 1.1168396 3631529
-0.13088426 -0.087274373 1.1081115 3302564
0.15430978 -0.096178427 1.1125251 3697839
0.15465227 -0.096441872 1.1155336 3763633
-0.1306597 -0.076721594 1.1089128 3368355
0.15558156 -0.085210115 1.1152642 3436468
0.16999359 -0.08204186 1.1158677 10992842
-0.12799144 -0.066383593 1.108968 3697068
0.15375616 -0.072204426 1.1195058 3765679
0.15698203 -0.074806497 1.1147587 3830452
0.16977459 -0.077781327 1.1158613 11387079
-0.12659837 -0.058647394 1.1067954 3631022
-0.12431085 -0.05550877 1.1063448 3500456
0.153404 -0.065272167 1.1166058 3830449
0.16015482 -0.065979458 1.1142753 5207985
0.16655 -0.067195728 1.1184534 10334913
-0.12649991 -0.04662133 1.1088651 3434161
0.15283373 -0.056318171 1.1163359 3893939
0.15992549 -0.057027366 1.1156913 8428221
-0.12651603 -0.036586892 1.1124334 6194370
-0.12192199 -0.034629788 1.1133916 4421311
0.15102541 -0.044429544 1.1183439 5734064
0.1571829 -0.048301205 1.1195728 10203587
-0.12037796 -0.028008819 1.1134233 6852289
0.14977604 -0.038464494 1.1162045 8955077
0.023573093 0.095214717 1.1165634 9737616
-0.09097293 -0.20435894 1.1224744 7635861
-0.087665342 -0.20495787 1.1252151 8100012
-0.1009683 -0.19411752 1.1249168 10535920
-0.093978822 -0.19701689 1.1227189 5996227
-0.087551333 -0.20136923 1.1252164 6394567
-0.11044294 -0.18277296 1.116701 8431615
-0.10358749 -0.18543693 1.1196235 1526185
-0.097575247 -0.1880236 1.1238465 1262491
0.12606484 -0.19235113 1.1299399 11717846
-0.11872104 -0.17394941 1.1165146 7571711
-0.11184859 -0.17643854 1.1182234 1917611
-0.10503921 -0.17917854 1.1221539 2379673
-0.098439395 -0.18234333 1.1249684 2644619
0.12787196 -0.18553188 1.1299773 5010097
0.13533494 -0.1828016 1.1269979 10599906
0.14249028 -0.18181759 1.1262985 14081762
-0.11169223 -0.16760924 1.1208793 2709143
0.12925072 -0.1749699 1.130004 2909858
0.13599601 -0.17470762 1.1263341 4026283
0.1436636 -0.17514247 1.1228212 12307424
-0.11807579 -0.15363869 1.1165214 2775446
-0.11389419 -0.15798844 1.1195253 2775442
0.13751221 -0.16580385 1.1271827 3105445
0.14259064 -0.16513197 1.1222936 2578854
-0.11992596 -0.1463775 1.1186321 2775449
-0.11588855 -0.14891437 1.1232363 2906778
0.140121 -0.1560816 1.1286372 3564451
0.14359154 -0.15521213 1.1247127 3433893
-0.12352599 -0.13758089 1.1196897 2840984
0.14184108 -0.14794885 1.1302726 3565217
0.14580554 -0.14595513 1.125025 3499430
-0.12788004 -0.12550549 1.116294 2841497
-0.12508805 -0.12737523 1.122358 2907290
0.14836587 -0.13540924 1.1274117 3237547
-0.12779485 -0.1160474 1.1178929 2973083
-0.1251764 -0.11661461 1.1223521 3038877
0.1517377 -0.12582569 1.128665 3827369
0.15456839 -0.12485017 1.1225438 3564710
-0.12856333 -0.10604922 1.1191297 3039391
-0.12606998 -0.10804498 1.122996 3170977
0.15233071 -0.1157508 1.1284925 3565735
0.15484008 -0.1162983 1.1225467 3500198
-0.12847672 -0.097856417 1.1212718 3170977
0.15289925 -0.10674537 1.1278349 3631790
0.15386996 -0.10845669 1.1305243 3434923
-0.12827438 -0.087303616 1.1202723 3302823
0.15292327 -0.09528771 1.1279979 3566513
-0.12789632 -0.077308327 1.1189432 3368614
0.15231207 -0.086007066 1.1280195 3632560
-0.12717772 -0.069621429 1.12029 3565995
0.15146554 -0.075806022 1.1267248 3895728
-0.12380193 -0.054672591 1.1219596 3697842
0.14947726 -0.065779611 1.1252102 4158132
-0.12185006 -0.046425771 1.1207631 3502262
0.14865929 -0.05508006 1.1263884 4027837
-0.11889121 -0.037000086 1.1202391 3698611
0.14408243 -0.043484475 1.1302838 4619197
0.14990826 -0.046769094 1.1248741 4946612
-0.12485753 -0.030365877 1.1163259 7180220
-0.11733928 -0.027607411 1.123693 4815032
0.14421798 -0.037003383 1.1296176 5209534
0.14915726 -0.035404336 1.1223912 8425655
0.024496127 0.0911557 1.1195861 9474444
-0.064616375 -0.21556267 1.1327307 8300241
-0.082478322 -0.20679465 1.128695 7642055
-0.07505884 -0.20768887 1.1309965 4815810
-0.068447255 -0.21135135 1.1326444 5210825
-0.091224521 -0.19459681 1.1281333 932767
-0.084406339 -0.19825979 1.1299701 2382238
-0.075941995 -0.20157087 1.132475 2251168
0.10754886 -0.2041485 1.1365362 6518691
0.11344631 -0.20330879 1.1352375 11319227
-0.092778213 -0.18780309 1.1299635 2447513
-0.087545231 -0.19144294 1.1322144 2513045
0.11554198 -0.19514886 1.135657 4617903
0.12264583 -0.19538985 1.1328661 10929103
-0.10186923 -0.17648143 1.129346 2971544
-0.096092932 -0.18043229 1.1300209 2774929
0.11792098 -0.18595168 1.135092 2909086
0.12290534 -0.1851602 1.1328681 3105187
-0.10894742 -0.16305801 1.1277295 2709911
-0.10454196 -0.16826107 1.1301824 2644371
0.12472089 -0.17539753 1.1335202 3368356
-0.11110695 -0.15637159 1.1294979 2775444
-0.10629055 -0.16065064 1.1304547 2709910
0.12942904 -0.16567618 1.1346056 3368613
0.13376231 -0.16284651 1.1331002 3499683
-0.11403905 -0.14770383 1.1291115 2841497
0.13141061 -0.15827942 1.1370473 3237027
0.13628162 -0.15572241 1.1344869 3302821
-0.11957715 -0.13593087 1.1280559 2645144
-0.11620554 -0.13776603 1.1306714 2775964
0.13969581 -0.14589189 1.1354076 3237542
0.1439136 -0.14244413 1.1346509 3106215
-0.12115939 -0.12747763 1.1289011 2907291
0.14136086 -0.13638775 1.1359258 3499683
0.14455721 -0.13450713 1.1344717 3303338
-0.12184991 -0.1175251 1.1298279 3039134
0.14643447 -0.12607123 1.1347791 3499947
-0.12648673 -0.1030707 1.1273193 3236770
-0.12453894 -0.10742602 1.1306981 3236770
0.14848948 -0.11562384 1.1352272 3500458
-0.12628096 -0.096593961 1.1273215 3237027
-0.1246565 -0.097008996 1.1313585 3302821
0.15117906 -0.10515527 1.1357505 3632048
-0.12597233 -0.086878866 1.1273247 3302824
-0.12436399 -0.087801263 1.1313616 3302569
0.1497371 -0.096215874 1.1356114 3632047
-0.12611596 -0.077797718 1.1273183 3434408
-0.12335429 -0.075518161 1.1313795 3434665
0.14670558 -0.085066915 1.1351765 4026292
-0.12535505 -0.067448661 1.1273313 3631531
-0.1236929 -0.066677645 1.1313686 3631531
0.14709616 -0.077096507 1.1338081 4157366
-0.12514928 -0.060971934 1.1273334 4025255
-0.12188907 -0.055950988 1.1296899 3632304
0.14694403 -0.065295942 1.133356 4289211
-0.11813283 -0.04707351 1.1291983 3568048
0.14411739 -0.054432653 1.1339562 4094399
0.14627825 -0.058891289 1.1353393 4224702
-0.11659507 -0.041073579 1.1275154 3764911
-0.11307545 -0.036869317 1.1300923 3895729
0.14181255 -0.04593407 1.1346902 4487616
-0.1172999 -0.022937335 1.1304939 6458567
-0.11247431 -0.026865147 1.1300019 3895996
0.14211607 -0.034900367 1.133638 5735616
0.1490863 -0.031867117 1.133391 9477559
-0.1167981 -0.020269401 1.1315042 6852289
-0.11354911 -0.020372644 1.1315761 5933254
0.056364771 0.075892128 1.1312996 9474701
-0.028476894 -0.22717151 1.1455377 7248329
0.0043136636 -0.22980565 1.1454641 5801654
0.012378426 -0.22893175 1.1451087 5210039
0.025114801 -0.22997025 1.1467246 6328255
0.032775726 -0.2302137 1.1468942 7379645
0.044331778 -0.23045915 1.14715 8430007
0.052422155 -0.22894046 1.1433275 8625323
-0.065920167 -0.2178492 1.1367037 9678537
-0.055247039 -0.21819234 1.143468 4422071
-0.045969978 -0.21916425 1.1451477 2778029
-0.036271654 -0.22128829 1.1453631 2513574
-0.028748956 -0.22424072 1.1455306 2315684
0.0011419421 -0.22592109 1.1461927 2120102
0.013180537 -0.22630364 1.1464592 2185635
0.02634833 -0.22562629 1.1467503 2186146
0.031785637 -0.22689486 1.1468711 2316696
0.047177043 -0.22519234 1.1472111 4486314
0.054788794 -0.22503844 1.1453789 5997746
0.066005036 -0.22243401 1.1464835 6063288
0.074690513 -0.22124515 1.1478184 6589614
0.082782239 -0.22172144 1.1479976 8757678
-0.070974298 -0.20571874 1.1365875 1855898
-0.064408913 -0.20843849 1.1399726 2249885
-0.056893632 -0.21098992 1.1441755 2381985
-0.048853502 -0.21337451 1.1450818 3039902
0.068848573 -0.215471 1.1476871 2841504
0.074885257 -0.21511494 1.1478205 3302564
0.084545873 -0.21316478 1.1466999 4420011
0.094465308 -0.21264493 1.1425371 6984117
0.10403574 -0.21019179 1.1404618 6254993
-0.081796646 -0.19484979 1.1371442 2710418
-0.074258767 -0.19835621 1.1408941 2775447
-0.067673206 -0.20079684 1.1438605 2906776
0.087222196 -0.20535314 1.1476898 3171492
0.095832646 -0.20425138 1.1450791 3237285
0.1042958 -0.20330399 1.1410365 3629215
-0.084549941 -0.1878112 1.1410817 2775191
-0.076586068 -0.19155867 1.1437932 2906012
0.098047264 -0.19511229 1.1466585 3040421
0.10511466 -0.19365188 1.1434276 3105703
0.1110746 -0.19409293 1.1406115 2777257
-0.0993165 -0.17326126 1.1359484 2710677
-0.092756152 -0.17735767 1.1396253 2709909
-0.086712129 -0.1811609 1.1422317 2709910
0.10645258 -0.185312 1.1470339 3368100
0.11418533 -0.18372029 1.1428105 3302561
-0.10040496 -0.16668007 1.1390337 2710421
-0.095804244 -0.16968121 1.1432265 2644886
0.10872307 -0.17761834 1.1485554 3040936
0.11690498 -0.17477711 1.1466479 3237031
0.12346195 -0.17208198 1.1438782 3368615
-0.1095629 -0.15334862 1.1357143 2776209
-0.10438221 -0.15799853 1.1405818 2841240
0.11915958 -0.16635895 1.1487823 3237287
0.12579606 -0.16434047 1.1437842 3302822
-0.11045185 -0.14666611 1.1402266 2710683
-0.10592597 -0.15010495 1.1431288 2841499
0.12826805 -0.15599832 1.146391 3237541
0.13340728 -0.15344398 1.1426911 3237798
-0.11232096 -0.13804686 1.1407918 2907293
0.13017289 -0.14728905 1.1490189 3237797
0.13509475 -0.14489916 1.1441257 3303334
-0.11816461 -0.12615651 1.1366571 2907805
-0.11615323 -0.12785953 1.1427609 2907805
0.13717481 -0.13559815 1.1467245 3434407
-0.11840153 -0.11683747 1.1381726 3039392
-0.11594015 -0.1181005 1.1435622 3039391
0.13942392 -0.126092 1.1466438 3500202
0.14378445 -0.12331326 1.1413094 3631274
-0.12129915 -0.10757373 1.1399722 3170979
0.14165352 -0.11589093 1.1488168 3631791
0.14518943 -0.11543217 1.1431158 3566510
-0.12140048 -0.097215645 1.1411474 3105957
0.14121173 -0.10475668 1.1475805 3632305
0.14654478 -0.10602152 1.1416974 3501227
-0.12141278 -0.087183572 1.1388571 3237546
0.14106202 -0.095675796 1.1466948 3698099
0.14577581 -0.09620373 1.1417435 3698094
-0.12048578 -0.077459887 1.1391122 3434923
0.14257996 -0.086445555 1.1472706 3895479
0.14488958 -0.088526994 1.1413209 3895477
-0.11978871 -0.067019552 1.139743 3566256
0.14316805 -0.075156286 1.1486131 4027579
0.14575218 -0.074661113 1.1453359 4157882
-0.118495 -0.058145937 1.1390119 3567024
0.14144389 -0.065558627 1.1480615 4159422
0.14586343 -0.065844432 1.1437347 4289724
-0.11582102 -0.04838815 1.1368709 3567791
-0.11277641 -0.046551738 1.1422722 3764403
0.14008707 -0.055472333 1.1465372 4356797
-0.11061766 -0.03767819 1.13622 3830196
0.13775127 -0.0458101 1.1455483 4619718
-0.10885127 -0.026828021 1.1385933 3896507
0.13403021 -0.033793166 1.1459507 4817095
0.13860747 -0.034515072 1.1428292 4948420
-0.11618687 -0.017416909 1.1395186 6916535
-0.10871322 -0.018184856 1.1393765 5210049
0.13334052 -0.027377397 1.1480446 5013440
0.13786298 -0.027102984 1.1458107 5998788
0.035534013 0.049845271 1.141708 5859448
0.04376924 0.049661644 1.1400328 6122362
0.049262784 0.04961469 1.1431551 6319482
0.060318574 0.050529353 1.1474004 5330522
0.036290452 0.054271244 1.1401989 5792108
0.044149 0.05486732 1.1398392 5527648
0.04940141 0.053978212 1.1431565 5067354
-0.022802472 -0.22732532 1.148664 4354997
-0.015525258 -0.22858524 1.150826 4684224
-0.0055931685 -0.22860587 1.1495787 4289976
0.0054629259 -0.22665399 1.1492891 2054307
0.015869582 -0.227534 1.1495198 2777510
0.021321077 -0.2288059 1.1496409 4026798
0.037780162 -0.2293289 1.1500053 5604271
0.041672919 -0.2278046 1.1500908 4881326
-0.041440856 -0.21637435 1.1482475 3039902
-0.033537254 -0.21754399 1.1489229 2710943
-0.025197253 -0.21971998 1.1519134 2645152
-0.015491414 -0.22288916 1.1554924 2514339
-0.0055422476 -0.22310144 1.1551793 2514851
0.0044820905 -0.22091255 1.1538665 2842787
0.014422637 -0.22080377 1.1518859 2908579
0.024088835 -0.22071594 1.1525887 3039651
0.034228858 -0.22174194 1.1539249 2908578
0.043605529 -0.22116749 1.1538821 2778020
0.05373444 -0.21982622 1.1517838 2646433
0.063249886 -0.2228139 1.1505665 5012145
0.074730568 -0.22446048 1.1508211 8955830
-0.054201774 -0.2075454 1.1482477 2841242
-0.044476978 -0.20992896 1.1505119 2775960
-0.035558075 -0.21148893 1.1526437 2841500
-0.026308618 -0.21395737 1.1565834 2907551
0.0053881872 -0.21422708 1.157285 3105184
0.014607273 -0.21415129 1.1574889 3170722
0.024551246 -0.21446726 1.1577091 3302053
0.034696925 -0.21423653 1.1579335 3170723
0.045222595 -0.21364909 1.1581662 3105188
0.054611105 -0.21315295 1.156659 3170467
0.064303681 -0.21324989 1.1529869 3236258
0.074594513 -0.21013227 1.1512574 3171236
-0.070439592 -0.19567719 1.1475983 2906776
-0.064009905 -0.19811934 1.1488845 2907033
-0.055678919 -0.19937089 1.1527607 2841497
-0.046628878 -0.20372397 1.1561301 2775704
0.055733819 -0.20771423 1.1583966 3105443
0.064572908 -0.20799509 1.1585923 3105443
0.075505957 -0.20462236 1.1575695 3105956
0.084035933 -0.20201981 1.1542196 3105956
-0.081063636 -0.18435308 1.147359 2644884
-0.074179098 -0.18814307 1.1505134 2775705
-0.06596414 -0.19127901 1.1533637 2841497
0.079287529 -0.19739996 1.158914 3172006
0.087037653 -0.19526246 1.1580845 3040421
0.093026504 -0.19310084 1.1557156 2974628
-0.089562878 -0.1752938 1.1471676 2645144
-0.083048657 -0.17727104 1.150372 2710425
-0.077869132 -0.180159 1.1520007 2776216
0.096760467 -0.18457532 1.1560452 3171493
0.10187647 -0.18250507 1.1530068 3237026
-0.092402168 -0.16718283 1.1496906 2710424
-0.086195007 -0.16959196 1.153787 2710937
0.099807456 -0.17813912 1.159361 3302823
0.10633382 -0.17425807 1.1563452 3172005
0.11224394 -0.17130327 1.1556327 3172006
-0.10065111 -0.155532 1.146915 2841498
-0.096448295 -0.15818904 1.1519332 2907290
0.10899764 -0.16736843 1.1595603 3303592
0.11537832 -0.16418679 1.1583668 3237544
0.12181082 -0.16003758 1.1518393 3303337
-0.10218439 -0.14702199 1.1485926 2973342
-0.097834937 -0.15028641 1.1549773 3038879
0.11923922 -0.15654197 1.1591161 3237544
0.12379347 -0.15365425 1.1546814 3303336
-0.10982178 -0.13522004 1.1477047 2973342
-0.10396077 -0.13857402 1.1523368 2973600
0.12746361 -0.14464104 1.1559596 3368872
-0.11117923 -0.12731037 1.1490251 3039392
-0.10590546 -0.12829959 1.1547906 3236259
0.12902464 -0.13524622 1.1577412 3500460
0.13365525 -0.13294771 1.1520914 3434923
-0.11198424 -0.11763708 1.1495398 3170978
0.13032898 -0.12635431 1.1586837 3500719
0.13517335 -0.12400538 1.1554558 3500718
-0.11812469 -0.10626996 1.1465101 3237029
-0.11449102 -0.10775861 1.1525925 3237286
0.13573088 -0.11516254 1.1582375 3697329
-0.11784574 -0.097489625 1.1465131 3237543
-0.11544073 -0.097133107 1.154068 3172263
0.13724877 -0.10609455 1.1577624 3697843
-0.11790873 -0.087846629 1.149509 3303340
-0.11591163 -0.086838841 1.1545539 3303852
0.13734601 -0.095646694 1.1581608 3764149
-0.11759551 -0.078088105 1.1465114 3500716
-0.11501355 -0.076805569 1.1545701 3501229
0.14064829 -0.085309073 1.1568011 3764661
-0.11697406 -0.070051089 1.1465223 3566512
-0.11379305 -0.066729829 1.1509562 3632306
0.13799523 -0.075011037 1.1566378 3896764
-0.11288628 -0.057133008 1.1509727 3698357
0.132285 -0.064784721 1.1587043 4291265
0.13620105 -0.066076703 1.1532662 4225217
-0.11098235 -0.04818099 1.1506478 3764408
0.13338663 -0.055211492 1.1580583 4554434
0.13613088 -0.055022266 1.1521175 4488640
-0.10770635 -0.037567612 1.1515166 3895997
-0.10355749 -0.034499098 1.154808 4027323
0.13336025 -0.04440701 1.1570535 4817354
-0.10578493 -0.028088704 1.1480881 3962044
-0.10190297 -0.027008168 1.1540418 4093118
0.12436502 -0.03178525 1.1598505 5014224
0.1297566 -0.034688853 1.15597 4751563
-0.10432767 -0.017717779 1.1467829 4290235
-0.099545784 -0.017742991 1.1514231 4158908
-0.093373232 -0.015647337 1.1550264 4028609
0.12296517 -0.02469819 1.1580387 4817874
0.12976891 -0.024627574 1.1529658 5145287
-0.096905135 -0.011174828 1.1493453 4487616
-0.091538563 -0.0086822808 1.1537309 4356800
0.11451992 -0.011908539 1.1576248 5276623
0.12084331 -0.015121698 1.1540508 5604813
0.13023262 -0.016637549 1.152862 6720449
-0.089245558 -0.0017657131 1.1551127 5671109
0.11280712 -0.0062863231 1.1590139 5802961
0.1192361 -0.0072585642 1.1550602 6787017
0.037273202 0.01191432 1.1579072 12972031
-0.017579712 0.023576349 1.1546887 5869264
0.014637852 0.018902458 1.1574038 7515376
0.022114821 0.018296093 1.1575695 8764660
0.03170101 0.017548993 1.1577818 10146554
0.038297553 0.016306847 1.1579283 10870005
-0.074868053 0.033715047 1.1474158 8028800
-0.069735825 0.03391818 1.1475292 7305855
-0.01320045 0.024580911 1.1567857 5671370
-0.0098857926 0.024475582 1.1568592 5869265
0.013316813 0.023738287 1.1573728 6988787
0.017736357 0.023597844 1.1574707 7185904
0.10419834 0.02970057 1.1593816 6314850
-0.068357788 0.038879342 1.147558 8028802
0.10121702 0.03333538 1.1593144 6117979
0.077786855 0.044611521 1.1507897 5593178
0.079981402 0.044541784 1.1508384 5658970
-0.021020144 -0.21709397 1.1607027 2973083
-0.01551191 -0.2183791 1.160825 2973595
-0.0060910126 -0.21824816 1.1617002 2973598
-0.040624306 -0.2053702 1.1602646 2842012
-0.034293361 -0.20695898 1.1604053 2776219
-0.025071505 -0.20973429 1.1621345 2907806
-0.015563539 -0.21141696 1.16398 2907807
-0.005034077 -0.21229246 1.1643888 2973599
0.0039731786 -0.21023726 1.1619201 3039136
0.014725631 -0.2095885 1.1628245 3170723
0.024715425 -0.2097863 1.1623788 3236770
0.034536608 -0.20963717 1.1619292 3170979
0.043583494 -0.20971116 1.1621295 3170980
0.050288498 -0.20825911 1.1622773 3171236
-0.051429383 -0.19614616 1.160022 2842012
-0.044829354 -0.19862315 1.161624 2842011
-0.035316218 -0.20118585 1.1628426 2842012
-0.027114335 -0.20289724 1.1645635 2907805
0.01928832 -0.20576411 1.1655914 3302309
0.025358073 -0.20479929 1.1645823 3302308
0.034039166 -0.20495352 1.1634169 3171236
0.044815496 -0.20586501 1.1621554 3171236
0.055440463 -0.20482901 1.1640571 3105443
0.065331653 -0.20321929 1.1636086 3171492
0.071958095 -0.20154712 1.1627544 3040420
-0.072142236 -0.18438716 1.1595594 2841497
-0.0634716 -0.18741347 1.1602858 2907291
-0.055153392 -0.19033036 1.1618203 2907549
-0.048567887 -0.19172633 1.1640847 2907551
0.068591803 -0.19619185 1.1666789 3040420
0.075703792 -0.19457477 1.1649405 3106213
0.083648346 -0.19222386 1.1630096 3106214
-0.07348296 -0.17785516 1.1615278 2907290
-0.067025349 -0.18094172 1.1631721 2973340
0.079999611 -0.1876432 1.1669282 3302823
0.08616963 -0.1854523 1.1646633 3237030
0.09240938 -0.18224213 1.164978 3237031
-0.090355858 -0.16382688 1.1591488 2841497
-0.082087114 -0.16757132 1.1598666 2842012
-0.07609722 -0.16999981 1.1624672 2907547
0.097853884 -0.17472638 1.1642408 3368361
0.10305818 -0.17163804 1.1634315 3237285
-0.091646217 -0.15786543 1.1591181 2973085
-0.084938064 -0.15830445 1.1620041 3039135
0.10040975 -0.16766858 1.1633714 3368615
0.10701919 -0.16454679 1.1642441 3237799
0.11170806 -0.16136712 1.1636192 3303337
-0.09862648 -0.14469266 1.1589588 2973857
-0.093347959 -0.14839274 1.1606328 3039137
-0.087501153 -0.14946069 1.1632077 3104930
0.10921684 -0.15711318 1.165563 3172264
0.11555647 -0.15442215 1.1643686 3238059
-0.099578679 -0.13645621 1.1599349 3039650
-0.095781066 -0.14017503 1.163021 3105700
0.1190694 -0.14478564 1.1659303 3369132
0.12332346 -0.14508495 1.1638702 3434410
-0.10207684 -0.12780952 1.1605909 3171236
0.12119449 -0.13672712 1.1670208 3500719
0.124664 -0.13453168 1.1658964 3435183
-0.1087974 -0.11550727 1.158723 3302823
-0.10427144 -0.1176326 1.1614912 3171495
0.12575008 -0.12446348 1.1657349 3566514
-0.11030091 -0.10682021 1.1601413 3368873
-0.10670023 -0.10811236 1.1619674 3368875
0.1287782 -0.1153615 1.1647801 3697588
-0.11094326 -0.097729288 1.1613362 3303850
0.13059139 -0.10581534 1.167446 3763892
0.13391182 -0.10523637 1.1640898 3698099
-0.11193831 -0.087486416 1.1602435 3435181
-0.10615572 -0.088160612 1.1627723 3435438
0.13191915 -0.095725812 1.1680431 3829942
0.13484444 -0.095268697 1.1652499 3764149
-0.11060468 -0.07785058 1.1606696 3501229
0.13234335 -0.082372554 1.1680477 3896505
0.13669282 -0.085394084 1.1659627 3830455
-0.10968352 -0.068013549 1.1602247 3632563
-0.10541333 -0.06479241 1.16278 3567542
0.13027 -0.075143553 1.1654271 4027837
0.13541554 -0.078864165 1.1641134 3896505
-0.10860113 -0.057984076 1.1600398 3829940
-0.10520122 -0.058115773 1.1627823 3699127
0.12904739 -0.065486521 1.1666349 4291009
-0.10784905 -0.047861435 1.1595192 3895737
-0.10421704 -0.047167223 1.1628001 4027576
0.12967686 -0.055462189 1.1659783 4422849
-0.10643694 -0.041206658 1.1587478 4158911
-0.10187928 -0.037651051 1.1608479 4093372
0.1299412 -0.04572098 1.1654805 4817355
-0.097824886 -0.02837576 1.1604725 4093630
-0.093015671 -0.025086127 1.1630398 4094397
0.12281919 -0.034741521 1.1660411 5080014
0.12727758 -0.03808751 1.1639184 4883149
-0.095431499 -0.020834811 1.1589838 4028348
-0.090880968 -0.018421158 1.160584 4028864
0.11864631 -0.024960093 1.1655008 4949202
-0.087023258 -0.0089461133 1.1609842 4029123
-0.082784809 -0.0068463162 1.1632595 3963586
0.11285917 -0.014906541 1.1662581 5146069
0.11621761 -0.019419678 1.1636667 5080276
-0.085927792 -0.0011552796 1.159187 5342665
-0.078830838 0.00076818466 1.1633441 4882633
-0.015298718 0.0025194585 1.1647494 6070261
-0.0086237201 0.0023073554 1.1648972 6528744
-0.0019487226 0.0020952448 1.1650449 8827627
0.013626266 0.0016003251 1.1653898 10340848
0.022347134 0.00068669766 1.1655831 8895736
0.029826336 -0.00025112927 1.165749 6266608
0.10420995 -0.0018347278 1.1663953 5475287
0.10861382 -0.0054938197 1.164827 5475028
-0.07512562 0.0066452101 1.1614236 5999306
-0.068434425 0.0075426623 1.1615713 5540557
-0.05975163 0.010603599 1.1610955 5803727
-0.047046866 0.011944413 1.1640434 4950220
-0.038126405 0.010535829 1.1642413 5016280
-0.028418358 0.0096160397 1.1640564 5411294
-0.018337339 0.0092827678 1.1624391 5806569
-0.0083916308 0.0089789852 1.1642997 7120874
0.0012006434 0.00942114 1.1651119 12379901
0.011827002 0.0085597634 1.1628205 13891069
0.02164302 0.0080092922 1.1623641 12969723
0.031579014 0.0079304352 1.1634684 9946095
0.041627489 0.0073793009 1.1640937 10013177
0.051422141 0.0089496896 1.1640691 7449069
0.05808536 0.010583922 1.1663703 5411552
0.10145786 0.0021442324 1.1648326 6526426
-0.044911977 0.016827218 1.1640888 6264275
-0.037241846 0.017388299 1.1617578 5803990
-0.027618129 0.01771339 1.1604702 5345755
-0.017578091 0.018656798 1.1606921 5412839
-0.0079867179 0.018945247 1.1614044 5676266
0.00096313655 0.01773826 1.1639605 7253489
0.010824019 0.017243944 1.1623213 8436213
0.020747811 0.014696375 1.1615416 12051453
0.035301737 0.01867424 1.1618623 10082302
0.043113012 0.017685972 1.1620355 10607102
0.051565032 0.016571626 1.1622229 7515119
0.058549691 0.015735202 1.1637113 6068200
-0.0055789696 0.024413623 1.1609554 6001365
-0.0011441987 0.024272695 1.1610537 6396124
0.11146045 0.026466951 1.1635445 6447199
-0.01206644 -0.20771345 1.1688993 3039391
-0.0045435345 -0.20738058 1.170566 3039135
0.0069107646 -0.20831648 1.1693195 3104930
-0.040735669 -0.19562539 1.1682605 2776478
-0.034436222 -0.1967224 1.1704007 2842271
-0.024640616 -0.19867474 1.1728005 2907807
-0.015490367 -0.20082599 1.1735178 2908063
-0.0055300696 -0.20199306 1.1748433 2973600
0.0048252437 -0.20133898 1.1746054 3105187
0.014778135 -0.20130359 1.1739058 3236773
0.024534091 -0.20027328 1.1734407 3237029
0.035469793 -0.20070648 1.1737496 3171237
0.045135483 -0.20196307 1.1716633 3171236
0.054711696 -0.20070675 1.1712977 3105444
0.063621208 -0.19950034 1.1705711 3171493
-0.052710325 -0.186371 1.1711929 2841758
-0.044707157 -0.18893418 1.1721711 2907551
-0.035900626 -0.19032218 1.1751907 2842271
-0.0252859 -0.19184922 1.176603 2908064
-0.018578097 -0.19318771 1.1767519 2973857
0.002776376 -0.19386628 1.1772246 3105444
0.015670756 -0.19327572 1.1775098 3237030
0.025718493 -0.19401073 1.1769321 3302823
0.03540102 -0.19353655 1.1770232 3171495
0.044811629 -0.19242531 1.1767626 3105703
0.05451126 -0.19299224 1.1767687 3105703
0.064369358 -0.19280635 1.1750863 3105702
0.072838806 -0.19056882 1.1724865 3105958
-0.063702919 -0.17831901 1.1693933 2973598
-0.055864036 -0.18029141 1.1739216 2907551
-0.046082605 -0.18246707 1.1761394 2908065
0.066337876 -0.18445963 1.1786277 3237288
0.07522887 -0.18402722 1.1763792 3302823
0.084017739 -0.1822616 1.1735882 3237287
-0.072769925 -0.16675693 1.1703988 3105183
-0.065491319 -0.17036535 1.1738225 2974112
-0.057308123 -0.17282639 1.1758873 2842786
0.076880716 -0.17731553 1.1788584 3171750
0.085648648 -0.17398168 1.1777174 3172008
0.093861036 -0.17248474 1.1735642 3303081
-0.0805334 -0.15682171 1.1680324 3104930
-0.074517526 -0.15933734 1.1741679 3170978
0.088371068 -0.16572 1.1791084 3303337
0.096241802 -0.16444871 1.1770314 3368873
0.10329117 -0.16336441 1.1739817 3237543
-0.089998491 -0.1437269 1.1698185 3040164
-0.083424293 -0.14769508 1.1710886 3105701
-0.077282354 -0.15231086 1.1754378 3302822
0.098050348 -0.15548164 1.1793188 3303597
0.10562209 -0.153292 1.1751207 3238059
0.11282395 -0.15046041 1.1736423 3303852
-0.092261888 -0.13731734 1.1708776 3106213
-0.084660284 -0.13960402 1.1752698 3172007
0.10671744 -0.14425384 1.1793064 3369387
0.114742 -0.14426801 1.175683 3435181
-0.099031121 -0.12685837 1.1682788 3237030
-0.092579834 -0.12773897 1.1727563 3237800
-0.086368218 -0.13139111 1.1752291 3303594
0.10872277 -0.13826562 1.1795486 3500972
0.117334 -0.13425745 1.1764868 3500976
0.12221171 -0.13150546 1.1718426 3500977
-0.099915117 -0.11756863 1.1700341 3237545
-0.095396295 -0.1193798 1.1741357 3303852
0.11935108 -0.12479931 1.1797788 3566772
0.1227491 -0.1252369 1.1758531 3566515
-0.10212038 -0.10778385 1.1701206 3369389
0.12051012 -0.11529763 1.179801 3763639
0.12400924 -0.11447098 1.1749879 3763639
-0.10841847 -0.093738429 1.168059 3435181
-0.10323862 -0.097593591 1.1714139 3435438
0.1215044 -0.10423669 1.1798189 3895737
0.12660389 -0.10427688 1.174754 3764149
-0.10773647 -0.08728049 1.1691386 3435438
-0.10247869 -0.088080719 1.1733178 3501231
0.12168298 -0.098615713 1.1798208 3961530
0.12729901 -0.094809815 1.1747658 3961528
0.13465181 -0.091663331 1.1721032 3895735
-0.10717475 -0.078042157 1.1697477 3501489
-0.10296664 -0.077954628 1.1727239 3501490
0.12225441 -0.080628604 1.1798267 4159679
0.12791747 -0.085485779 1.1752254 3962041
0.13472275 -0.089430176 1.172104 3895735
-0.10738821 -0.070689902 1.16874 3501747
-0.1025408 -0.067653067 1.1715136 3567541
0.12170752 -0.074234352 1.1798123 4225473
0.12547094 -0.074855074 1.1758947 4159424
-0.10042202 -0.05756297 1.1704898 3764919
0.12173951 -0.065357767 1.1798098 4422597
0.12579128 -0.064771593 1.1758982 4357059
-0.099615648 -0.047811005 1.1703326 3896505
-0.094964519 -0.047843546 1.1750081 3962298
0.12195194 -0.054736406 1.1798105 4685767
0.12611163 -0.054688107 1.1759015 4422851
-0.097825274 -0.038736615 1.1685399 4027836
-0.0928763 -0.03713033 1.1739591 4028094
0.12046156 -0.044089213 1.1776555 4948684
0.126404 -0.04617352 1.1729041 4751818
-0.095837168 -0.030689254 1.1669805 4093632
-0.090289421 -0.027415946 1.1729497 4094399
0.1140019 -0.033477627 1.1796268 5080784
0.11838383 -0.03468297 1.1749231 5211343
-0.086742438 -0.019081242 1.1715422 4094402
-0.080179885 -0.016225241 1.1743233 4226244
-0.073662534 -0.014760561 1.1754673 4620744
-0.01967869 -0.015350647 1.1766621 5412064
0.0027997047 -0.016064927 1.1771598 6463211
0.010743627 -0.020156741 1.1773371 6397929
0.020444294 -0.019823924 1.1775515 6397929
0.029732954 -0.018206872 1.1777565 6003432
0.11134999 -0.024108753 1.1770641 5081042
0.11658024 -0.027379796 1.1716796 5081041
-0.078459322 -0.0084622204 1.1692239 4160963
-0.070475481 -0.0077809691 1.1746778 4752075
-0.055358388 -0.0052142367 1.1758689 4949201
-0.048632734 -0.0059906244 1.1760179 5016022
-0.039079286 -0.0074142218 1.175563 5213659
-0.029272147 -0.0086302757 1.1752162 5411552
-0.019467756 -0.0097243339 1.1758645 5740773
-0.0093848398 -0.010051109 1.1768879 6003172
0.00073824264 -0.010369606 1.1767119 6331366
0.010887295 -0.010665677 1.174336 6989552
0.02097284 -0.0109905 1.1749593 6792432
0.03106638 -0.011303492 1.1745327 5937640
0.039527398 -0.01065775 1.1769702 5806054
0.050254323 -0.0096955821 1.1782075 5674725
0.05703355 -0.008785665 1.1783571 5674983
0.10275292 -0.012770467 1.1793703 5146841
0.10882754 -0.015024677 1.1737899 5080789
-0.074750423 -6.3531101e-005 1.1674359 4554184
-0.071346223 0.00065413862 1.1705116 4751049
-0.056162417 0.00043863058 1.1738484 4818129
-0.048707362 0.00020429492 1.1732132 5015507
-0.039098289 -8.6188316e-005 1.1700252 5147609
-0.028968956 -0.00040316582 1.1689491 5346018
-0.019405238 -0.0010904074 1.1717727 5937898
-0.0089923693 -0.0021682009 1.1722258 6462952
0.0014997134 -0.0017531887 1.1715688 8303605
0.010886045 -0.0021541789 1.1707605 8501495
0.02072317 -0.003444992 1.1701653 7252467
0.03202251 -0.0032613054 1.1712545 6069484
0.04117965 -0.0024643987 1.1723183 6135528
0.051203765 -0.0031678975 1.1756371 5741031
0.060557496 -0.0032697022 1.1774328 5543655
0.070048727 -0.0022741258 1.1786427 5477092
0.080148496 -0.0012677535 1.1788659 5739747
0.091504626 -0.0018786937 1.1791173 5280481
0.10071659 -0.0047967881 1.175629 5015513
0.10618999 -0.0069430098 1.1734427 4949463
-0.067839749 0.0064231232 1.1675863 4818122
-0.058381625 0.0071160793 1.1677954 5147606
-0.049675599 0.0075845644 1.1679878 4818639
-0.041048408 0.00557179 1.1681795 5344472
0.0036215764 0.0047111809 1.1691684 12971007
0.0080690645 0.0040109977 1.1692669 12905215
0.032627795 0.0032306015 1.1698107 5807584
0.046023466 0.002804935 1.1701072 6004710
0.05211382 0.0035694391 1.1702417 5807083
0.06093068 0.0057657734 1.1725699 5477863
0.069358572 0.00506147 1.1752906 5542628
0.080993012 0.0017062873 1.1788834 5673698
0.091649525 0.0033279583 1.1776183 5804766
0.097373545 0.0011732057 1.1712441 5147865
0.064239092 0.01340317 1.1705065 5412324
-0.012038627 -0.19631831 1.1808987 3039650
-0.0056149559 -0.19716766 1.1810411 3039650
-0.032086842 -0.18777728 1.1804519 2842271
-0.025320493 -0.1879923 1.1806017 2973857
-0.015065507 -0.1894106 1.1820925 2973857
-0.0054042386 -0.19147176 1.1835706 3039395
0.0053257328 -0.18987688 1.1830587 3171237
0.014686001 -0.18875515 1.1825541 3237030
0.025031101 -0.18853331 1.1832548 3302569
0.033364054 -0.18893927 1.1832342 3237546
-0.051408745 -0.17667842 1.1800202 2908065
-0.043867584 -0.17788589 1.1801876 2973857
-0.035270091 -0.17992416 1.1813788 2973857
-0.025615964 -0.18213342 1.1827111 2973858
-0.017397426 -0.18322475 1.1847762 3105444
0.014285487 -0.18423152 1.1854776 3237030
0.026025932 -0.18309399 1.185737 3302825
0.034972269 -0.1829228 1.1856271 3171754
0.044843301 -0.18375449 1.1841532 3171752
0.055205766 -0.18365988 1.183794 3171753
0.063745387 -0.18081175 1.1835701 3237546
0.072058141 -0.17866609 1.1827531 3303592
-0.062278263 -0.16686973 1.1797761 2908579
-0.054203741 -0.16929808 1.1819562 2908579
-0.044443127 -0.17107928 1.1830821 3105444
-0.035878837 -0.17312068 1.1843635 3105443
0.058702912 -0.17657934 1.1864576 3303339
0.06683208 -0.17456257 1.1853032 3303082
0.075335935 -0.17272249 1.1833949 3237545
0.081366636 -0.16992876 1.1829559 3303850
-0.070941716 -0.15530303 1.1795801 3302822
-0.06452065 -0.15981558 1.1819744 3040165
-0.057557292 -0.16382137 1.1838803 3040167
0.070305891 -0.16788441 1.1867112 3303598
0.076511778 -0.16408411 1.1859058 3238061
0.085178711 -0.16229534 1.1841488 3303596
0.092966422 -0.16013509 1.1832089 3369131
-0.080380872 -0.14446443 1.1793673 3171751
-0.074106626 -0.14829928 1.1809196 3368615
-0.067381524 -0.15217966 1.1836587 3171751
0.094955415 -0.15362023 1.1847508 3369134
-0.08213041 -0.13735169 1.1793259 3369130
-0.076144636 -0.13950399 1.18246 3434922
0.096353166 -0.14399473 1.1863263 3435183
-0.083610915 -0.12870215 1.1806237 3434923
0.099325292 -0.13699062 1.1865418 3501232
0.10619383 -0.13407461 1.1860808 3435694
0.11303366 -0.13254422 1.1836427 3501232
-0.091466218 -0.11730295 1.1801122 3369646
-0.085908003 -0.12123615 1.1819037 3435182
0.11018032 -0.12496635 1.1875778 3567282
0.11434794 -0.12456316 1.1854875 3567027
-0.099425688 -0.10433931 1.1789311 3501231
-0.095029756 -0.10841262 1.1817805 3435439
0.11043202 -0.11704368 1.1875805 3829686
0.11566139 -0.11439504 1.185917 3829431
-0.099318184 -0.10095531 1.1789322 3501231
-0.094868779 -0.097855292 1.1806966 3567024
0.11825517 -0.10509266 1.1864156 3830201
-0.09887024 -0.086855277 1.178937 3632818
-0.095710255 -0.087677196 1.1810076 3698612
0.12072293 -0.094554707 1.1857994 3896507
-0.098565631 -0.077267259 1.1789402 3633333
-0.094791733 -0.077584021 1.1818244 3764919
0.12089379 -0.084346242 1.1852993 4093886
-0.09873721 -0.068454504 1.1789331 3633334
-0.094743483 -0.067648485 1.1822219 3830201
0.11818192 -0.074630588 1.1859581 4291523
-0.093959376 -0.057365503 1.1807019 3896506
0.11803931 -0.064135894 1.1853287 4619975
-0.090379387 -0.047923367 1.1808252 4028348
0.11248154 -0.052530516 1.187602 5146320
0.11685839 -0.054891337 1.1866995 4883148
-0.088332288 -0.038567945 1.1794381 3962814
-0.083369069 -0.037366789 1.1821196 3963072
0.11180362 -0.043676637 1.1860834 5146577
0.11555686 -0.045418438 1.1841667 5080527
-0.086663954 -0.029544041 1.179186 4028607
-0.080481514 -0.02799353 1.1814561 4291526
-0.030575894 -0.027591489 1.1844273 5147865
-0.023100581 -0.027602449 1.1845927 5344731
-0.0067777475 -0.027214766 1.1849538 5345501
1.1448748e-005 -0.027430497 1.1851041 5739743
0.010142455 -0.029984854 1.1839956 5936862
0.019183274 -0.030280523 1.1845291 5871068
0.029395342 -0.029497162 1.185755 5739228
0.047535826 -0.028940663 1.1861563 5213656
0.11021284 -0.034739617 1.1859449 4949970
-0.078421421 -0.020603463 1.179365 4422856
-0.069884248 -0.016110457 1.181371 4686797
-0.059490092 -0.015312023 1.1817825 4884690
-0.049180299 -0.017079197 1.1835116 4950486
-0.038738232 -0.01817017 1.1829096 5213659
-0.030170839 -0.019613937 1.1812326 5279707
-0.020062458 -0.021073177 1.1818569 5345244
-0.009851004 -0.01976452 1.1819935 5411808
-2.9781833e-005 -0.021190904 1.1820092 5806052
0.0092204548 -0.024611659 1.1813059 6068964
0.021237586 -0.025369897 1.1815721 6068963
0.031322312 -0.023308724 1.1827178 6003173
0.039807979 -0.021859303 1.1837821 5608417
0.049987264 -0.022192255 1.1846076 5411038
0.056803823 -0.022437453 1.1863589 5279709
0.10153886 -0.022101015 1.1864254 5212630
0.10710528 -0.025869869 1.184806 5015248
-0.065966889 -0.010554671 1.179637 4949712
-0.059200533 -0.010769688 1.1797868 4949713
-0.049050998 -0.011092201 1.1800115 5016279
-0.039665226 -0.011766821 1.1802194 5213659
-0.031043213 -0.012793563 1.1804106 5345501
0.041713029 -0.014540941 1.1820211 5871590
0.050188895 -0.014245704 1.1822087 5871847
0.060465131 -0.012339137 1.1844357 5543139
0.067774795 -0.011441812 1.184883 5280225
0.092240907 -0.012234002 1.1871394 5411294
0.098109663 -0.013833858 1.1847237 5279196
0.070192866 -0.0064128116 1.1826484 5411556
0.079832301 -0.0050253943 1.1828612 5412066
0.091109559 -0.0053837523 1.1831108 5477344
0.097804241 -0.0078547746 1.18326 5213404
-0.0043861875 -0.18691708 1.1890665 3105189
-0.024495274 -0.17780851 1.1896183 3039906
-0.014878743 -0.18024984 1.1902608 3039908
-0.0054302542 -0.18171236 1.1923755 3105447
0.0052529229 -0.1812738 1.190028 3105702
0.014386183 -0.18031409 1.1894795 3171750
0.023378804 -0.18018648 1.1896784 3237289
0.034894444 -0.17869225 1.1899327 3237548
0.045112498 -0.17901695 1.1901588 3171752
0.054195218 -0.17930557 1.19036 3171752
-0.051740631 -0.16548106 1.1880107 3039909
-0.043939751 -0.16646087 1.1890728 3105701
-0.035910171 -0.16936773 1.1909086 3105443
-0.026521415 -0.17506306 1.1925733 3040163
0.0042644897 -0.17512888 1.1932545 3105960
0.015691346 -0.17437674 1.1935071 3105958
0.024848126 -0.17315525 1.1929091 3237545
0.035296578 -0.17242536 1.192045 3237547
0.045353357 -0.17243169 1.1917622 3237544
0.055415455 -0.17252409 1.1920691 3237545
0.064147256 -0.17081201 1.1912439 3303339
-0.062681057 -0.15569825 1.1877651 3172009
-0.054418184 -0.1591275 1.1903497 3105961
-0.045194879 -0.1616382 1.1921551 3171752
0.038771898 -0.16573212 1.1940147 3303337
0.045606773 -0.16594929 1.1941659 3303593
0.055727378 -0.16529326 1.1943897 3303594
0.065038785 -0.16297263 1.1933446 3303596
0.071964741 -0.16168198 1.1907467 3238062
-0.069790177 -0.14694664 1.1876045 3434409
-0.064171299 -0.14888999 1.1905538 3237547
-0.055939615 -0.15152413 1.1919136 3237805
0.066204153 -0.15570498 1.194618 3238318
0.075612254 -0.15306911 1.193705 3238572
0.085773014 -0.15317684 1.1922494 3434926
0.092314653 -0.15277983 1.1911937 3369134
-0.071869805 -0.13784423 1.1887863 3435179
-0.066045813 -0.14004157 1.1912413 3369388
0.080432728 -0.14652559 1.1949295 3500977
0.086184919 -0.1431672 1.1940552 3435186
0.091704614 -0.14336318 1.1911768 3500720
-0.080032922 -0.12683675 1.1883707 3566511
-0.074462973 -0.12989482 1.1901622 3566767
-0.06736666 -0.13270441 1.1916538 3500977
0.087879188 -0.13558425 1.1945901 3501234
0.095900826 -0.13339521 1.1920161 3501490
-0.089180037 -0.11336434 1.1871631 3566770
-0.082627676 -0.11815916 1.1899104 3632306
-0.076190248 -0.12329942 1.1914551 3632563
0.097935729 -0.12479185 1.1938967 3699127
0.10546178 -0.12374248 1.1919447 3633076
-0.090232365 -0.10773984 1.188138 3566770
-0.08432658 -0.10882756 1.1912698 3763892
0.099084951 -0.11575246 1.1953309 3633335
0.10588102 -0.11377205 1.1930355 3764407
-0.090083815 -0.097659692 1.1899379 3698868
-0.085788868 -0.098408684 1.1912336 3699126
0.10003462 -0.1038066 1.1953474 3962811
0.10659255 -0.10410306 1.1943258 3830969
0.114368 -0.10456728 1.191664 3830714
-0.090898894 -0.087672032 1.1880389 3699126
-0.085724264 -0.088399023 1.1912314 3830712
0.10759415 -0.094189644 1.1949111 4028606
0.1158229 -0.094545029 1.1916925 3962300
-0.090032831 -0.078209385 1.1887317 3830970
-0.085178055 -0.078042582 1.1912396 3962813
0.10814004 -0.085144036 1.1955199 4291522
0.11610965 -0.084983148 1.192059 4094399
-0.090016924 -0.068135776 1.1888427 3962044
-0.085203588 -0.068591282 1.1912355 4093630
0.11006996 -0.074455194 1.195292 4554438
0.11497133 -0.075355373 1.1916666 4357059
-0.08906623 -0.058117028 1.1884789 4093886
-0.084526479 -0.057532918 1.1912465 4291009
0.10858732 -0.063857891 1.1946329 4686026
0.11467818 -0.064140812 1.191656 4685769
-0.087195769 -0.050905369 1.187184 4159935
-0.082182437 -0.048595812 1.1901519 4225985
0.10162735 -0.053671893 1.1953642 5015248
0.10772873 -0.055139914 1.1928326 5014991
-0.078840427 -0.038878493 1.1894827 4292037
-0.073583953 -0.041260827 1.1914827 4619977
-0.050583839 -0.035148241 1.1919893 5279449
-0.042609818 -0.035401631 1.1921659 5016538
-0.030115407 -0.036939234 1.1924429 4950743
-0.020653412 -0.038917229 1.1926531 4950488
-0.011557621 -0.039049707 1.1928543 5147351
-0.0010852814 -0.038431998 1.1930858 5278422
0.0094220191 -0.041081309 1.1924303 5212886
0.018807009 -0.040716264 1.1917764 5278423
0.028788161 -0.040195797 1.1924973 5147094
0.039641086 -0.040948186 1.193988 4885460
0.049185023 -0.039746396 1.1934713 4950741
0.058289565 -0.039520327 1.1944001 5016279
0.10048243 -0.043776553 1.1939349 5212370
0.10789376 -0.045168623 1.1914989 5212369
-0.076536193 -0.03198076 1.1894134 4423370
-0.074354112 -0.028853305 1.1890604 4554187
-0.049952142 -0.030143082 1.1917347 5147610
-0.040039446 -0.029727831 1.1902202 5081818
-0.031012312 -0.032290593 1.1904209 5016538
-0.019826952 -0.031208701 1.1908014 5278938
-0.010708227 -0.030891687 1.191003 5344730
-0.000250143 -0.032102562 1.1901679 5673948
0.0099214017 -0.03466643 1.1893271 5805277
0.019004116 -0.034955047 1.1895281 5541848
0.029258247 -0.034144111 1.1897547 5475544
0.039548453 -0.032197587 1.1899817 5213397
0.050160039 -0.033158369 1.190923 5082070
0.059831258 -0.032684162 1.1928313 5016536
0.068796858 -0.030794777 1.1946294 5213915
0.079568408 -0.030159436 1.1948675 5279453
0.090489715 -0.030962698 1.1951095 5213659
0.099862687 -0.034181278 1.1937177 5212628
0.10653348 -0.034326147 1.1914648 5146833
-0.073805086 -0.02291178 1.1874701 4554443
-0.048542842 -0.021895707 1.1880287 5016281
-0.041305523 -0.023035094 1.1881893 5147611
-0.010226087 -0.024932109 1.1888777 5411294
0.06068771 -0.022638462 1.190446 5148123
0.0693992 -0.022919923 1.1908389 5213915
0.07938645 -0.023467705 1.1925997 5213917
0.090124279 -0.023743227 1.1934141 5213659
0.098112814 -0.025730014 1.1916087 5212887
0.091179892 -0.016786799 1.1911186 5279708
0.095721252 -0.016931109 1.1912191 5411037
-0.021026503 -0.17598256 1.1976964 3106213
-0.015306978 -0.17616433 1.197823 3105959
-0.0040521221 -0.17717645 1.1980724 3105706
0.0064272061 -0.17685497 1.1983042 3105960
-0.031675499 -0.16877215 1.1974581 3105700
-0.024307832 -0.17025763 1.1983719 3105957
-0.015151839 -0.17054856 1.1985745 3106216
-0.0048715407 -0.17099655 1.1996524 3106217
0.0057824934 -0.1708194 1.1997167 3171752
0.013697699 -0.17057642 1.199554 3303337
0.025020475 -0.16828306 1.1987125 3369130
0.031883899 -0.16850117 1.1988645 3369132
-0.043919921 -0.15716451 1.1975163 3171753
-0.034381863 -0.15988535 1.2001157 3171752
-0.024151716 -0.16049464 1.2024227 3172010
-0.015034919 -0.1620654 1.2035754 3172012
-0.0050086798 -0.16196904 1.2045928 3237802
0.0056859925 -0.16160594 1.2042837 3303338
0.014877969 -0.1619263 1.2046872 3369133
0.025230961 -0.16201933 1.203196 3369388
0.035384715 -0.16200525 1.2027299 3303853
0.044746131 -0.16112463 1.2008969 3369643
0.05490566 -0.16064 1.1996063 3303851
-0.061261959 -0.14492521 1.1967946 3303598
-0.053286418 -0.14801003 1.198687 3303341
-0.044859484 -0.15002514 1.2023036 3303340
-0.035630517 -0.15176445 1.2053663 3369132
-0.027525082 -0.15390867 1.2055465 3303600
0.0058689336 -0.15496981 1.2062858 3303598
0.018535629 -0.15537232 1.2065662 3435186
0.026020493 -0.15561016 1.2067319 3369391
0.035808392 -0.15592119 1.2069486 3369392
0.045720447 -0.15331815 1.2065516 3369390
0.055395607 -0.15254934 1.2031798 3435184
0.064910784 -0.15122522 1.1995889 3369392
-0.062008947 -0.13789438 1.1975757 3369646
-0.055062965 -0.14044589 1.2025316 3303853
-0.04795967 -0.14403562 1.2050906 3173034
0.047905151 -0.14523715 1.2072124 3566773
0.05614141 -0.14418751 1.2067274 3566516
0.066070557 -0.14261384 1.2040125 3500977
0.076019876 -0.14357835 1.2015166 3500975
-0.071771815 -0.12561132 1.196555 3632562
-0.063063972 -0.12897012 1.1997497 3501236
-0.055661984 -0.12939194 1.2044703 3501494
0.068503998 -0.13361265 1.2076639 3698612
0.076106854 -0.13418899 1.2054682 3567283
0.08509998 -0.13202637 1.2029626 3567283
0.092675522 -0.1292007 1.2001952 3501747
-0.07865569 -0.11573899 1.196399 3895478
-0.073213533 -0.11845643 1.1990211 3698613
-0.064453937 -0.11969917 1.2033831 3633080
0.070153788 -0.12703556 1.207698 3699128
0.07680992 -0.12405424 1.2078443 3830713
0.086322784 -0.12396656 1.2068543 3699126
0.093336649 -0.1228078 1.2002075 3633333
-0.079708569 -0.10768816 1.1963727 3961271
-0.073091805 -0.10836433 1.2015207 3896247
-0.066510901 -0.11116318 1.204668 3764921
0.076924302 -0.11710462 1.2078441 3962300
0.087869778 -0.11493829 1.2076149 3896506
0.095588848 -0.1132796 1.2022543 3764920
-0.080807507 -0.098330945 1.1978453 3830712
-0.074054718 -0.098127358 1.2031627 4093627
0.091166981 -0.10418283 1.2081546 4028352
0.096694082 -0.10374609 1.2029421 3962812
-0.08089076 -0.088006794 1.1983399 3962556
-0.074618138 -0.089347877 1.2040361 4028606
0.090970948 -0.093767002 1.2081465 4357317
0.097460739 -0.094158716 1.2042892 4225985
0.10306264 -0.09058921 1.2004108 4225985
-0.080113381 -0.079018243 1.1983538 4028606
-0.075490549 -0.079363532 1.2044576 4094655
0.091752447 -0.085754037 1.2081608 4554695
0.097754247 -0.083781362 1.2036917 4554182
0.1040918 -0.082222745 1.2004305 4619462
-0.080423258 -0.068348967 1.1968132 4159424
-0.072562553 -0.06761732 1.203287 4160448
-0.066235341 -0.066206403 1.2046576 4554440
0.092637509 -0.072407797 1.2081754 4620747
0.09822274 -0.073601708 1.206049 4686026
0.10471547 -0.07460697 1.2004415 4619977
-0.079486363 -0.058709919 1.1963596 4291265
-0.071545251 -0.05897557 1.2017868 4357573
-0.066015787 -0.059295598 1.2046599 4751563
0.0081505645 -0.058962107 1.206301 4818903
0.015851744 -0.058438182 1.2064712 4819160
0.091065869 -0.063825935 1.2081375 4752590
0.098512545 -0.064404368 1.2060519 4817869
0.10382599 -0.066561334 1.2004188 4752076
-0.077195875 -0.049192056 1.1964068 4291778
-0.071264185 -0.048680667 1.2001177 4554440
-0.065759651 -0.051233001 1.2046626 4883149
-0.046869982 -0.044754054 1.2010773 5674209
-0.041131426 -0.044936404 1.2012043 5082331
-0.029907454 -0.048134487 1.203321 4950745
-0.020595491 -0.050166313 1.2010605 4884953
-0.011409848 -0.05044898 1.2010639 4753366
