# .PCD v0.7 - Point Cloud Data file format
VERSION 0.7
FIELDS x y z rgba
SIZE 4 4 4 4
TYPE F F F U
COUNT 1 1 1 1
WIDTH 1129
HEIGHT 1
VIEWPOINT 0 0 0 1 0 0 0
POINTS 1129
DATA ascii
-0.12120669 -0.036465436 1.1217301 6852289
0.14869818 -0.031461574 1.1066781 8955077
0.015392136 0.094780564 1.1161579 9737616
-0.081281252 -0.2108666 1.127741 7635861
-0.077771291 -0.21128199 1.1302546 8100012
-0.091660194 -0.20121942 1.1308984 10535920
-0.084677361 -0.20370907 1.1282279 5996227
-0.077861845 -0.20769268 1.1302704 6394567
-0.10228654 -0.19041558 1.1233933 8431615
-0.095112704 -0.19269015 1.1258425 1526185
-0.088697448 -0.1949389 1.1296449 1262491
0.13474032 -0.18648484 1.1209941 11717846
-0.11104754 -0.18207943 1.123806 7571711
-0.10394683 -0.18417558 1.125044 1917611
-0.096748032 -0.18653111 1.1285012 2379673
-0.089807503 -0.18932004 1.1308562 2644619
0.13615498 -0.17957352 1.1209548 5010097
0.14323759 -0.17641377 1.1175079 10599906
0.15026358 -0.17502052 1.1163456 14081762
-0.10411819 -0.17535819 1.1277382 2709143
0.13692924 -0.16895005 1.1209557 2909858
0.14339177 -0.16829368 1.1168519 4026283
0.15082312 -0.1682809 1.1128398 12307424
-0.11156004 -0.16176513 1.1238955 2775446
-0.10694859 -0.16587582 1.1265912 2775442
0.14445156 -0.15931982 1.1176538 3105445
0.14914978 -0.15834691 1.1124457 2578854
-0.11367711 -0.15462671 1.1261681 2775449
-0.10920683 -0.1569396 1.1304811 2906778
0.14659315 -0.14946783 1.1189936 3564451
0.14974204 -0.1483919 1.1148548 3433893
-0.11769418 -0.14605293 1.1275144 2840984
0.14795187 -0.14125395 1.1205626 3565217
0.15144148 -0.13902421 1.115078 3499430
-0.12294289 -0.13423818 1.1244868 2841497
-0.11965495 -0.13595973 1.1303424 2907290
0.15354949 -0.12835491 1.1173561 3237547
-0.12329071 -0.12479456 1.1261348 2973083
-0.12035566 -0.12522179 1.1304086 3038877
0.15644586 -0.11859726 1.118444 3827369
0.15880629 -0.11744678 1.1121562 3564710
-0.12454357 -0.11485969 1.127481 3039391
-0.121691 -0.11671886 1.1311626 3170977
0.15645194 -0.10850457 1.118295 3565735
0.15859053 -0.10889339 1.1121938 3500198
-0.12478212 -0.10668049 1.1296633 3170977
0.15646246 -0.099479802 1.1176569 3631790
0.15770435 -0.10113925 1.1202661 3434923
-0.12524703 -0.096131019 1.1287177 3302823
0.15584517 -0.088039942 1.1178887 3566513
-0.12552688 -0.086127311 1.1274283 3368614
0.15470961 -0.078809522 1.1180075 3632560
-0.12515953 -0.078415148 1.1287723 3565995
0.15320036 -0.068670504 1.1168343 3895728
-0.12253705 -0.063301772 1.1303084 3697842
0.15054917 -0.058770601 1.1155155 4158132
-0.12114083 -0.054953981 1.129037 3502262
0.14920321 -0.048138198 1.1168108 4027837
-0.11876418 -0.045373295 1.1283777 3698611
0.14424103 -0.036832694 1.1210701 4619197
0.14987457 -0.039765801 1.1152689 4946612
-0.12534356 -0.03908176 1.1249062 7180220
-0.11752471 -0.035915546 1.1317799 4815032
0.14396328 -0.030352876 1.1204364 5209534
0.14831591 -0.028456651 1.1129109 8425655
0.016742108 0.090773731 1.1190883 9474444
-0.053710565 -0.22056931 1.136173 8300241
-0.072269835 -0.21282747 1.1333746 7642055
-0.064675815 -0.21330145 1.1351776 4815810
-0.057772212 -0.21658379 1.1363647 5210825
-0.081713937 -0.20114844 1.1334642 932767
-0.074592039 -0.20441991 1.1348262 2382238
-0.065806173 -0.20724751 1.1367487 2251168
0.11740139 -0.19933754 1.1287208 6518691
0.12314294 -0.19815883 1.1270423 11319227
-0.08352752 -0.19445908 1.1354345 2447513
-0.077958778 -0.1977991 1.1373141 2513045
0.12479398 -0.18989342 1.1273732 4617903
0.13170034 -0.18972111 1.12412 10929103
-0.093268953 -0.1836744 1.1354859 2971544
-0.087245271 -0.18729007 1.1357551 2774929
0.12660331 -0.18057394 1.1267098 2909086
0.13137689 -0.1794934 1.1241679 3105187
-0.10119074 -0.17067388 1.134421 2709911
-0.096344091 -0.17562236 1.1365469 2644371
0.13267305 -0.16964447 1.1247594 3368356
-0.10360582 -0.16412616 1.1363688 2775444
-0.098501116 -0.16812506 1.1369804 2709910
0.13688174 -0.15967241 1.1255929 3368613
0.14093813 -0.15659596 1.1238232 3499683
-0.10704549 -0.15563934 1.1362294 2841497
0.13859601 -0.15218031 1.1279446 3237027
0.14313401 -0.14934282 1.1250852 3302821
-0.11330213 -0.14419985 1.1356127 2645144
-0.10966631 -0.14584547 1.1379896 2775964
0.14603657 -0.13933536 1.1258399 3237542
0.1499922 -0.13565025 1.1248288 3106215
-0.11530357 -0.13585298 1.1366123 2907291
0.14718866 -0.12975283 1.1263062 3499683
0.15016988 -0.12768902 1.1246567 3303338
-0.11649666 -0.12595849 1.1376437 3039134
0.15158027 -0.11916033 1.124892 3499947
-0.12210389 -0.11178692 1.1355346 3236770
-0.11969271 -0.11603183 1.1387511 3236770
0.15306252 -0.10861363 1.1252683 3500458
-0.12226731 -0.10530905 1.1355633 3237027
-0.12035901 -0.10564019 1.139482 3302821
0.15518072 -0.098009668 1.1256782 3632048
-0.12251245 -0.095592231 1.1356061 3302824
-0.12059135 -0.096430831 1.1395227 3302569
0.15322641 -0.089167051 1.1256893 3632047
-0.12317272 -0.086534172 1.1356649 3434408
-0.12028327 -0.084110156 1.1395497 3434665
0.14954329 -0.078208692 1.1255234 4026292
-0.12300275 -0.076158598 1.1356916 3631531
-0.12112436 -0.075303473 1.1396158 3631531
0.14938852 -0.070225731 1.1241815 4157366
-0.12316617 -0.069680728 1.1357203 4025255
-0.12004858 -0.064487226 1.1378882 3632304
0.14853564 -0.058452129 1.1238129 4289211
-0.11684421 -0.055408314 1.1372054 3568048
0.14514118 -0.047769733 1.1246647 4094399
0.1476388 -0.0521008 1.1258752 4224702
-0.11576476 -0.049326248 1.135462 3764911
-0.11232773 -0.044933785 1.1378279 3895729
0.14240995 -0.039418649 1.1256009 4487616
-0.1173024 -0.031267188 1.1385921 6458567
-0.1123041 -0.03491142 1.1377597 3895996
0.14201503 -0.028383151 1.1245992 5735616
0.14876986 -0.024955682 1.1239132 9477559
-0.11688765 -0.028577358 1.1395837 6852289
-0.11364039 -0.028494805 1.1394411 5933254
0.050131109 0.077329531 1.1285869 9474701
-0.016202781 -0.23012319 1.1465043 7248329
0.016608072 -0.23087767 1.1442586 5801654
0.024568981 -0.22954315 1.1433792 5210039
0.037422642 -0.22985548 1.1441478 6328255
0.04507947 -0.22966082 1.1438118 7379645
0.056622416 -0.22924566 1.1433057 8430007
0.064343333 -0.22725762 1.1389689 8625323
-0.054617092 -0.2229362 1.140209 9678537
-0.043518633 -0.22268464 1.1462545 4422071
-0.03411071 -0.22312847 1.1473147 2778029
-0.024314199 -0.22469494 1.1468788 2513574
-0.016641058 -0.22721276 1.1465331 2315684
0.013275455 -0.2271826 1.1452181 2120102
0.025307614 -0.22687672 1.1446902 2185635
0.038405985 -0.22544815 1.144119 2186146
0.04390277 -0.226404 1.1438743 2316696
0.059161182 -0.22382492 1.143212 4486314
0.066614315 -0.22323157 1.1408843 5997746
0.077712581 -0.21999267 1.1412652 6063288
0.086385466 -0.21831228 1.1420333 6589614
0.094485335 -0.21832547 1.1416773 8757678
-0.060349934 -0.21111438 1.1404999 1855898
-0.053431362 -0.21346232 1.1434293 2249885
-0.045522116 -0.21558991 1.1471132 2381985
-0.037317075 -0.21751297 1.1474742 3039902
0.080228508 -0.21288136 1.1423219 2841504
0.08623077 -0.21218097 1.1420604 3302564
0.095669717 -0.20967886 1.140319 4420011
0.10524712 -0.20858264 1.1355164 6984117
0.1145046 -0.20558125 1.1328315 6254993
-0.071712859 -0.20088348 1.141834 2710418
-0.063756652 -0.20396206 1.1450585 2775447
-0.056861505 -0.20602922 1.1475704 2906776
0.09795668 -0.20172934 1.141179 3171492
0.1062994 -0.20013073 1.1380148 3237285
0.11440966 -0.19869123 1.1334302 3629215
-0.074596353 -0.19402331 1.1459873 2775191
-0.066270597 -0.19731572 1.1481463 2906012
0.10808978 -0.19088379 1.1395013 3040421
0.11483397 -0.18901387 1.1358218 3105703
0.12061048 -0.18910661 1.1326174 2777257
-0.090473458 -0.18032935 1.1419258 2710677
-0.083462305 -0.18405271 1.1451381 2709909
-0.077052847 -0.18751031 1.147318 2709910
0.11593022 -0.18061981 1.1393838 3368100
0.12326426 -0.17857835 1.1346709 3302561
-0.09172865 -0.17382859 1.1451166 2710421
-0.086697966 -0.17657179 1.1489792 2644886
0.11785468 -0.17281255 1.1408 3040936
0.12571791 -0.1695035 1.1383762 3237031
0.1319138 -0.16643119 1.1351981 3368615
-0.10182942 -0.16103476 1.1424887 2776209
-0.096082628 -0.16539246 1.1469762 2841240
0.12762576 -0.16097534 1.1404096 3237287
0.13379231 -0.15856865 1.1349984 3302822
-0.10279747 -0.15442485 1.1470908 2710683
-0.097901605 -0.1576062 1.1496677 2841499
0.13595222 -0.15010506 1.1374886 3237541
0.14068237 -0.14725216 1.1334746 3237798
-0.10511263 -0.14592798 1.1478307 2907293
0.13752764 -0.14130747 1.1400391 3237797
0.14197186 -0.1386283 1.1348476 3303334
-0.11188353 -0.13438138 1.1441625 2907805
-0.10938007 -0.13598123 1.1501102 2907805
0.14368626 -0.12922981 1.1373614 3434407
-0.11254979 -0.1250948 1.1457478 3039392
-0.10967026 -0.12622793 1.150956 3039391
0.14538056 -0.11961043 1.1371915 3500202
0.14921433 -0.11657409 1.1315992 3631274
-0.11584479 -0.11601627 1.147791 3170979
0.14716461 -0.10930379 1.1392761 3631791
0.15028474 -0.10862991 1.1333578 3566510
-0.11645759 -0.10568377 1.1490341 3105957
0.14600933 -0.098210104 1.1381401 3632305
0.15100583 -0.099153779 1.1319115 3501227
-0.11719183 -0.095663361 1.1468116 3237546
0.14528501 -0.089150541 1.1373222 3698099
0.14968416 -0.089396164 1.1320685 3698094
-0.11680488 -0.085903212 1.147065 3434923
0.14630991 -0.079850003 1.1378537 3895479
0.14833656 -0.081781685 1.1317525 3895477
-0.11666291 -0.075441644 1.1477131 3566256
0.14634198 -0.068548828 1.1392243 4027579
0.14867184 -0.06789884 1.1357874 4157882
-0.11592729 -0.06650684 1.1469531 3567024
0.14404187 -0.05906418 1.1388464 4159422
0.1481753 -0.059086405 1.1342368 4289724
-0.11396006 -0.056607004 1.1447011 3567791
-0.11067507 -0.054612443 1.1499017 3764403
0.14201565 -0.049068358 1.1374768 4356797
-0.10942888 -0.045615472 1.1437755 3830196
0.13907364 -0.039553173 1.1367033 4619718
-0.10813 -0.034687769 1.1460943 3896507
0.13470949 -0.027769692 1.1374234 4817095
0.13910443 -0.028221175 1.1340033 4948420
-0.11591213 -0.025713809 1.147558 6916535
-0.10843258 -0.026052758 1.1469201 5210049
0.13379553 -0.021408916 1.1395978 5013440
0.13813776 -0.020870954 1.137073 5998788
0.031548645 0.050109163 1.1401817 5859448
0.039652437 0.050400808 1.1379675 6122362
0.045333806 0.05066061 1.1407214 6319482
0.05657566 0.052195832 1.1442362 5330522
0.031950764 0.054574773 1.1386534 5792108
0.039721753 0.055620134 1.1377814 5527648
0.045223698 0.055024892 1.1407406 5067354
-0.010334877 -0.22995976 1.1492497 4354997
-0.0028709769 -0.23080663 1.1509207 4684224
0.0069421958 -0.23025624 1.1490231 4289976
0.01782606 -0.22767463 1.1480192 2054307
0.028258424 -0.22795865 1.1475596 2777510
0.033769552 -0.22891697 1.1473143 4026798
0.050219834 -0.22849877 1.1465925 5604271
0.054016694 -0.22675459 1.1464313 4881326
-0.029552996 -0.22009158 1.1501271 3039902
-0.021568328 -0.22080895 1.1502743 2710943
-0.012938879 -0.2225116 1.1526964 2645152
-0.0028534289 -0.22512913 1.15561 2514339
0.0070493016 -0.22477137 1.1546419 2514851
0.016824324 -0.22200966 1.1526865 2842787
0.026590157 -0.22132784 1.1500573 2908579
0.036260974 -0.22068907 1.1501236 3039651
0.04650899 -0.22113675 1.1507838 2908578
0.055814482 -0.22002691 1.1501281 2778020
0.065690055 -0.21810356 1.1473767 2646433
0.075258985 -0.2205393 1.1455179 5012145
0.086806498 -0.22152722 1.145007 8955830
-0.042767774 -0.21200685 1.1510208 2841242
-0.0327949 -0.21383581 1.1526259 2775960
-0.023680475 -0.2148883 1.1541569 2841500
-0.014065731 -0.2168332 1.1574649 2907551
0.01757214 -0.21529153 1.1560791 3105184
0.026765306 -0.21468915 1.1556768 3170722
0.036703967 -0.21443647 1.1552408 3302053
0.046812728 -0.21362647 1.1547991 3170723
0.057280295 -0.21243864 1.1543429 3105188
0.066505395 -0.2114028 1.1522248 3170467
0.075924277 -0.21093649 1.1479228 3236258
0.085884415 -0.20723134 1.1455396 3171236
-0.059662022 -0.20108512 1.1515135 2906776
-0.053032935 -0.20315866 1.1523591 2907033
-0.044406615 -0.20394105 1.1556715 2841497
-0.034920935 -0.20777753 1.1584115 2775704
0.067429021 -0.20591295 1.1539183 3105443
0.07626339 -0.20568836 1.1535306 3105443
0.086895429 -0.20169348 1.151812 3105956
0.095023796 -0.19859938 1.1479245 3105956
-0.07090582 -0.19038655 1.152043 2644884
-0.06362363 -0.19378418 1.1547146 2775705
-0.055073373 -0.19645204 1.1569992 2841497
0.090340361 -0.1942699 1.1529495 3172006
0.097884625 -0.19169071 1.1516253 3040421
0.10357138 -0.18918446 1.1488812 2974628
-0.079900868 -0.18182771 1.1524667 2645144
-0.073087446 -0.18343684 1.1552237 2710425
-0.067655809 -0.18602781 1.1564904 2776216
0.10682774 -0.18046018 1.149017 3171493
0.11160596 -0.17809349 1.1456617 3237026
-0.083024405 -0.17389846 1.155221 2710424
-0.076433428 -0.17595848 1.1588855 2710937
0.10971572 -0.17386824 1.1521649 3302823
0.1157974 -0.16961309 1.1487507 3172005
0.12146986 -0.16632348 1.1476692 3172006
-0.092088126 -0.16273178 1.1530654 2841498
-0.087418914 -0.16515616 1.1577801 2907290
0.11827122 -0.16259013 1.151826 3303592
0.1243678 -0.15904596 1.1502351 3237544
0.13010895 -0.15452003 1.1433245 3303337
-0.093989097 -0.15432744 1.1548927 2973342
-0.089049079 -0.15735307 1.1609573 3038879
0.12782846 -0.15119469 1.1507761 3237544
0.13190839 -0.14804062 1.1460695 3303336
-0.10232761 -0.14297944 1.1545818 2973342
-0.095992349 -0.14600387 1.1587976 2973600
0.13513604 -0.13883537 1.1471591 3368872
-0.10404284 -0.13516353 1.1560372 3039392
-0.09835235 -0.13586339 1.1614373 3236259
0.1362741 -0.12937096 1.148892 3500460
0.14038345 -0.12679785 1.1429642 3434923
-0.10536126 -0.12555338 1.1566633 3170978
0.13712969 -0.12042129 1.1498015 3500719
0.14160898 -0.11779145 1.1462767 3500718
-0.11232514 -0.11454878 1.154114 3237029
-0.10821917 -0.11584178 1.1599351 3237286
0.14184475 -0.10893789 1.1490701 3697329
-0.11254669 -0.10576689 1.1541528 3237543
-0.10967252 -0.10529155 1.1615353 3172263
0.14280951 -0.099796817 1.1485522 3697843
-0.11296045 -0.096150495 1.1572056 3303340
-0.11069535 -0.095042251 1.1621145 3303852
0.14233817 -0.089361489 1.1490077 3764149
-0.11340154 -0.086382866 1.1542543 3500716
-0.11037055 -0.084974103 1.1621335 3501229
0.14494991 -0.078848712 1.1474975 3764661
-0.11323906 -0.078323513 1.1542737 3566512
-0.10996654 -0.074836418 1.1585093 3632306
0.14171015 -0.06871888 1.1475725 3896764
-0.10960821 -0.065203518 1.1585252 3698357
0.1355761 -0.058840841 1.1500729 4291265
0.1391919 -0.059893712 1.1443813 4225217
-0.10824237 -0.056156516 1.1581311 3764408
0.13608617 -0.049218755 1.149415 4554434
0.13841715 -0.04885865 1.1433078 4488640
-0.10552544 -0.04537528 1.158848 3895997
-0.10134975 -0.042082433 1.1618783 4027323
0.13537876 -0.038431078 1.1484807 4817354
-0.10437698 -0.035793807 1.155359 3962044
-0.10017835 -0.034507327 1.1610512 4093118
0.12588412 -0.026351124 1.1519408 5014224
0.13116431 -0.028932333 1.1476963 4751563
-0.10360154 -0.025353417 1.1540248 4290235
-0.098530173 -0.025116265 1.1583405 4158908
-0.092262551 -0.022679701 1.1615429 4028609
0.12396675 -0.019351386 1.1502687 4817874
0.13040578 -0.018879645 1.1447599 5145287
-0.096410446 -0.018402882 1.156134 4487616
-0.090916708 -0.015618041 1.1601725 4356800
0.11479855 -0.0070646554 1.1504898 5276623
0.12104484 -0.009902373 1.146488 5604813
0.13040623 -0.010875955 1.144675 6720449
-0.088934802 -0.0085849985 1.1614431 5671109
0.11286399 -0.0015529469 1.152023 5802961
0.11906292 -0.0021464676 1.1476493 6787017
0.036508679 0.01230102 1.1559974 12972031
-0.019011598 0.020814836 1.1564642 5869264
0.013528554 0.017984495 1.1570264 7515376
0.021022517 0.017806306 1.1566963 8764660
0.030628774 0.017608106 1.1562734 10146554
0.037280571 0.016744882 1.1559781 10870005
-0.077138916 0.027678251 1.1530364 8028800
-0.072030284 0.028174266 1.1528134 7305855
-0.01456777 0.022063151 1.158275 5671370
-0.011254884 0.022147372 1.1581296 5869265
0.011935318 0.022736922 1.1571121 6988787
0.016352499 0.02284921 1.1569183 7185904
0.10226445 0.033881754 1.1531779 6314850
-0.070937902 0.033206031 1.1527821 8028802
0.099083185 0.037340283 1.1533291 6117979
0.074537918 0.047278494 1.1464331 5593178
0.076731294 0.047334254 1.1463369 5658970
-0.0083470494 -0.21967211 1.161208 2973083
-0.0027785655 -0.22064042 1.16096 2973595
0.0066568078 -0.21997306 1.1612147 2973598
-0.028572679 -0.2090876 1.162132 2842012
-0.022166122 -0.21031207 1.1618464 2776219
-0.012707304 -0.21255961 1.1629484 2907806
-0.0030179601 -0.21370021 1.1641543 2907807
0.0075482428 -0.21397313 1.1638645 2973599
0.016241368 -0.21140029 1.1608217 3039136
0.026975695 -0.21013987 1.1610212 3170723
0.036909334 -0.20976499 1.1599184 3236770
0.046655007 -0.2090534 1.158825 3170979
0.055684898 -0.20861042 1.1584295 3170980
0.062291525 -0.20677763 1.1581452 3171236
-0.039877541 -0.200496 1.1626574 2842012
-0.033055954 -0.20259534 1.1638066 2842011
-0.023352753 -0.20461275 1.1643813 2842012
-0.014971115 -0.20585641 1.1655486 2907805
0.031486001 -0.20606747 1.1635056 3302309
0.037411168 -0.20475471 1.1621054 3302308
0.045991108 -0.20440945 1.1603711 3171236
0.056695059 -0.20470017 1.158398 3171236
0.067346171 -0.20306282 1.1596035 3105443
0.077078536 -0.20088904 1.1585155 3171492
0.083528243 -0.19883859 1.1572378 3040420
-0.061211266 -0.18993965 1.16363 2841497
-0.052353457 -0.1924669 1.1637661 2907291
-0.043799646 -0.19490699 1.1647323 2907549
-0.03701032 -0.1959295 1.1665503 2907551
0.080129012 -0.19369403 1.1614079 3040420
0.08700721 -0.19166875 1.1592158 3106213
0.094660342 -0.18886273 1.1567813 3106214
-0.062788673 -0.18349974 1.1657226 2907290
-0.056071483 -0.18621591 1.1669197 2973340
0.091023423 -0.18450761 1.1609594 3302823
0.096895836 -0.18196204 1.1583073 3237030
0.10294995 -0.17840105 1.1582309 3237031
-0.08055266 -0.17045367 1.1645446 2841497
-0.072054923 -0.17372084 1.1646941 2842012
-0.065777987 -0.17580903 1.1668802 2907547
0.10789742 -0.17058451 1.1571836 3368361
0.11285278 -0.16720168 1.1560529 3237285
-0.08217936 -0.1645757 1.1646355 2973085
-0.075281285 -0.1646373 1.1670716 3039135
0.10998458 -0.16339004 1.1561917 3368615
0.11644883 -0.15989749 1.156647 3237799
0.12089769 -0.1564534 1.1557348 3303337
-0.08989317 -0.15182331 1.1650167 2973857
-0.084313698 -0.15521948 1.1663172 3039137
-0.078258447 -0.15595751 1.1684954 3104930
0.11830215 -0.15235355 1.1578643 3172264
0.12438573 -0.14930153 1.1562723 3238059
-0.091246009 -0.14365715 1.1661041 3039650
-0.087047555 -0.14716011 1.1689109 3105700
0.12743999 -0.13948369 1.1576591 3369132
0.13155895 -0.13953429 1.155322 3434410
-0.0941834 -0.13516909 1.1669762 3171236
0.12917042 -0.13131946 1.1586571 3500719
0.1324276 -0.12892652 1.1573206 3435183
-0.10170172 -0.12326684 1.16563 3302823
-0.096889347 -0.12513649 1.1680815 3171495
0.13292596 -0.11881232 1.1571501 3566514
-0.10360022 -0.1146834 1.1671977 3368873
-0.099819206 -0.1157719 1.1687751 3368875
0.13536164 -0.10954981 1.1560544 3697588
-0.10467858 -0.10564699 1.1684883 3303850
0.13680065 -0.099922009 1.158654 3763892
0.139854 -0.099146061 1.1550905 3698099
-0.1063248 -0.095475189 1.1675265 3435181
-0.10035897 -0.09582366 1.1696653 3435438
0.13758862 -0.089774519 1.1592249 3829942
0.14029245 -0.08914417 1.1562482 3764149
-0.10551645 -0.085779913 1.1679233 3501229
0.13725168 -0.076418899 1.1592836 3896505
0.14161892 -0.079181753 1.1568987 3830455
-0.10518792 -0.075905263 1.1674794 3632563
-0.10094862 -0.072451331 1.1697683 3567542
0.13460191 -0.069314033 1.1568497 4027837
0.13985288 -0.072731145 1.1551777 3896505
-0.10469257 -0.065829888 1.1672856 3829940
-0.1011171 -0.065773517 1.1697978 3699127
0.13291413 -0.059745651 1.1581948 4291009
-0.1045537 -0.055679582 1.1667792 3895737
-0.1007585 -0.054786678 1.1698183 4027576
0.13292745 -0.049700178 1.15756 4422849
-0.10357656 -0.048953108 1.1659576 4158911
-0.099099979 -0.045147736 1.1677753 4093372
0.13260362 -0.03995863 1.1571059 4817355
-0.095613569 -0.035654899 1.1671913 4093630
-0.090840414 -0.032101795 1.1694571 4094397
0.12492092 -0.029405788 1.1582013 5080014
0.12941267 -0.032486245 1.1557693 4883149
-0.093756638 -0.027985863 1.1655951 4028348
-0.089255154 -0.025319785 1.1669074 4028864
0.12017166 -0.019877747 1.1579968 4949202
-0.085924879 -0.015640631 1.1671114 4029123
-0.081671894 -0.013307348 1.169116 3963586
0.11388443 -0.010173425 1.1591948 5146069
0.1173159 -0.014480889 1.1563606 5080276
-0.085395522 -0.0077956095 1.1652941 5342665
-0.078160658 -0.0054794177 1.1689875 4882633
-0.014877126 -0.00010122359 1.1662232 6070261
-0.0082056932 6.8373978e-005 1.1659305 6528744
-0.0015342664 0.00023797899 1.1656377 8827627
0.014032397 0.00063371658 1.1649548 10340848
0.022784837 0.00021982938 1.1645687 8895736
0.0302999 -0.00028914213 1.1642365 6266608
0.10453334 0.0023820102 1.159981 5475287
0.10902517 -0.0010154843 1.1581041 5475028
-0.074930705 0.0006044656 1.1668637 5999306
-0.068306282 0.0018827394 1.1665766 5540557
-0.0598621 0.005436331 1.1655499 5803727
-0.047087416 0.0074944124 1.1676643 4950220
-0.038107671 0.0065977871 1.1672666 5016280
-0.028396413 0.0062351227 1.1664381 5411294
-0.018441506 0.0064827651 1.1641595 5806569
-0.0083935559 0.0067437738 1.1653602 7120874
0.0011906717 0.0077317953 1.1655427 12379901
0.011674402 0.0074850172 1.1625522 13891069
0.021454284 0.0074978918 1.161448 12969723
0.03142985 0.0079847053 1.1618962 9946095
0.041512735 0.0080076084 1.1618562 10013177
0.051179137 0.010135598 1.1611972 7449069
0.057875879 0.012142681 1.1630653 5411552
0.10146216 0.0062008202 1.1586272 6526426
-0.0452355 0.012491181 1.1675993 6264275
-0.0377803 0.013495572 1.1647725 5803990
-0.028296661 0.014373556 1.1628571 5345755
-0.018333863 0.015889034 1.1624241 5412839
-0.0087483805 0.016723797 1.162506 5676266
0.00040480494 0.01602447 1.1644607 7253489
0.010148129 0.016098797 1.1621736 8436213
0.020127684 0.014124781 1.1607275 12051453
0.034421049 0.018927641 1.160115 10082302
0.04227028 0.018387273 1.1597681 10607102
0.050765928 0.017757639 1.1593926 7515119
0.057869848 0.01731845 1.1604134 6068200
-0.0066905785 0.022321969 1.1619334 6001365
-0.0022581797 0.022434652 1.161739 6396124
0.10995766 0.031058758 1.1568342 6447199
0.00057974271 -0.20981461 1.1688559 3039391
0.008165082 -0.20905606 1.1700263 3039135
0.019546801 -0.20933241 1.1680236 3104930
-0.028710447 -0.1993843 1.1701779 2776478
-0.022231292 -0.20012441 1.1718925 2842271
-0.012203481 -0.20151912 1.1736311 2907807
-0.0029182881 -0.2031453 1.1737318 2908063
0.0071580056 -0.20374405 1.1743923 2973600
0.017421009 -0.20249829 1.1734781 3105187
0.027287859 -0.20189214 1.1721259 3236773
0.036917381 -0.20030448 1.1710267 3237029
0.047856513 -0.20011233 1.1706132 3171237
0.057419263 -0.20080912 1.1678883 3171236
0.066863433 -0.19900635 1.1669016 3105444
0.075622454 -0.19729069 1.1655982 3171493
-0.040972646 -0.19083691 1.1739483 2841758
-0.032789502 -0.19294055 1.1743823 2907551
-0.023738209 -0.19382992 1.1768078 2842271
-0.012983769 -0.19475082 1.1775097 2908064
-0.0062154904 -0.19570389 1.1772089 2973857
0.015127566 -0.1951613 1.1762724 3105444
0.027958108 -0.19383502 1.1757128 3237030
0.037971333 -0.19399285 1.1744713 3302823
0.047596049 -0.19296595 1.1739284 3171495
0.056890428 -0.19131775 1.1730565 3105703
0.066585831 -0.19132909 1.1724213 3105703
0.076284826 -0.19057572 1.1700956 3105702
0.084423155 -0.18785128 1.1669583 3105958
-0.05250036 -0.18342242 1.172925 2973598
-0.044280231 -0.1849542 1.1769158 2907551
-0.034265842 -0.18657224 1.1784722 2908065
0.078004599 -0.18213859 1.1735512 3237288
0.086688779 -0.18119308 1.1707257 3302823
0.09515956 -0.17892104 1.1673738 3237287
-0.062124446 -0.17240021 1.1745957 3105183
-0.054442257 -0.17559469 1.1775112 2974112
-0.046013869 -0.1775887 1.1790183 2842786
0.088116035 -0.17440385 1.1731323 3171750
0.096585616 -0.17057133 1.171438 3172008
0.10440749 -0.16859725 1.1667631 3303081
-0.070579909 -0.16291958 1.1728061 3104930
-0.064038865 -0.16510177 1.1785172 3170978
0.098919347 -0.16217086 1.1726977 3303337
0.10655073 -0.16044657 1.1701157 3368873
0.11331034 -0.15895359 1.1666157 3237543
-0.08063627 -0.15039179 1.1752914 3040164
-0.073777452 -0.15398055 1.176102 3105701
-0.067109212 -0.15824798 1.1800095 3302822
0.1079931 -0.15139624 1.1723343 3303597
0.1151344 -0.14876714 1.1676612 3238059
0.12205017 -0.14552478 1.1657299 3303852
-0.083185904 -0.14412472 1.1765364 3106213
-0.075193219 -0.14598346 1.1804053 3172007
0.1159875 -0.13969119 1.1718214 3369387
0.12374324 -0.13923776 1.1676781 3435181
-0.090696029 -0.13406375 1.174453 3237030
-0.083923683 -0.13458472 1.1784911 3237800
-0.077364691 -0.13788159 1.1805274 3303594
0.11766044 -0.1335987 1.1719681 3500972
0.12580878 -0.12909731 1.1683716 3500976
0.13020484 -0.12605976 1.1634337 3500977
-0.091989443 -0.12484401 1.1763197 3237545
-0.087114058 -0.12640364 1.1801041 3303852
0.12749724 -0.11954723 1.171582 3566772
0.13064817 -0.11978035 1.1674387 3566515
-0.094737403 -0.11520159 1.1766114 3369389
0.12811266 -0.1099949 1.1715864 3763639
0.13123378 -0.10895795 1.166559 3763639
-0.10194682 -0.10153441 1.1750549 3435181
-0.096345909 -0.10509509 1.1780381 3435438
0.12847492 -0.098895267 1.1716071 3895737
0.13322303 -0.098631628 1.1662177 3764149
-0.10156365 -0.095050648 1.1761271 3435438
-0.096004538 -0.095558919 1.1799465 3501231
0.12833309 -0.093273304 1.1716319 3961530
0.1333776 -0.089140356 1.1662422 3961528
0.14034766 -0.085572168 1.1631213 3895735
-0.10148957 -0.085796796 1.176755 3501489
-0.097106017 -0.085475907 1.1794485 3501490
0.12787922 -0.075283006 1.1717112 4159679
0.13349345 -0.079797342 1.1667176 3962041
0.1402913 -0.083338618 1.1631312 3895735
-0.10218709 -0.078466393 1.1758088 3501747
-0.09734787 -0.075163975 1.1782763 3567541
0.12696959 -0.068930484 1.1717721 4225473
0.13049549 -0.069325581 1.1676118 4159424
-0.095878892 -0.064966798 1.1771777 3764919
0.1264962 -0.060066614 1.1718222 4422597
0.13024104 -0.059240311 1.1676563 4357059
-0.09564089 -0.055184331 1.1770278 3896505
-0.090697035 -0.054962054 1.1813872 3962298
0.12610346 -0.04945052 1.1718745 4685767
0.12998661 -0.049155049 1.1677008 4422851
-0.094491988 -0.046018139 1.1751772 4027836
-0.089295596 -0.04414447 1.1802692 4028094
0.12387067 -0.038900837 1.1698877 4948684
0.12959555 -0.040630516 1.1647432 4751818
-0.09307228 -0.037866537 1.1735401 4093632
-0.087337978 -0.034295648 1.1791517 4094399
0.11696184 -0.028680786 1.1723449 5080784
0.12108527 -0.029622287 1.1673558 5211343
-0.084371641 -0.025768399 1.1775655 4094402
-0.077813029 -0.022548467 1.1799266 4226244
-0.071328312 -0.020716228 1.1806486 4620744
-0.017437391 -0.018221088 1.1782877 5412064
0.0050289836 -0.017649941 1.177302 6463211
0.013187228 -0.021281183 1.1769314 6397929
0.022846214 -0.020394683 1.1765096 6397929
0.032021049 -0.018249601 1.1761134 6003432
0.11361778 -0.01947277 1.1700197 5081042
0.11865891 -0.022426441 1.1642832 5081041
-0.076877281 -0.014687553 1.1747731 4160963
-0.068602644 -0.013563931 1.1796944 4752075
-0.053610519 -0.010139771 1.1799046 4949201
-0.046856426 -0.010530628 1.1796064 5016022
-0.03728833 -0.011404477 1.1785156 5213659
-0.027472187 -0.012056872 1.1775172 5411552
-0.017600056 -0.012590021 1.1775126 5740773
-0.0074693635 -0.01234211 1.177869 6003172
0.0026217252 -0.012080766 1.1770258 6331366
0.012592217 -0.011790276 1.1739858 6989552
0.022699023 -0.011539303 1.1739428 6792432
0.032743815 -0.011273533 1.1728514 5937640
0.041296773 -0.01015085 1.1747314 5806054
0.052009791 -0.0085798055 1.1752665 5674725
0.058721341 -0.0072840527 1.1749758 5674983
0.10456041 -0.0086502433 1.1729561 5146841
0.11037192 -0.010539986 1.1669745 5080789
-0.073778406 -0.0060862452 1.1727968 4554184
-0.070225015 -0.0051824525 1.1756464 4751049
-0.054866493 -0.0045373067 1.1779764 4818129
-0.047468379 -0.0043434128 1.1768509 5015507
-0.038089722 -0.0040762573 1.1730362 5147609
-0.028051898 -0.0038108826 1.1712946 5346018
-0.018299107 -0.0039568618 1.173479 5937898
-0.0078346189 -0.0044384971 1.1732398 6462952
0.002550574 -0.0034225881 1.1718968 8303605
0.011870679 -0.0032842159 1.1704707 8501495
0.021704555 -0.0040089339 1.1692221 7252467
0.033022352 -0.0031820089 1.1695672 6069484
0.042169511 -0.0018652976 1.1700315 6135528
0.052414555 -0.0020023584 1.1726797 5741031
0.061857 -0.0015733987 1.1738558 5543655
0.071335323 -3.9599836e-005 1.1744452 5477092
0.081354134 0.0015421659 1.1740099 5739747
0.09271843 0.0015810281 1.1735104 5280481
0.1018312 -0.00079711527 1.1694061 5015513
0.10726161 -0.0026215687 1.1668514 4949463
-0.06725321 0.00078461319 1.1725326 4818122
-0.057856701 0.0020167977 1.1721236 5147606
-0.049197741 0.0029819235 1.1717461 4818639
-0.040476184 0.0014653429 1.1713578 5344472
0.0041381055 0.0031582713 1.169402 12971007
0.00861503 0.0027133375 1.1692038 12905215
0.033160631 0.0033373386 1.1681267 5807584
0.046549145 0.0036777034 1.1675392 6004710
0.052581705 0.0047889128 1.1672777 5807083
0.061393686 0.0074802637 1.1690346 5477863
0.070009142 0.0072525591 1.1711909 5542628
0.082027361 0.0045595765 1.1739902 5673698
0.092467561 0.0067910329 1.1720372 5804766
0.097871765 0.0049824342 1.1652874 5147865
0.064118743 0.01529929 1.1668053 5412324
0.00075091049 -0.19846533 1.1808974 3039650
0.0072078798 -0.19894627 1.180612 3039650
-0.019736547 -0.1910837 1.1818224 2842271
-0.012973811 -0.1909118 1.1815257 2973857
-0.0025787391 -0.19174489 1.1823304 2973857
0.0072606076 -0.19325376 1.1831572 3039395
0.017825229 -0.19104666 1.1819507 3171237
0.027052764 -0.18939026 1.1808388 3237030
0.037392132 -0.18857887 1.1808592 3302569
0.045715123 -0.18850759 1.1802882 3237546
-0.039644998 -0.18110695 1.1827306 2908065
-0.032052774 -0.18188159 1.1823941 2973857
-0.023293383 -0.18342772 1.183005 2973857
-0.013462339 -0.18508448 1.183686 2973858
-0.0050766822 -0.18570898 1.1851995 3105444
0.026589295 -0.18490396 1.1838101 3237030
0.038237467 -0.18309751 1.183304 3302825
0.047132783 -0.18241474 1.1826072 3171754
0.056916319 -0.18267706 1.1804823 3171752
0.067210287 -0.18198915 1.1794432 3171753
0.075540572 -0.17865679 1.1786759 3237546
0.083645687 -0.17603733 1.1773273 3303592
-0.051047429 -0.17193535 1.183262 2908579
-0.04272157 -0.1739032 1.1848915 2908579
-0.032822423 -0.17512599 1.1853622 3105444
-0.024089985 -0.17667736 1.1860652 3105443
0.070466995 -0.17472661 1.1819147 3303339
0.078374296 -0.17224553 1.1802408 3303082
0.086615168 -0.16991757 1.1777889 3237545
0.092434973 -0.1667825 1.1769713 3303850
-0.060349055 -0.16088256 1.1837074 3302822
-0.053537615 -0.16502625 1.1856464 3040165
-0.046247028 -0.16863185 1.1870657 3040167
0.081547804 -0.16538303 1.1814585 3303598
0.087460667 -0.16123214 1.1802701 3238061
0.095876895 -0.15894645 1.1779581 3303596
0.10345004 -0.15634212 1.1765215 3369131
-0.070383102 -0.15060101 1.1841824 3171751
-0.063812055 -0.15407449 1.1852952 3368615
-0.056710966 -0.15757051 1.1875622 3171751
0.10516252 -0.14972791 1.1779696 3369134
-0.072533458 -0.14359988 1.1843001 3369130
-0.066241153 -0.14541386 1.1870203 3434922
0.10611118 -0.14004205 1.1795089 3435183
-0.074414872 -0.13505229 1.1857456 3434923
0.10868768 -0.13287997 1.1795717 3501232
0.11533372 -0.12957484 1.1786782 3435694
0.12189956 -0.12764996 1.1758052 3501232
-0.082922719 -0.12411978 1.185822 3369646
-0.077043593 -0.12773298 1.1872199 3435182
0.11888555 -0.12025714 1.1799659 3567282
0.12287644 -0.11961126 1.1776086 3567027
-0.091667533 -0.11162973 1.1852467 3501231
-0.086868487 -0.11545181 1.1877757 3435439
0.11868563 -0.11233307 1.1800008 3829686
0.12363462 -0.10938572 1.1780134 3829431
-0.091752924 -0.10824513 1.1852616 3501231
-0.087380402 -0.10489999 1.1867487 3567024
0.12572211 -0.099951461 1.1783977 3830201
-0.092108712 -0.094142608 1.1853237 3632818
-0.088777319 -0.094787441 1.1871771 3698612
0.12754017 -0.08928819 1.1776856 3896507
-0.092350647 -0.084552899 1.185366 3633333
-0.088382721 -0.08466024 1.1879939 3764919
0.12709647 -0.079085492 1.1772383 4093886
-0.093023509 -0.075764388 1.1854246 3633334
-0.088873781 -0.074739188 1.1884487 3830201
0.12388553 -0.069542423 1.1781338 4291523
-0.088778123 -0.064424574 1.1869437 3896506
0.12310475 -0.059071582 1.17758 4619975
-0.085740909 -0.054793492 1.1868895 4028348
0.11705776 -0.047808509 1.1802852 5146320
0.12149274 -0.049913 1.1790824 4883148
-0.084325492 -0.045333017 1.1854286 3962814
-0.079272531 -0.043856431 1.1877853 3963072
0.11577838 -0.03900427 1.1788691 5146577
0.11948997 -0.040523987 1.176699 5080527
-0.083193637 -0.036227893 1.1851228 4028607
-0.076973133 -0.034331821 1.1869911 4291526
-0.027084135 -0.031083658 1.1866771 5147865
-0.019625723 -0.030667506 1.1863506 5344731
-0.0033632107 -0.029347882 1.18564 5345501
0.0034223553 -0.029175378 1.1853423 5739743
0.01358702 -0.031143539 1.1835543 5936862
0.022645485 -0.030922979 1.1834905 5871068
0.032855038 -0.029559873 1.1840471 5739228
0.050921325 -0.027967855 1.1832582 5213656
0.11367596 -0.030172542 1.1788906 4949970
-0.075479388 -0.026831038 1.1848148 4422856
-0.067097984 -0.021862 1.1862826 4686797
-0.05676163 -0.020471461 1.1860148 4884690
-0.046276391 -0.021650307 1.1870514 4950486
-0.035851695 -0.02214092 1.1857574 5213659
-0.027345408 -0.023088351 1.1835119 5279707
-0.017151244 -0.023968644 1.1834612 5345244
-0.0070440881 -0.022078499 1.1829342 5411808
0.0028219838 -0.022940941 1.1822953 5806052
0.01218527 -0.025825419 1.1809642 6068964
0.024217404 -0.025895841 1.1804351 6068963
0.034222092 -0.023264088 1.1809279 6003173
0.042663243 -0.021334328 1.1814409 5608417
0.052877232 -0.021086611 1.1815933 5411038
0.059797388 -0.020945787 1.1828911 5279709
0.1043475 -0.018051833 1.1800182 5212630
0.11000034 -0.02149231 1.1780131 5015248
-0.063626103 -0.016087152 1.1843292 4949712
-0.05686336 -0.01591523 1.1840324 4949713
-0.046719253 -0.015657343 1.1835873 5016279
-0.037317075 -0.01579462 1.1831735 5213659
-0.028656818 -0.016327068 1.182791 5345501
0.044028394 -0.013914801 1.1796037 5871590
0.052467588 -0.013135806 1.1792352 5871847
0.062743217 -0.010650046 1.1807936 5543139
0.070003532 -0.0093372539 1.1807648 5280225
0.094570562 -0.0087344274 1.1814027 5411294
0.10034862 -0.00999026 1.1785966 5279196
0.07197877 -0.0041728467 1.1784071 5411556
0.081516623 -0.0022369847 1.1779941 5412066
0.092787854 -0.0019504502 1.1774997 5477344
0.09960752 -0.0040349215 1.1771929 5213404
0.0083783073 -0.18866149 1.1886022 3105189
-0.012136174 -0.18071914 1.1905313 3039906
-0.0023749135 -0.18260807 1.1905248 3039908
0.0072604232 -0.18353295 1.1920048 3105447
0.017723074 -0.18247855 1.1889626 3105702
0.026730787 -0.18099679 1.1878207 3171750
0.035695069 -0.18035562 1.1874287 3237289
0.047098659 -0.17820591 1.1869345 3237548
0.057311252 -0.17794628 1.1864864 3171752
0.066389114 -0.17771551 1.1860881 3171752
-0.040085472 -0.16996609 1.1907945 3039909
-0.032188412 -0.17050074 1.1913352 3105701
-0.023902819 -0.17294806 1.1926211 3105443
-0.014115829 -0.17810115 1.1936297 3040163
0.016601671 -0.17640795 1.1922849 3105960
0.02795893 -0.1750042 1.1917903 3105958
0.036971904 -0.17325965 1.1905991 3237545
0.047282059 -0.17193137 1.1890545 3237547
0.057282276 -0.17136189 1.1881109 3237544
0.067331612 -0.17087948 1.187755 3237545
0.075878307 -0.1686689 1.1863681 3303339
-0.051557168 -0.16082439 1.1913289 3172009
-0.04296001 -0.1637817 1.1933435 3105961
-0.03350978 -0.16576517 1.194523 3171752
0.05049327 -0.16505507 1.1908325 3303337
0.057324491 -0.16488141 1.1905328 3303593
0.067384034 -0.16364823 1.1900946 3303594
0.076458991 -0.16079642 1.1884539 3303596
0.083113723 -0.15910557 1.1854143 3238062
-0.059147842 -0.15249327 1.1916901 3434409
-0.053245112 -0.15411919 1.1942514 3237547
-0.04480511 -0.15628153 1.1950508 3237805
0.077290416 -0.15347707 1.1896926 3238318
0.086452484 -0.15030533 1.1881793 3238572
0.096484669 -0.14982834 1.1860582 3434926
0.10290916 -0.14905536 1.1845772 3369134
-0.061659522 -0.14352755 1.1930621 3435179
-0.05557064 -0.14539412 1.1951152 3369388
0.090963088 -0.14349981 1.1891245 3500977
0.096444599 -0.13981588 1.1878947 3435186
0.10176449 -0.139689 1.1846584 3500720
-0.070445381 -0.13300392 1.193252 3566511
-0.064604379 -0.13574275 1.1946545 3566767
-0.057276741 -0.13814551 1.1956589 3500977
0.09773621 -0.13214976 1.1883637 3501234
0.10543291 -0.12949941 1.1852815 3501490
-0.080404028 -0.1200738 1.1927315 3566770
-0.073422432 -0.12449265 1.1950125 3632306
-0.06661506 -0.12926005 1.1960988 3632563
0.10709462 -0.12079829 1.1870772 3699127
0.11440349 -0.11931557 1.184641 3633076
-0.081708081 -0.11452103 1.1938081 3566770
-0.075556174 -0.11527676 1.196538 3763892
0.10781974 -0.11171144 1.1884884 3633335
0.1143258 -0.10934014 1.1857634 3764407
-0.082014896 -0.10445324 1.1956565 3698868
-0.077608153 -0.1049585 1.1966622 3699126
0.10808713 -0.099730894 1.1885161 3962811
0.11456956 -0.0996494 1.1870636 3830969
0.12216618 -0.099661827 1.1838936 3830714
-0.083520539 -0.094524011 1.1938767 3699126
-0.078113534 -0.094961546 1.1967175 3830712
0.11504188 -0.089696363 1.1876429 4028606
0.12304713 -0.089572877 1.1838881 3962300
-0.083150506 -0.085028999 1.1945693 3830970
-0.078158177 -0.08459086 1.1967536 3962813
0.11511115 -0.080635823 1.1882703 4291522
0.12281288 -0.080011152 1.184294 4094399
-0.083700567 -0.074971266 1.1947411 3962044
-0.078721695 -0.07515651 1.1968095 4093630
0.11641044 -0.069853596 1.1879818 4554438
0.12110513 -0.070463315 1.1840365 4357059
-0.083347581 -0.064913705 1.1943774 4093886
-0.078675702 -0.064077578 1.196844 4291009
0.11428692 -0.059356872 1.187487 4686026
0.12017424 -0.059283882 1.1841143 4685769
-0.081980065 -0.057603803 1.1930069 4159935
-0.076921359 -0.055018451 1.1956528 4225985
0.10682207 -0.049587343 1.1887372 5015248
0.11281669 -0.050697967 1.1858007 5014991
-0.074189186 -0.045124337 1.1948252 4292037
-0.068685152 -0.047206968 1.1964605 4619977
-0.046086915 -0.039790332 1.1954916 5279449
-0.038117159 -0.039587721 1.1951418 5016538
-0.025564499 -0.040408965 1.1945872 4950743
-0.016012076 -0.041843124 1.1941626 4950488
-0.0069300625 -0.041455716 1.1937647 5147351
0.0034825709 -0.040240709 1.1933109 5278422
0.014057391 -0.04228323 1.1919495 5212886
0.023342764 -0.041380521 1.1906824 5278423
0.033303902 -0.04029185 1.1907486 5147094
0.044256732 -0.040425949 1.1915178 4885460
0.053661879 -0.038679108 1.1903821 4950741
0.062780231 -0.037934985 1.1907117 5016279
0.10502409 -0.039770272 1.1874472 5212370
0.11232568 -0.040730391 1.1845206 5212369
-0.072290793 -0.03810598 1.1946471 4423370
-0.070318259 -0.034858018 1.1941707 4554187
-0.045759238 -0.034756653 1.1952268 5147610
-0.036007833 -0.033771567 1.1930664 5081818
-0.026855957 -0.035814386 1.1926572 5016538
-0.0157496 -0.034095533 1.1923082 5278938
-0.0066702962 -0.033258058 1.1919118 5344730
0.0037618037 -0.03386689 1.1903836 5673948
0.013985055 -0.035842869 1.1888598 5805277
0.023062915 -0.035612091 1.1884615 5541848
0.033246852 -0.034216627 1.1880184 5475544
0.043402132 -0.031685382 1.1875803 5213397
0.054090135 -0.032040007 1.1878159 5082070
0.063823521 -0.031018101 1.1890872 5016536
0.07276617 -0.02862341 1.1903034 5213915
0.083476312 -0.027373701 1.1898367 5279453
0.094417751 -0.027551681 1.1893551 5213659
0.10384636 -0.030225642 1.1873302 5212628
0.11035135 -0.029983394 1.1846428 5146833
-0.070214391 -0.028891027 1.1925843 4554443
-0.04506918 -0.026433304 1.191487 5016281
-0.037783969 -0.027157336 1.1911644 5147611
-0.0066693705 -0.027275577 1.1897961 5411294
0.063947663 -0.020934165 1.1867126 5148123
0.072667956 -0.020717926 1.1865302 5213915
0.082764596 -0.020697907 1.187627 5213917
0.093531005 -0.02036088 1.187732 5213659
0.10148305 -0.021883249 1.1853931 5212887
0.09403526 -0.01334998 1.1854149 5279708
0.098574199 -0.013234593 1.1852158 5411037
-0.0082513988 -0.1787172 1.1983747 3106213
-0.0025349334 -0.17857188 1.1981239 3105959
0.0087511642 -0.17893933 1.1976266 3105706
0.019187633 -0.17801964 1.1971709 3105960
-0.01928591 -0.17212701 1.1988816 3105700
-0.011801442 -0.17319092 1.1992998 3105957
-0.0026503429 -0.17295827 1.1988983 3106216
0.0076874765 -0.1728202 1.1992952 3106217
0.018295141 -0.17203425 1.1986598 3171752
0.026155675 -0.17133862 1.1979785 3303337
0.037249349 -0.16839951 1.1964085 3369130
0.044109102 -0.16822511 1.1961075 3369132
-0.032140438 -0.16123873 1.1998162 3171753
-0.022312295 -0.16341591 1.201766 3171752
-0.011934128 -0.16344471 1.2033918 3172010
-0.0026865713 -0.16449431 1.2039326 3172012
0.0073631927 -0.16382718 1.2042893 3237802
0.017976126 -0.16285235 1.20328 3303338
0.027178001 -0.1626475 1.2030764 3369133
0.037398487 -0.16214475 1.200907 3369388
0.047482058 -0.16154891 1.1997745 3303853
0.056636781 -0.16013001 1.1973352 3369643
0.066644929 -0.1590621 1.1953826 3303851
-0.050160594 -0.1500095 1.2003119 3303598
-0.04191497 -0.15263771 1.2016567 3303341
-0.03316674 -0.15417629 1.2046989 3303340
-0.023671791 -0.15539232 1.2071373 3369132
-0.015463285 -0.15706995 1.206771 3303600
0.017912876 -0.15622145 1.2053065 3303598
0.030572802 -0.15589961 1.204751 3435186
0.038053662 -0.15570943 1.2044228 3369391
0.04783633 -0.15546073 1.2039936 3369392
0.057536349 -0.15229417 1.2029617 3369390
0.066908449 -0.15096526 1.1989659 3435184
0.076075107 -0.14909056 1.1947654 3369392
-0.051253267 -0.14303479 1.2011837 3369646
-0.043861464 -0.1451968 1.2056563 3303853
-0.036412034 -0.14838056 1.2077206 3173034
0.059296519 -0.14410307 1.2035272 3566773
0.067409724 -0.14258298 1.2025083 3566516
0.077032387 -0.14043757 1.1991562 3500977
0.086834028 -0.14082555 1.1960056 3500975
-0.061745316 -0.13132772 1.2008828 3632562
-0.052668639 -0.13419071 1.2034773 3501236
-0.044959269 -0.13419986 1.2076982 3501494
0.079185337 -0.13132074 1.2026951 3698612
0.086647153 -0.13145611 1.2000006 3567283
0.095317669 -0.12877673 1.1969227 3567283
0.10252097 -0.12551583 1.1936805 3501747
-0.069175072 -0.12186486 1.2012405 3895478
-0.063425928 -0.12427292 1.2034824 3698613
-0.054341085 -0.12502316 1.2072512 3633080
0.080456838 -0.12466016 1.2026612 3699128
0.086927645 -0.12130345 1.2023878 3830713
0.096334018 -0.12066954 1.2007751 3699126
0.10281661 -0.11909564 1.1936888 3633333
-0.0706838 -0.11388737 1.2013333 3961271
-0.06371399 -0.11419639 1.2060307 3896247
-0.056791157 -0.11662187 1.2087213 3764921
0.086646132 -0.11435868 1.2024231 3962300
0.09741158 -0.11156942 1.2014879 3896506
0.10465313 -0.10945917 1.1956418 3764920
-0.072213829 -0.10461187 1.2029326 3830712
-0.065147415 -0.10403521 1.2077955 4093627
0.10011982 -0.10064434 1.2018759 4028352
0.10525706 -0.099879734 1.1963141 3962812
-0.072851613 -0.094310597 1.2034951 3962556
-0.066150621 -0.09530443 1.2087581 4028606
0.099331297 -0.090256773 1.2019449 4357317
0.10556414 -0.090267472 1.197667 4225985
0.11068567 -0.086374156 1.1934508 4225985
-0.072587758 -0.085292362 1.2035133 4028606
-0.067560047 -0.085387364 1.2092977 4094655
0.099654809 -0.082212292 1.2019572 4554695
0.10522661 -0.07988891 1.1971155 4554182
0.11123614 -0.077962607 1.1934543 4619462
-0.073605239 -0.074654594 1.2020621 4159424
-0.065388843 -0.073490158 1.2080096 4160448
-0.059075534 -0.071723014 1.2089698 4554440
0.099778019 -0.068837352 1.201996 4620747
0.10526962 -0.069704808 1.1994995 4686026
0.11142478 -0.070323676 1.1934712 4619977
-0.073250338 -0.064976692 1.2016075 4291265
-0.064966165 -0.064800799 1.206499 4357573
-0.059249915 -0.064810991 1.2090002 4751563
0.014723644 -0.06024069 1.2057633 4818903
0.022376947 -0.059277631 1.2054302 4819160
0.097721517 -0.06035934 1.2021143 4752590
0.10503516 -0.060505975 1.1995401 4817869
0.11007937 -0.062342044 1.1935567 4752076
-0.071507052 -0.055343561 1.2015625 4291778
-0.065382123 -0.054502703 1.2048786 4554440
-0.059453361 -0.056746967 1.2090359 4883149
-0.04124083 -0.049189813 1.2042563 5674209
-0.03550534 -0.049044006 1.2040046 5082331
-0.024002396 -0.051600065 1.205359 4950745
-0.01475941 -0.053090625 1.2024786 4884953
-0.0055924132 -0.052847546 1.2018763 4753366
0.0047485167 -0.051492851 1.2026273 4884692
0.015326114 -0.052843455 1.2013125 4884692
0.024085665 -0.051901091 1.2015861 4884692
0.034348063 -0.050460197 1.2035983 4950484
0.045219176 -0.051126558 1.2013386 4950488
0.054024875 -0.050647054 1.2019476 4950489
0.064628154 -0.048934191 1.2025391 5411037
0.073640041 -0.048464291 1.2032121 5542623
0.087687731 -0.046089869 1.2026025 5213404
0.095528983 -0.048772391 1.2022489 5081558
0.10377823 -0.05079335 1.1994773 5015248
-0.06654454 -0.044747729 1.2013793 4685772
-0.044309653 -0.043723222 1.2014972 5542365
-0.035343982 -0.043675963 1.2011553 4951002
-0.026614472 -0.044476207 1.1996249 4884951
-0.017316945 -0.046113681 1.1992108 4753366
-0.0036263037 -0.044620514 1.1986138 4950484
0.0052414313 -0.044681352 1.1982238 5015763
0.035274524 -0.044776693 1.1969031 5015764
0.042134278 -0.044602305 1.1966022 4885461
0.054032452 -0.043318294 1.1960833 4884950
0.0648624 -0.041987173 1.1974596 5082072
0.074327856 -0.040620305 1.2000047 5542624
0.084030487 -0.041542433 1.2019775 5279197
0.09401498 -0.040027101 1.1987408 5213144
0.10118517 -0.042337686 1.1940137 5212627
0.068199053 -0.034778714 1.1954887 5016538
0.073872201 -0.032916807 1.1952455 5213917
0.083337091 -0.030195095 1.1948384 5345245
0.093761832 -0.03224358 1.1950407 5213917
0.18522379 -0.032082871 1.1983609 13158081
-0.0025905408 -0.15959172 1.2102008 3303598
0.010111234 -0.15926881 1.2096434 3303850
-0.031264603 -0.14968038 1.211494 3303853
-0.021450613 -0.1510291 1.2114156 3304111
-0.01176203 -0.15291008 1.2127333 3303857
-0.0026589725 -0.15300637 1.2129781 3303856
0.0077679846 -0.15277384 1.2127708 3369903
0.017990064 -0.15097263 1.2093245 3435441
0.027068418 -0.15165491 1.2089231 3435187
0.037517048 -0.15075158 1.2084668 3500978
0.048012443 -0.1502094 1.2080071 3369649
0.054668915 -0.14842102 1.2077204 3435441
-0.039613098 -0.14241359 1.211885 3370159
-0.033050317 -0.14301778 1.2115945 3370416
-0.022602446 -0.14302504 1.2133874 3436469
-0.012112079 -0.14309344 1.2156786 3502005
-0.0028363746 -0.14285763 1.2152716 3501749
0.007686629 -0.14607406 1.2147985 3501493
0.017964572 -0.14217326 1.2131082 3567542
0.027290825 -0.14205284 1.213637 3567541
0.037634488 -0.14164352 1.211995 3633333
0.047853358 -0.14107233 1.2089827 3567541
0.056379352 -0.14012153 1.2076726 3633079
0.06634862 -0.13768208 1.2072424 3632566
-0.040211838 -0.1339474 1.2119392 3501750
-0.033247221 -0.13405231 1.2141352 3567798
-0.024736885 -0.13439186 1.2162623 3633848
-0.011099016 -0.13726111 1.2156533 3633591
-0.004142236 -0.13708425 1.215348 3699128
0.017858276 -0.13536364 1.2143866 3830714
0.028293438 -0.13509835 1.2139287 3764921
0.037755996 -0.13390762 1.2135166 3830712
0.048259962 -0.13272411 1.2127013 3830713
0.056938242 -0.13220188 1.2120117 3830458
0.067161031 -0.13166705 1.2095972 3764409
0.075156875 -0.12991966 1.2074368 3764407
-0.04949265 -0.12331175 1.2123823 3698874
-0.042769641 -0.12383536 1.2143372 3764923
-0.034083657 -0.1243195 1.2167064 3765435
-0.027565725 -0.12838918 1.2164065 3699641
0.065964267 -0.12601146 1.2123026 3896252
0.075852513 -0.12127846 1.2092619 3831226
0.083079368 -0.12040411 1.2065638 3830458
-0.052333355 -0.1139394 1.2133284 3896508
-0.04301938 -0.11368494 1.2171344 4028352
-0.035117466 -0.11418085 1.2167853 4094143
0.076830238 -0.11134008 1.2082984 4159936
0.086048163 -0.10984255 1.2064682 4028352
0.094038866 -0.10827083 1.206122 3962559
-0.06059999 -0.10439534 1.2129329 4093628
-0.053671449 -0.10428683 1.2133795 4028352
-0.043254312 -0.1043734 1.2168626 4094401
-0.036569722 -0.10260461 1.2168874 4225986
0.078159787 -0.10213841 1.2104803 4357317
0.086359151 -0.10090753 1.2092992 4225732
0.095048659 -0.10020711 1.2061043 4159938
-0.061835527 -0.09467867 1.2130194 4028609
-0.053604029 -0.094548009 1.2140229 3963330
-0.04412064 -0.094380438 1.2172464 4160708
-0.037631977 -0.097289562 1.2169516 4292035
0.080486812 -0.088480145 1.2117879 4620236
0.085939772 -0.091067776 1.2101495 4488649
0.094259471 -0.091472961 1.2061678 4357318
-0.063248508 -0.084470838 1.2131152 4160449
-0.054490969 -0.084442027 1.2164295 4160708
-0.045154437 -0.084241793 1.2173253 4489161
0.086827509 -0.081767134 1.2104589 4555212
0.094893515 -0.080318347 1.2061768 4620489
-0.15529403 -0.078215778 1.222187 14082013
-0.062059924 -0.077060714 1.2130873 4226242
-0.053914458 -0.074574426 1.2152399 4620234
-0.046769105 -0.072359994 1.2174355 5079759
-0.012767956 -0.071108505 1.2159449 6791922
-0.0046809986 -0.069741599 1.2155939 5608162
0.0057541654 -0.069476314 1.2151361 5016279
0.015854117 -0.071247071 1.2133212 5608413
0.024320208 -0.069584981 1.2143195 4950485
0.031262346 -0.068827838 1.2140168 5016277
