# .PCD v0.7 - Point Cloud Data file format
VERSION 0.7
FIELDS x y z rgba
SIZE 4 4 4 4
TYPE F F F U
COUNT 1 1 1 1
WIDTH 174
HEIGHT 1
VIEWPOINT 0 0 0 1 0 0 0
POINTS 174
DATA ascii
-0.3439835 0.073950313 1.064074 5134174
-0.33747345 0.073354445 1.0663776 5134176
-0.34507561 0.07850682 1.0636523 4871515
-0.3515473 0.055357225 1.0689738 4936281
-0.34145993 0.054376684 1.0725437 5199967
-0.33690631 0.055092484 1.0741462 5397348
-0.36003014 0.060798571 1.0656171 4673880
-0.35210472 0.061398715 1.0663775 4870232
-0.34343365 0.062881052 1.0701886 5068382
-0.33450979 0.064694829 1.0739042 5068384
-0.32772839 0.067379959 1.0772899 4476504
-0.36123282 0.070085242 1.0636694 4607822
-0.35418966 0.071132995 1.0647342 4673623
-0.3438305 0.072003916 1.0683856 5134174
-0.33421555 0.07441967 1.0717618 4739419
-0.32733789 0.075334325 1.0755469 4081746
-0.36309856 0.078356855 1.0647128 4410445
-0.35445058 0.080622606 1.0645671 4213839
-0.34489411 0.082642615 1.0679258 4345429
-0.33543375 0.083712325 1.0712581 4016211
-0.32817066 0.084573105 1.0750399 3621193
-0.35461634 0.086095907 1.0644653 3884109
-0.34598577 0.088444807 1.0674944 3752784
-0.33624589 0.089907445 1.0709224 3621192
-0.32929263 0.089898765 1.0733778 3686459
-0.36120421 0.042153426 1.0767281 4673626
-0.35255155 0.042421751 1.0767691 4870741
-0.34390536 0.042612426 1.0800166 5265754
-0.33468971 0.044797428 1.0835371 5397604
-0.32807553 0.048780583 1.0889806 4608350
-0.36204281 0.05089815 1.0721964 4673629
-0.35330003 0.050586335 1.0729883 4870744
-0.34508976 0.05027201 1.0755365 5134174
-0.33405602 0.054063216 1.0800946 5397606
-0.32781377 0.05608692 1.0867013 4476760
-0.32324284 0.061022438 1.0905904 4015442
-0.37114036 0.058094889 1.0736992 3883351
-0.36616048 0.058580071 1.0699391 4475995
-0.33385608 0.060647503 1.0794215 5068641
-0.32641438 0.065161385 1.0841906 4082513
-0.32248607 0.067200154 1.0902784 3752531
-0.36823809 0.068282224 1.067856 4079443
-0.32560375 0.074460149 1.0838172 3621705
-0.32209525 0.072801046 1.0883571 3751503
-0.32762235 0.081715584 1.0814562 3490378
-0.3518464 0.025835209 1.0924337 5002588
-0.3488577 0.02628402 1.0934856 5528419
-0.36305466 0.033844024 1.0884124 4739163
-0.35492694 0.031994734 1.0881745 5002333
-0.3459971 0.033023678 1.0912608 5397092
-0.33810818 0.036334757 1.0954598 5332066
-0.33316794 0.038332116 1.0989308 4740695
-0.36315563 0.037545327 1.0827795 4082256
-0.35592911 0.0373656 1.083477 5068120
-0.3352634 0.041119639 1.0928662 5200736
-0.32873878 0.045616724 1.0974003 4345175
-0.32312474 0.048541218 1.1017907 4278096
-0.32637072 0.055362232 1.0946817 4147028
-0.3231698 0.055602901 1.1001415 3819087
-0.32307923 0.062999956 1.0961473 3687502
-0.3472473 0.015117485 1.1058086 5528423
-0.34329319 0.01625501 1.107196 5397348
-0.35612655 0.021420266 1.096967 4804702
-0.34704822 0.022543352 1.0995492 5462626
-0.3392047 0.024516258 1.1050392 5003105
-0.33241922 0.029175606 1.1083884 4804440
-0.36643791 0.030111387 1.094671 3817824
-0.35904637 0.027212825 1.0930619 4673622
-0.34406295 0.029462885 1.0983353 5660265
-0.33736342 0.032039527 1.1006807 5069150
-0.32995501 0.036107779 1.1053858 4475986
-0.32542753 0.041118279 1.106945 4014924
-0.32747105 0.042752177 1.1040894 4606547
-0.32259643 0.045969345 1.1063156 3620428
-0.35480797 0.0074908119 1.1106229 4079956
-0.34775102 0.0074242037 1.1106913 5266270
-0.34309691 0.0087023638 1.1147488 5002845
-0.35763046 0.013181139 1.10746 4079963
-0.34951663 0.011662755 1.1082163 5330781
-0.34052184 0.01535143 1.1131102 5002331
-0.33767089 0.021728251 1.1123198 5001816
-0.33454069 0.025146008 1.1146708 4540755
-0.33086306 0.03256369 1.1146382 4213074
-0.35180092 -0.002125401 1.1244875 5265766
-0.35263991 0.0021048784 1.1211276 5068639
-0.34456486 0.0049624275 1.1234515 4214103
-0.3593798 0.0071340986 1.1132535 1580089
-0.34004948 0.011923246 1.1207488 4145996
-0.33802053 0.018027883 1.12071 4212054
-0.35866365 -0.0040460695 1.1252607 3618132
-0.35339323 -0.0043632239 1.1271244 5199718
-0.34738228 -0.0023519453 1.1292312 4214875
-0.34638524 -0.061747991 1.1470219 528927
-0.34151542 -0.061691094 1.1487411 1517876
-0.34505013 -0.071527794 1.1602974 4419983
-0.35939682 -0.066907018 1.1530733 1651559
-0.3533622 -0.065405592 1.1518594 1782104
-0.34102622 -0.066210717 1.1539873 4154236
-0.33792403 -0.062086295 1.1591029 3028033
-0.35325086 -0.057997331 1.1572944 2369321
-0.34473559 -0.057027943 1.1564758 2040105
-0.35432869 -0.039015688 1.1525214 4146252
-0.36180696 -0.071667254 1.1628653 5077683
-0.35466135 -0.073276803 1.1639874 4617364
-0.34580851 -0.072328448 1.1671062 4549258
-0.3406724 -0.066267632 1.1660438 6582660
-0.36292511 -0.06049427 1.1581399 7695014
-0.35644385 -0.055707809 1.1610979 2040625
-0.34881303 -0.053361781 1.163067 2172202
-0.34184426 -0.057328559 1.1655593 2760198
-0.35778391 -0.082466461 1.1728559 4683677
-0.35246032 -0.081667021 1.1747295 3831442
-0.36542249 -0.076722056 1.168901 3299734
-0.35808513 -0.07792981 1.170014 4683420
-0.35032845 -0.07721705 1.1737503 3960460
-0.35910007 -0.15544719 1.1867554 3829135
-0.35156998 -0.15382987 1.1894017 4223637
-0.34569702 -0.15340121 1.1914723 3960467
-0.36107907 -0.14627594 1.185984 3498881
-0.3531357 -0.1446439 1.188352 3895695
-0.34610787 -0.14222156 1.1912388 3631246
-0.36142695 -0.13520625 1.182592 3499128
-0.35455474 -0.13498405 1.185017 4025235
-0.34707475 -0.13279018 1.1896107 3499655
-0.36141098 -0.12584895 1.1804025 3826560
-0.3552776 -0.12494484 1.1830915 4156303
-0.348598 -0.12435311 1.188097 3630985
-0.36341989 -0.11637186 1.1827998 3893387
-0.35678086 -0.11514695 1.1834849 4157333
-0.35066432 -0.11360121 1.1878126 3762828
-0.36360028 -0.10772473 1.1847888 3762325
-0.35739055 -0.10441068 1.1830668 4420507
-0.35233974 -0.10368735 1.1873193 3828877
-0.36647141 -0.094194844 1.1836679 4222878
-0.35828441 -0.095035106 1.1826063 4552347
-0.35342377 -0.094556764 1.1874299 3631755
-0.36726809 -0.086646929 1.1773878 3627913
-0.3582828 -0.087146945 1.178373 4683676
-0.35274017 -0.084845819 1.1834295 3892613
-0.35178697 -0.07692492 1.1802325 3563127
-0.36113232 -0.1653758 1.1918736 3033484
-0.35401994 -0.16517137 1.1969235 2897991
-0.34455264 -0.16296729 1.1997294 3891064
-0.3381561 -0.16114965 1.2037416 2638186
-0.36559901 -0.15694958 1.1887145 666715
-0.35512614 -0.1576447 1.1924183 4813457
-0.34282073 -0.15282027 1.1967256 3499654
-0.33736256 -0.15167138 1.2025514 3561592
-0.3676953 -0.14575848 1.1878858 6722
-0.34418151 -0.14339468 1.1961706 3694979
-0.33874476 -0.14220893 1.2002022 3233144
-0.34405962 -0.13287097 1.1961304 3104639
-0.34074721 -0.13218008 1.2006692 2640231
-0.34596807 -0.12335254 1.1953812 2907007
-0.3433947 -0.1228311 1.2011064 3099492
-0.36850762 -0.11436429 1.1873506 4089741
-0.3477034 -0.1139158 1.1950725 3496061
-0.34536698 -0.11216826 1.2008077 4278874
-0.36739838 -0.10602685 1.1876764 2972810
-0.34999928 -0.10375368 1.1952488 3757171
-0.34750608 -0.10428498 1.19999 3748927
-0.36706889 -0.10014105 1.1877462 3630740
-0.34994158 -0.096401781 1.1937648 3953004
-0.3555294 -0.17140375 1.2019297 984897
-0.34624276 -0.16608946 1.2051671 4350584
-0.33996177 -0.14087355 1.2078927 4674411
-0.34190246 -0.13243009 1.2096152 6974583
-0.3449792 -0.12169398 1.2084439 3815753
-0.37505466 -0.11553992 1.1945928 5799072
-0.34444392 -0.11211902 1.2053754 5064001
-0.34318721 -0.14668493 1.2198797 7039097
-0.34452716 -0.14098853 1.220422 7565430
-0.34618884 -0.1325056 1.2194147 8223350
-0.34597129 -0.12439521 1.2144781 9076613
