# .PCD v0.7 - Point Cloud Data file format
VERSION 0.7
FIELDS x y z rgba
SIZE 4 4 4 4
TYPE F F F U
COUNT 1 1 1 1
WIDTH 1132
HEIGHT 1
VIEWPOINT 0 0 0 1 0 0 0
POINTS 1132
DATA ascii
-0.040895097 0.032702647 1.009692 5729669
-0.032342352 0.032706298 1.0100338 5336195
-0.025312586 0.034610935 1.00559 5270149
0.079342633 0.023200296 1.0096195 5532277
0.086462185 0.019862205 1.0147197 5860472
-0.041095756 0.037843011 1.0109735 6714755
-0.03205616 0.037233628 1.0113182 5794947
-0.021081263 0.038163818 1.0096205 5466498
-0.010437232 0.04002019 1.008853 5466240
5.5618584e-006 0.039850987 1.0103973 5334655
0.010506773 0.039272256 1.0092956 5138044
0.019551598 0.039327942 1.0102351 5072252
0.029218823 0.038485326 1.0099126 5072247
0.038824212 0.037288092 1.0099044 5137530
0.04884284 0.035934366 1.013938 5137788
0.057717524 0.032039143 1.0117321 5268347
0.1228334 -0.016056873 1.0206043 7374502
-0.092398562 0.0046035945 1.016488 9214113
-0.083266765 0.0078961849 1.0149432 6978442
0.11907943 -0.01385086 1.0204439 7112109
0.12380875 -0.0099532753 1.0212193 8686741
-0.081035241 0.013538368 1.0155921 7636109
-0.07538718 0.017261401 1.0148708 7437970
0.12444549 -0.0018438771 1.0205398 9277068
0.091265097 0.016694814 1.0201317 5992060
0.097573422 0.014217585 1.0229757 6451580
0.10441061 0.012585595 1.0219958 6516347
-0.049693905 0.031410925 1.0147102 6254982
-0.046053529 0.0356149 1.0208144 6648965
-0.029956384 0.0333023 1.0144337 5270660
0.07322266 0.02841004 1.0213528 5662844
0.078977853 0.026655033 1.0216844 5794679
0.087409154 0.023286968 1.0209297 5926261
0.095201187 0.019151986 1.0242609 6253428
-0.039417185 0.039866693 1.0157721 7043204
-0.03032049 0.039929502 1.0165302 6188928
-0.019796196 0.042326547 1.0178382 5991293
-0.0099157095 0.043817349 1.0182961 5794427
-0.00013003685 0.043120585 1.017869 5597052
0.0080620926 0.042122103 1.0169845 5399930
0.01745881 0.041823603 1.0161389 5203324
0.02814395 0.041103281 1.0165465 5269365
0.040769309 0.040298529 1.0180283 5334394
0.049776986 0.038699023 1.020382 5466234
0.056156337 0.036454879 1.0214753 5597049
0.073420525 0.031334721 1.0213345 5991033
0.077938199 0.030980937 1.0237947 6055795
-0.0078207944 0.04562553 1.0181587 6056827
0.001109005 0.046175636 1.0219917 5859449
0.0095111933 0.045751221 1.0212101 5728377
0.018556267 0.044602238 1.0231611 5532027
0.029136969 0.04332713 1.0235695 5532021
-0.089707553 0.0061265379 1.022437 7306630
-0.087679408 0.0069758371 1.0225056 7438985
-0.069244727 0.023616441 1.0290558 7044228
-0.065225035 0.023277998 1.0262076 6255491
0.099689871 0.016530186 1.0294561 6187632
0.10511788 0.016657278 1.0296588 6119529
-0.049943715 0.034604259 1.0236794 6780808
0.068508781 0.028985441 1.028176 5465215
0.09159033 0.022329874 1.0341048 6056820
0.097698197 0.021207549 1.0326427 5988198
-0.037026949 0.042016096 1.0240991 7108737
-0.030608146 0.044496067 1.0276208 7108222
-0.022048259 0.044950418 1.0246357 6582396
0.06035161 0.036705665 1.0300535 5859705
0.065612607 0.034484871 1.0290196 5728122
-0.017401431 0.048049338 1.0272847 6713719
-0.010994494 0.048545666 1.028922 6450807
-0.0027284939 0.048200868 1.0275841 6122104
0.0091369525 0.048388429 1.0280279 6122617
0.021447938 0.048076399 1.0289098 6057083
0.027712226 0.047504045 1.0300841 6057334
-0.074432023 0.022754811 1.031871 7832202
0.09133359 0.025788777 1.0380677 5792617
0.094301842 0.025588676 1.0381809 5724767
-0.029427031 0.047854237 1.0333399 7764863
-0.009370748 0.050480656 1.0340697 6384242
-0.00046599284 0.049880363 1.0344093 6121843
0.16332051 -0.088790804 1.0607924 13950701
0.1663429 -0.088994555 1.0609077 13160147
0.16554004 -0.085902184 1.0608504 13423577
0.16348124 -0.098460548 1.0678887 12898285
0.1674116 -0.09970893 1.0675468 12832198
0.16250983 -0.092434362 1.0659407 10136266
0.16921951 -0.093365528 1.066308 13159885
0.16323242 -0.086177453 1.067271 12175571
0.16876361 -0.085505836 1.0639701 13093836
-0.14246994 -0.098130651 1.0682081 1720740
-0.14276534 -0.091200568 1.0679241 3628972
-0.14343211 -0.084972136 1.0692571 4745397
0.16236241 -0.10011564 1.0768679 6256041
0.16670655 -0.10309595 1.0772574 12767188
0.16115525 -0.09091749 1.0787432 7312841
-0.14245293 -0.12232129 1.0796299 2903988
-0.13934509 -0.1225308 1.0797484 1324707
-0.14306974 -0.11022542 1.0787498 2904505
-0.14111795 -0.10158564 1.077396 2644141
0.16054998 -0.11983722 1.0909839 5801403
0.16494665 -0.12048075 1.0911546 11779799
-0.13998696 -0.090553515 1.0754399 3039906
0.16036089 -0.1107128 1.0898957 3630254
0.16653025 -0.11195444 1.0895495 11516624
0.17354238 -0.11238199 1.091406 13685195
-0.14196342 -0.081418484 1.0776508 2708908
0.16074769 -0.10225657 1.0889602 3762605
0.16527466 -0.10636732 1.0880405 10465738
0.16152033 -0.095507249 1.0848018 6721740
-0.13852555 -0.06426844 1.0792667 1588628
-0.13541771 -0.06447795 1.0793852 3826867
-0.13718037 -0.13803849 1.0859705 3694011
-0.14162494 -0.13120621 1.083742 7178192
-0.13642842 -0.1312971 1.0850927 2114980
-0.14105862 -0.11974715 1.0836625 1063065
-0.13681552 -0.1228539 1.0847498 2447769
-0.14008039 -0.11223537 1.0836331 2578847
-0.13766824 -0.1119332 1.0867233 2907546
0.15938349 -0.13075224 1.0965401 6851775
0.16504186 -0.13067693 1.0952507 13029078
-0.13874014 -0.10220618 1.0843458 3104917
-0.13682126 -0.099413492 1.0866449 3170462
0.15872368 -0.11989157 1.0964198 3040417
0.16824748 -0.12387523 1.0953113 13422807
0.17136993 -0.12095011 1.0954027 13619661
-0.13997579 -0.089571841 1.0841882 3104162
0.15806845 -0.11161974 1.095679 2973607
-0.13875952 -0.081308298 1.0844114 3169952
0.15908457 -0.10154433 1.0977731 2843043
-0.13986784 -0.07153938 1.0834411 3301299
-0.13324969 -0.15017337 1.0962323 4750553
-0.1298417 -0.15262148 1.0983832 1196192
-0.13464834 -0.14281756 1.0929126 3036848
-0.1311096 -0.14530246 1.0982713 1789334
0.15255536 -0.16039276 1.1065519 12898004
-0.13291924 -0.13200644 1.0943058 2776475
0.15370752 -0.15135767 1.1054149 9087435
0.15994096 -0.14714789 1.1022093 13488846
-0.13442685 -0.12114375 1.0939312 3038106
0.15431781 -0.14073075 1.1043435 4354994
0.16236283 -0.13931683 1.1022314 13752800
-0.13569413 -0.1113181 1.0952427 2973083
0.15491559 -0.13097151 1.1051885 2121388
-0.13943583 -0.097513132 1.090533 3301280
-0.13653462 -0.10264895 1.0943261 3039132
0.1562663 -0.1229962 1.1030264 2646946
0.17273432 -0.11883657 1.1054429 13817039
-0.13901079 -0.091230474 1.0904937 3366820
-0.13669176 -0.09182322 1.0955898 3105183
0.15533702 -0.11063565 1.1064188 3631271
0.17392561 -0.11680738 1.1054697 13817037
-0.13825518 -0.080061302 1.0904238 3499424
-0.1357826 -0.08122579 1.0943297 3302563
0.15572393 -0.10039169 1.1055838 3369127
-0.13509353 -0.071750738 1.093972 3434147
0.15824415 -0.090949312 1.106564 2908578
0.16423082 -0.088730358 1.1048588 8233160
-0.13886157 -0.060334496 1.0910853 3365295
-0.13375024 -0.061874744 1.094282 3499689
0.15968998 -0.081448711 1.1062725 4024485
0.16479908 -0.08033067 1.1048062 11192030
-0.13681336 -0.051559996 1.0932294 2181536
-0.13163672 -0.051759224 1.0946264 3433908
0.15919857 -0.075953446 1.1085604 2708114
-0.13479625 -0.043431483 1.0972368 8233201
-0.13099192 -0.044820096 1.0956762 3564980
0.022836182 0.11819028 1.09773 9935247
0.028592931 0.11870623 1.0979416 9934992
-0.12516685 -0.16181536 1.1073383 929696
-0.12110557 -0.16242889 1.1098056 1984411
0.14079887 -0.17580846 1.1197561 13424882
-0.12544487 -0.15222642 1.1049496 2512540
-0.12108664 -0.15440269 1.1084014 2906513
0.14261018 -0.17000937 1.1173269 8955594
0.14847262 -0.16908033 1.1139807 14080986
-0.13164921 -0.13768914 1.1051892 2381461
-0.12896723 -0.14305089 1.107276 2776212
0.1435235 -0.16045588 1.1160407 3697834
-0.13172646 -0.13174412 1.1059679 2841752
-0.1300125 -0.13617083 1.1092402 2906774
0.14602353 -0.15068218 1.1165289 2646183
-0.13293542 -0.12107073 1.1068532 2907034
-0.12929253 -0.12552871 1.1091737 2775704
0.14714718 -0.14199667 1.1175956 3696546
0.14952306 -0.13761379 1.1170791 3761571
-0.13326026 -0.11158457 1.1053438 2973083
0.15163353 -0.13164619 1.1164386 3368880
-0.13364179 -0.10133088 1.1046945 3039134
0.15272734 -0.12008785 1.1159838 3500454
-0.13310181 -0.090895735 1.1043227 3171232
0.15219057 -0.11158759 1.1169026 3631529
-0.13303934 -0.082115456 1.1035473 3302564
0.15155125 -0.10115447 1.1124979 3697839
0.15183762 -0.10140698 1.1155132 3763633
-0.13244961 -0.071571596 1.1042773 3368355
0.15317236 -0.090217918 1.1151789 3436468
0.16767754 -0.087561324 1.1159861 10992842
-0.12941423 -0.061335254 1.1043012 3697068
0.1517484 -0.077123381 1.1192992 3765679
0.15495193 -0.079875045 1.1146219 3830452
0.16761127 -0.083295859 1.1159461 11387079
-0.12771182 -0.053670485 1.1020961 3631022
-0.12530676 -0.050619006 1.1016592 3500456
0.15168935 -0.070205308 1.116345 3830449
0.15844569 -0.071170762 1.1141258 5207985
0.16472802 -0.072582476 1.1184121 10334913
-0.12721495 -0.041640144 1.1040819 3434161
0.15144417 -0.061238993 1.1160028 3893939
0.1585151 -0.062205642 1.1154746 8428221
-0.12692697 -0.031584568 1.1075783 6194370
-0.12228115 -0.029785343 1.1085947 4421311
0.15003172 -0.049278438 1.117898 5734064
0.15602702 -0.053357814 1.1192507 10203587
-0.12050182 -0.023223624 1.1086037 6852289
0.14902981 -0.043289118 1.1156971 8955077
0.027701654 0.094806261 1.1131295 9737616
-0.097570419 -0.20043629 1.1193631 7635861
-0.094329052 -0.20113191 1.1221596 8100012
-0.10722932 -0.18982646 1.1215758 10535920
-0.10031503 -0.19299003 1.1195085 5996227
-0.094086707 -0.1975497 1.1221372 6394567
-0.116164 -0.17821415 1.1131322 8431615
-0.10945419 -0.18109861 1.1161809 1526185
-0.10360424 -0.18386582 1.1205157 1262491
0.11961704 -0.19612253 1.1301478 11717846
-0.12411712 -0.16910258 1.1127535 7571711
-0.11736536 -0.17182219 1.1145877 1917611
-0.11071984 -0.17477328 1.1186436 2379673
-0.10428173 -0.17814991 1.1215837 2644619
0.12166627 -0.189372 1.1301653 5010097
0.12926726 -0.18693253 1.1272842 10599906
0.13646318 -0.1862098 1.1266901 14081762
-0.11693408 -0.16298407 1.117183 2709143
0.1234216 -0.17886603 1.1301389 2909858
0.13022777 -0.17887259 1.1265734 4026283
0.13792816 -0.17960751 1.1231844 12307424
-0.12274553 -0.14882836 1.1126267 2775446
-0.11876914 -0.15330145 1.1157266 2775442
0.1320484 -0.17002235 1.1273828 3105445
0.13722244 -0.16956943 1.1225692 2578854
-0.12436703 -0.14148986 1.1146567 2775449
-0.12049448 -0.14413393 1.1193415 2906778
0.13498072 -0.16038853 1.1288091 3564451
0.1385403 -0.15967344 1.1249335 3433893
-0.12766577 -0.13256261 1.1155955 2840984
0.13696536 -0.15231009 1.1304138 3565217
0.1410791 -0.15049919 1.1252149 3499430
-0.13153194 -0.12036583 1.1120464 2841497
-0.12890254 -0.12228763 1.1181666 2907290
0.14397812 -0.14003344 1.1275668 3237547
-0.13113296 -0.11090487 1.1135794 2973083
-0.1286056 -0.11153107 1.118083 3038877
0.14767106 -0.130567 1.1288049 3827369
0.15062894 -0.12973985 1.1227221 3564710
-0.13156208 -0.1008765 1.1147331 3039391
-0.12920173 -0.10293035 1.1186521 3170977
0.14862686 -0.1205213 1.1285704 3565735
0.15120645 -0.12120334 1.1226687 3500198
-0.13121538 -0.092675865 1.1168184 3170977
0.14952743 -0.11154716 1.1278582 3631790
0.15039465 -0.11327143 1.1305745 3434923
-0.13062009 -0.082144938 1.1157473 3302823
0.14995898 -0.10009674 1.1279404 3566513
-0.12986408 -0.072179943 1.1143538 3368614
0.14968005 -0.0908003 1.1278867 3632560
-0.12889169 -0.064513519 1.1156572 3565995
0.14921923 -0.080585733 1.1265068 3895728
-0.12500919 -0.049682319 1.1172737 3697842
0.1476147 -0.070506632 1.1248901 4158132
-0.12274517 -0.041519757 1.1160496 3502262
0.14716209 -0.059776027 1.1259795 4027837
-0.11944313 -0.03220991 1.1155053 3698611
0.14294365 -0.047995131 1.1297206 4619197
0.14873095 -0.05152671 1.1244264 4946612
-0.12510712 -0.025397137 1.1114522 7180220
-0.11760952 -0.022852473 1.1189166 4815032
0.14332134 -0.041528285 1.1290107 5209534
0.14842558 -0.040161688 1.1218514 8425655
0.028432081 0.090740092 1.116195 9474444
-0.071793102 -0.21249455 1.1301107 8300241
-0.089265406 -0.20312594 1.1257334 7642055
-0.081919067 -0.20426668 1.1281571 4815810
-0.07546901 -0.20815003 1.1299345 5210825
-0.097559735 -0.19062848 1.1249481 932767
-0.090906166 -0.19451824 1.1269176 2382238
-0.082605399 -0.19810995 1.1295784 2251168
0.10059113 -0.20720109 1.1365361 6518691
0.1065342 -0.20658225 1.1353242 11319227
-0.098897316 -0.18376988 1.1267056 2447513
-0.093833312 -0.1875768 1.1290641 2513045
0.10891385 -0.19849929 1.1357187 4617903
0.11604672 -0.1990149 1.1330415 10929103
-0.10756669 -0.17213613 1.1258653 2971544
-0.10194661 -0.1762853 1.1266587 2774929
0.11162893 -0.18939745 1.135126 2909086
0.11667214 -0.1888013 1.1329751 3105187
-0.11413415 -0.15848148 1.1240431 2709911
-0.10995609 -0.16381952 1.1266016 2644371
0.11882567 -0.17910492 1.1335865 3368356
-0.11608 -0.15170898 1.1257299 2775444
-0.11143517 -0.15614969 1.1267926 2709910
0.12386142 -0.1695497 1.1346768 3368613
0.1283159 -0.16688801 1.1332195 3499683
-0.11869368 -0.1429453 1.1252363 2841497
0.12606856 -0.16220993 1.1370969 3237027
0.13106687 -0.15984796 1.1345952 3302821
-0.12378995 -0.13099067 1.1240106 2645144
-0.12052692 -0.13292493 1.1266916 2775964
0.13481611 -0.15013875 1.1354996 3237542
0.13916576 -0.14684954 1.1347848 3106215
-0.12508146 -0.12248016 1.124771 2907291
0.13681206 -0.14069639 1.1359767 3499683
0.14009571 -0.13894215 1.1345596 3303338
-0.12542954 -0.11250255 1.1256163 3039134
0.14226873 -0.13057649 1.1348367 3499947
-0.12950681 -0.097911499 1.1229331 3236770
-0.12776853 -0.10230762 1.1263728 3236770
0.14468916 -0.12020595 1.1352431 3500458
-0.12906945 -0.0914464 1.1228926 3237027
-0.12752336 -0.091888294 1.1269575 3302821
0.14774331 -0.10983631 1.1357343 3632048
-0.12841338 -0.081748754 1.1228319 3302824
-0.12690155 -0.082697101 1.1269 3302569
0.14662457 -0.10085248 1.1355094 3632047
-0.12823176 -0.072668582 1.1227589 3434408
-0.12545329 -0.070458055 1.1268467 3434665
0.14400107 -0.089606121 1.134948 4026292
-0.12710124 -0.062353462 1.1227106 3631531
-0.12547508 -0.061611425 1.1267681 3631531
0.14469773 -0.081665397 1.1335297 4157366
-0.12666388 -0.05588837 1.1226702 4025255
-0.12326279 -0.050969087 1.125042 3632304
0.14497504 -0.069870718 1.1329916 4289211
-0.11918408 -0.042235274 1.1245464 3568048
0.14253007 -0.058909226 1.1334704 4094399
0.14450839 -0.063431427 1.1349188 4224702
-0.11740679 -0.036307052 1.1228454 3764911
-0.11377914 -0.032211475 1.1254475 3895729
0.14051984 -0.050328474 1.1341079 4487616
-0.11750793 -0.018134996 1.125684 6458567
-0.11281899 -0.022236101 1.1252956 3895996
0.14123428 -0.039320972 1.1329826 5735616
0.14831159 -0.036540307 1.1328236 9477559
-0.11692663 -0.015479028 1.1266832 6852289
-0.1136849 -0.015697561 1.1268069 5933254
0.059549518 0.074439175 1.1285149 9474701
-0.036294132 -0.2252872 1.1435651 7248329
-0.0036216322 -0.22908998 1.1440246 5801654
0.0044737612 -0.22850713 1.1437896 5210039
0.017138364 -0.22998697 1.1456125 6328255
0.024782136 -0.23050225 1.1459039 7379645
0.036316678 -0.23115787 1.1463428 8430007
0.044514239 -0.229958 1.142637 8625323
-0.073239036 -0.2147027 1.134079 9678537
-0.062690638 -0.21537475 1.1410121 4422071
-0.053481326 -0.21666415 1.142844 2778029
-0.043869711 -0.21913114 1.1432265 2513574
-0.036460988 -0.22234872 1.143533 2315684
-0.0066631529 -0.22508928 1.1446757 2120102
0.005348491 -0.22589904 1.1451339 2185635
0.018526031 -0.22568968 1.1456268 2186146
0.023911942 -0.22715047 1.1458418 2316696
0.039347343 -0.2259956 1.1464112 4486314
0.046987087 -0.22612733 1.1446977 5997746
0.058270976 -0.22391635 1.1459596 6063288
0.066971809 -0.22302797 1.1474222 6589614
0.075037569 -0.22379124 1.1477317 8757678
-0.077853374 -0.20240091 1.1337975 1855898
-0.071442537 -0.20532721 1.1373044 2249885
-0.064089119 -0.20811298 1.1416427 2381985
-0.056154422 -0.21077591 1.1426917 3039902
0.061342992 -0.21705025 1.1471583 2841504
0.067385778 -0.21690875 1.1473839 3302564
0.07712613 -0.21531311 1.1464012 4420011
0.087120853 -0.21517929 1.142391 6984117
0.096803837 -0.21308506 1.1404488 6254993
-0.088287078 -0.19114885 1.1341074 2710418
-0.080938272 -0.19489321 1.1379998 2775447
-0.074490838 -0.19754452 1.1410863 2906776
0.080064736 -0.20759457 1.1473776 3171492
0.088748351 -0.2068207 1.1448947 3237285
0.097301349 -0.20620672 1.1409788 3629215
-0.090847105 -0.18398663 1.1379513 2775191
-0.083065249 -0.18799505 1.1408138 2906012
0.091264009 -0.19775462 1.146444 3040421
0.09842816 -0.19657199 1.143314 3105703
0.10441121 -0.19724688 1.1405951 2777257
-0.10500251 -0.16895877 1.1324841 2710677
-0.098650485 -0.17325842 1.1362923 2709909
-0.092787378 -0.17725486 1.1390201 2709910
0.10000791 -0.18825787 1.1468818 3368100
0.10785691 -0.18697536 1.142769 3302561
-0.10590219 -0.16231957 1.1355052 2710421
-0.10147708 -0.16545084 1.1397909 2644886
0.10252855 -0.1806387 1.1483842 3040936
0.11083538 -0.17810583 1.1465852 3237031
0.11752655 -0.17566755 1.1438998 3368615
-0.11452483 -0.14869563 1.1319482 2776209
-0.10958959 -0.15349011 1.1369293 2841240
0.11335662 -0.16975743 1.148695 3237287
0.12013741 -0.16801521 1.1437875 3302822
-0.11524355 -0.14195138 1.1363987 2710683
-0.11088895 -0.14552726 1.1393957 2841499
0.12286587 -0.15974689 1.1463737 3237541
0.12814969 -0.15740585 1.1427369 3237798
-0.11681147 -0.1332669 1.1368734 2907293
0.12504043 -0.15109132 1.1489695 3237797
0.13011958 -0.14891598 1.1441373 3303334
-0.12216134 -0.12120755 1.1325635 2907805
-0.12030658 -0.12293459 1.1387099 2907805
0.13249086 -0.13967553 1.1467025 3434407
-0.12208791 -0.11187468 1.134009 3039392
-0.11975676 -0.11318354 1.1394454 3039391
0.13507973 -0.13025656 1.1465898 3500202
0.13961871 -0.12767595 1.1413049 3631274
-0.12467955 -0.1025 1.1356974 3170979
0.13763922 -0.12012522 1.1487253 3631791
0.14127681 -0.11983645 1.1430773 3566510
-0.1244282 -0.092136219 1.1367974 3105957
0.13761534 -0.10899208 1.1474034 3632305
0.14298984 -0.11049125 1.1416138 3501227
-0.1240461 -0.082127877 1.1344364 3237546
0.13780442 -0.099918656 1.1464511 3698099
0.14257212 -0.1006522 1.1415783 3698094
-0.12277575 -0.072441787 1.1346371 3434923
0.13964266 -0.090744309 1.1469853 3895479
0.14196785 -0.092952199 1.1410877 3895477
-0.12171526 -0.062028456 1.1352048 3566256
0.14061363 -0.079473287 1.148257 4027579
0.14326409 -0.079095662 1.1450173 4157882
-0.12009366 -0.053212482 1.1344312 3567024
0.13924283 -0.069824718 1.1476104 4159422
0.14371552 -0.070301041 1.1433557 4289724
-0.11703946 -0.04357294 1.1322634 3567791
-0.11401476 -0.041805126 1.1376988 3764403
0.13827154 -0.059708375 1.1459937 4356797
-0.11144669 -0.033060707 1.1316185 3830196
0.13629858 -0.049976792 1.1449 4619718
-0.10932992 -0.022262655 1.1339424 3896507
0.13300425 -0.037832029 1.1451586 4817095
0.13760035 -0.03874059 1.1421146 4948420
-0.1163374 -0.012589045 1.1346859 6916535
-0.10889471 -0.013624191 1.1346666 5210049
0.13251239 -0.031379946 1.1471962 5013440
0.13707571 -0.031284109 1.1450316 5998788
0.037641786 0.049232267 1.1387793 5859448
0.045890026 0.048742183 1.1372348 6122362
0.051329553 0.048523106 1.1404431 6319482
0.062344186 0.049075164 1.1448548 5330522
0.038579337 0.053616785 1.137251 5792108
0.046458803 0.053929366 1.1370103 5527648
0.051624224 0.052878775 1.1404159 5067354
-0.03067776 -0.22561947 1.146781 4354997
-0.023484522 -0.22712168 1.1490657 4684224
-0.013541471 -0.22750613 1.1479747 4289976
-0.0024194531 -0.22595221 1.1478448 2054307
0.0079442421 -0.22720116 1.1482449 2777510
0.013344208 -0.22866574 1.1484605 4026798
0.029766448 -0.22977281 1.1490868 5604271
0.033709478 -0.22838777 1.1492226 4881326
-0.048903614 -0.21401404 1.1459947 3039902
-0.041058302 -0.2154597 1.1468023 2710943
-0.032848649 -0.21790895 1.1499385 2645152
-0.023318822 -0.22139496 1.1536918 2514339
-0.013379982 -0.22196442 1.1535362 2514851
-0.0032646684 -0.22014466 1.1523654 2842787
0.0067027737 -0.2204057 1.1505404 2908579
0.016353928 -0.22065741 1.1513941 3039651
0.026428912 -0.22203431 1.1528964 2908578
0.035819683 -0.22179505 1.1529968 2778020
0.046021275 -0.22083208 1.1510481 2646433
0.055441335 -0.22416654 1.1500014 5012145
0.066850431 -0.22621965 1.1504478 8955830
-0.061338857 -0.2047357 1.145732 2841242
-0.051741675 -0.20744732 1.1481653 2775960
-0.042918265 -0.20930818 1.1504478 2841500
-0.033824965 -0.21207488 1.1545496 2907551
-0.0021727197 -0.21346986 1.1557503 3105184
0.0070389276 -0.21372145 1.1560982 3170722
0.016960641 -0.21439031 1.1564767 3302053
0.027103404 -0.21451996 1.1568586 3170723
0.037638519 -0.21430665 1.1572523 3105188
0.047060899 -0.2141573 1.1558892 3170467
0.056799285 -0.21462801 1.1523703 3236258
0.067220569 -0.21189278 1.1507804 3171236
-0.077129535 -0.19230103 1.1447439 2906776
-0.070811994 -0.19496113 1.1461482 2907033
-0.062591925 -0.19647948 1.1501634 2841497
-0.053756535 -0.20112681 1.153705 2775704
0.048350617 -0.20874897 1.1576055 3105443
0.057169914 -0.20934352 1.1579419 3105443
0.068231143 -0.20637089 1.1570669 3105956
0.076899461 -0.20409997 1.1538329 3105956
-0.087336525 -0.18060729 1.1442578 2644884
-0.08064153 -0.18461627 1.1475468 2775705
-0.072589025 -0.18802144 1.1505476 2841497
0.072247595 -0.19927794 1.1584194 3172006
0.080081128 -0.19742469 1.1576965 3040421
0.086179346 -0.19549625 1.1554066 2974628
-0.095502116 -0.17125228 1.1438689 2645144
-0.089113049 -0.17343614 1.1471891 2710425
-0.084065951 -0.17649452 1.1489193 2776216
0.090210512 -0.18710712 1.1557343 3171493
0.095443599 -0.18524395 1.1527621 3237026
-0.098087884 -0.16302615 1.1462897 2710424
-0.092034861 -0.16562384 1.1504999 2710937
0.093434379 -0.18075857 1.1590519 3302823
0.10014123 -0.17713594 1.1561116 3172005
0.10616358 -0.17439944 1.155471 3172006
-0.10587075 -0.15110996 1.1433026 2841498
-0.10184364 -0.15387687 1.1484048 2907290
0.103 -0.1703214 1.1593193 3303592
0.10950812 -0.16737863 1.1582034 3237544
0.11618494 -0.16351148 1.1517484 3303337
-0.10712416 -0.14253812 1.1448957 2973342
-0.10299335 -0.14590678 1.1513708 3038879
0.11362813 -0.15987092 1.1589592 3237544
0.11835069 -0.15718146 1.1545761 3303336
-0.11431966 -0.13047832 1.1438046 2973342
-0.1086546 -0.13400382 1.1485516 2973600
0.12232091 -0.14829542 1.1558479 3368872
-0.11541335 -0.12251541 1.1450474 3039392
-0.11026794 -0.12364811 1.1509018 3236259
0.12418953 -0.13894895 1.1575872 3500460
0.12898605 -0.1368603 1.1519946 3434923
-0.11587946 -0.11281592 1.145481 3170978
0.12579657 -0.13010229 1.158487 3500719
0.13077115 -0.1279524 1.1553191 3500718
-0.12156171 -0.10126043 1.1422749 3237029
-0.11807789 -0.10283128 1.148424 3237286
0.13160181 -0.1191141 1.1580465 3697329
-0.12096876 -0.092495874 1.14222 3237543
-0.11866936 -0.092167713 1.1498091 3172263
0.13345042 -0.11010993 1.157531 3697843
-0.12073278 -0.082834169 1.1451463 3303340
-0.11877894 -0.081859782 1.1502147 3303852
0.13391539 -0.099669449 1.1578569 3764149
-0.12002429 -0.073116206 1.1420851 3500716
-0.1175227 -0.071865104 1.1501739 3501229
0.13760613 -0.089466907 1.1564761 3764661
-0.11911583 -0.06510663 1.1420487 3566512
-0.11588676 -0.061867211 1.1465083 3632306
0.13532615 -0.079082318 1.1561983 3896764
-0.11463746 -0.052309003 1.1464711 3698357
0.12995438 -0.068643324 1.1581025 4291265
0.13390513 -0.070115671 1.1527358 4225217
-0.11240958 -0.043433346 1.1461128 3764408
0.13140778 -0.0591207 1.1574061 4554434
0.13424838 -0.059074856 1.1515079 4488640
-0.10876962 -0.032937281 1.1469578 3895997
-0.10456485 -0.029993691 1.150292 4027323
0.13178362 -0.048330132 1.1563246 4817354
-0.10645752 -0.023559414 1.1434928 3962044
-0.10263166 -0.022572629 1.1494988 4093118
0.12320381 -0.035374507 1.1588907 5014224
0.12854725 -0.038498159 1.1551158 4751563
-0.10461003 -0.013257347 1.1421372 4290235
-0.099904262 -0.013417698 1.146852 4158908
-0.093716994 -0.011516139 1.1505368 4028609
0.12208664 -0.028256059 1.1570071 4817874
0.12896599 -0.028466955 1.1520411 5145287
-0.096998498 -0.0069639832 1.1447694 4487616
-0.091614448 -0.0046310648 1.1492208 4356800
0.11411194 -0.015176781 1.1563702 5276623
0.12037066 -0.01864069 1.1529186 5604813
0.12971692 -0.020499587 1.151888 6720449
-0.089096963 0.002209641 1.1505895 5671109
0.11258023 -0.0094866157 1.1576923 5802961
0.11903051 -0.010717757 1.153847 6787017
0.037772182 0.01138822 1.1552719 12972031
-0.016572013 0.024974838 1.1511106 5869264
0.015411906 0.019175403 1.1543639 7515376
0.022858936 0.018303961 1.1546512 8764660
0.032407828 0.01721698 1.1550193 10146554
0.038952641 0.015741438 1.155278 10870005
-0.073341757 0.037095077 1.1428682 8028800
-0.068207912 0.03711585 1.1430607 7305855
-0.012192475 0.025838517 1.1532689 5671370
-0.0088852383 0.025615565 1.1533951 5869265
0.014265426 0.024054907 1.1542779 6988787
0.018675078 0.023757629 1.1544461 7185904
0.10526031 0.026786253 1.1576703 6314850
-0.066653803 0.042024769 1.1430759 8028802
0.10241238 0.0305245 1.1575304 6117979
0.079535104 0.042563938 1.1485597 5593178
0.081724741 0.042416327 1.1486431 5658970
-0.02871632 -0.2153666 1.1587734 2973083
-0.023260152 -0.21684645 1.1589913 2973595
-0.013855228 -0.21704501 1.1600133 2973598
-0.047879227 -0.20295459 1.1579448 2842012
-0.041612126 -0.20476711 1.1581961 2776219
-0.032523282 -0.20785634 1.1600894 2907806
-0.023111233 -0.20986301 1.1620957 2907807
-0.012627415 -0.21111046 1.1626757 2973599
-0.0035153618 -0.20939684 1.1603342 3039136
0.0072381878 -0.20912519 1.1614027 3170723
0.017220188 -0.20968266 1.1611152 3236770
0.027046181 -0.20988744 1.1608188 3170979
0.036080457 -0.21028262 1.1611614 3170980
0.042830057 -0.20906959 1.1614041 3171236
-0.058342226 -0.19335306 1.1574675 2842012
-0.051860571 -0.19605163 1.1591902 2842011
-0.042465188 -0.19894272 1.1605761 2842012
-0.034357332 -0.20093241 1.1624376 2907805
0.011891603 -0.20544499 1.1642137 3302309
0.018006844 -0.20470507 1.163293 3302308
0.026693799 -0.20517781 1.1622652 3171236
0.037448779 -0.20648278 1.1611793 3171236
0.048073418 -0.20581201 1.1632402 3105443
0.05802162 -0.20455967 1.1629356 3171492
0.064716056 -0.20313153 1.1621736 3040420
-0.078611344 -0.18086646 1.1565967 2841497
-0.070066817 -0.18419454 1.1574805 2907291
-0.061882988 -0.18739453 1.1591659 2907549
-0.055387385 -0.18900722 1.1615431 2907551
0.061483443 -0.19762975 1.1660068 3040420
0.068674721 -0.19628078 1.1643687 3106213
0.076727167 -0.1942296 1.1625463 3106214
-0.079747625 -0.17427593 1.1584976 2907290
-0.073430762 -0.17757829 1.1602648 2973340
0.073184699 -0.18949187 1.1663744 3302823
0.079463378 -0.18753985 1.1641912 3237030
0.085808426 -0.18455201 1.1645811 3237031
-0.096068926 -0.15967321 1.1557548 2841497
-0.087951556 -0.16370468 1.1566287 2842012
-0.082093254 -0.16632539 1.1593403 2907547
0.091529168 -0.17724115 1.1638763 3368361
0.096852519 -0.17434672 1.1631269 3237285
-0.097144462 -0.15366994 1.1556617 2973085
-0.090501651 -0.15432595 1.1586556 3039135
0.094349101 -0.17028588 1.1629972 3368615
0.1010518 -0.16739529 1.1639512 3237799
0.10586054 -0.16438979 1.1633775 3303337
-0.10364551 -0.1402581 1.1552995 2973857
-0.098529249 -0.14413126 1.1570824 3039137
-0.09276484 -0.14538744 1.1597562 3104930
0.10349347 -0.16003495 1.1652519 3172264
0.10994303 -0.15758102 1.1641381 3238059
-0.10431726 -0.13198572 1.1562023 3039650
-0.10070323 -0.135814 1.1593739 3105700
0.11377408 -0.14806433 1.1656864 3369132
0.11804597 -0.14853093 1.1636955 3434410
-0.10651417 -0.12325068 1.1567578 3171236
0.11616916 -0.14007866 1.1667531 3500719
0.11973196 -0.13801704 1.1656678 3435183
-0.11276051 -0.1107311 1.1546977 3302823
-0.10835675 -0.11299534 1.1575515 3171495
0.12118004 -0.12799552 1.165452 3566514
-0.11397384 -0.10198536 1.1560308 3368873
-0.11045031 -0.10339116 1.1579221 3368875
0.12454636 -0.11901493 1.1644804 3697588
-0.11430876 -0.092868447 1.157151 3303850
0.12665872 -0.10951946 1.1671067 3763892
0.13004911 -0.10908496 1.1637992 3698099
-0.11491961 -0.082605235 1.1559703 3435181
-0.10920455 -0.083465979 1.1585943 3435438
0.12833735 -0.099479459 1.1676533 3829942
0.13131988 -0.099148333 1.1649032 3764149
-0.11324868 -0.073020145 1.1563491 3501229
0.1292391 -0.086150184 1.1675699 3896505
0.13350928 -0.089340799 1.1655749 3830455
-0.1119693 -0.063225925 1.1558491 3632563
-0.10762649 -0.060139757 1.1584483 3567542
0.12746648 -0.07887204 1.164866 4027837
0.13249519 -0.082783774 1.1636596 3896505
-0.11052592 -0.053243157 1.1556102 3829940
-0.10717561 -0.053475112 1.1584066 3699127
0.12657179 -0.069168597 1.1659861 4291009
-0.10940406 -0.043158054 1.1550298 3895737
-0.10580059 -0.042568833 1.1583623 4027576
0.12756969 -0.059178405 1.1652685 4422849
-0.10774297 -0.036563978 1.1542336 4158911
-0.10309391 -0.033157304 1.1563796 4093372
0.12819013 -0.049456913 1.1647059 4817355
-0.098704837 -0.0240357 1.1560023 4093630
-0.093821146 -0.020900227 1.1586214 4094397
0.12145784 -0.0382264 1.1650771 5080014
0.12582585 -0.041745424 1.1630483 4883149
-0.096020408 -0.016596511 1.1544981 4028348
-0.091411628 -0.014334597 1.1561522 4028864
0.11764656 -0.028306745 1.164402 4949202
-0.087223902 -0.0050004348 1.1565458 4029123
-0.082948633 -0.0030358806 1.1588725 3963586
0.11221197 -0.018047631 1.1649972 5146069
0.1154463 -0.022697367 1.162491 5080276
-0.085822724 0.0027324036 1.1547109 5342665
-0.078726441 0.0044331402 1.1589652 4882633
-0.015201591 0.0039274096 1.1613547 6070261
-0.0085415374 0.0034784377 1.1616087 6528744
-0.0018814839 0.0030294582 1.1618626 8827627
0.013658638 0.001981847 1.1624553 10340848
0.022337196 0.00075917691 1.1627918 8895736
0.029774593 -0.00044358522 1.1630816 6266608
0.10403505 -0.004674904 1.1649061 5475287
0.1083288 -0.0085006505 1.1634332 5475028
-0.07478407 0.010159403 1.1570615 5999306
-0.068068124 0.010818683 1.1573077 5540557
-0.059275031 0.013564162 1.1569467 5803727
-0.046577401 0.014473341 1.1600839 4950220
-0.037717186 0.012748957 1.1604317 5016280
-0.028046584 0.01148203 1.1604056 5411294
-0.017960204 0.010776974 1.1589493 5806569
-0.0080616288 0.010132775 1.1609677 7120874
0.0015266538 0.010238633 1.1619272 12379901
0.012149459 0.0089812428 1.1598089 13891069
0.021945357 0.0080774501 1.1595105 12969723
0.031853944 0.0076525956 1.160771 9946095
0.041865408 0.0067481101 1.1615579 10013177
0.051709205 0.0079678223 1.1616758 7449069
0.058390357 0.0093808249 1.1640697 5411552
0.10145155 -0.00061233342 1.1632724 6526426
-0.044270083 0.019277081 1.1601284 6264275
-0.036549732 0.01954636 1.1579139 5803990
-0.026901832 0.019518055 1.1567754 5345755
-0.016839085 0.020104341 1.157148 5412839
-0.0072556585 0.02005586 1.1580086 5676266
0.0016047638 0.018549897 1.1607133 7253489
0.011465749 0.017691597 1.1592326 8436213
0.021302853 0.014785729 1.1586268 12051453
0.035983142 0.01824417 1.1591475 10082302
0.043750443 0.016979203 1.1594502 10607102
0.052153267 0.015565492 1.1597781 7515119
0.059079714 0.014491819 1.161382 6068200
-0.0046470985 0.02543126 1.1575588 6001365
-0.00022225454 0.025132969 1.1577276 6396124
0.11233693 0.0233275 1.1619693 6447199
-0.019560132 -0.20624918 1.167043 3039391
-0.01205674 -0.20617218 1.168825 3039135
-0.00062541105 -0.20752564 1.167765 3104930
-0.047765084 -0.19315124 1.1658688 2776478
-0.041542709 -0.19445592 1.1681154 2842271
-0.031861439 -0.19673809 1.1706823 2907807
-0.022806203 -0.19920889 1.1715583 2908063
-0.012915689 -0.20072041 1.173048 2973600
-0.0025411649 -0.20043802 1.172968 3105187
0.0074162227 -0.20076306 1.1724246 3236773
0.017208818 -0.20008504 1.1721052 3237029
0.028115941 -0.20090573 1.1725887 3171237
0.037761498 -0.20252225 1.1706634 3171236
0.047381036 -0.20161122 1.1704391 3105444
0.056338169 -0.20072901 1.1698439 3171493
-0.059444666 -0.1834534 1.1685474 2841758
-0.051554397 -0.18629293 1.1696692 2907551
-0.042850822 -0.18797114 1.1728363 2842271
-0.032320604 -0.18986508 1.1744257 2908064
-0.025668098 -0.19144085 1.1746893 2973857
-0.004361432 -0.1928772 1.1755019 3105444
0.008539889 -0.19274487 1.1759851 3237030
0.018562596 -0.19384226 1.1755704 3302823
0.028253337 -0.19371313 1.17581 3171495
0.037700582 -0.19294035 1.1756892 3105703
0.04737246 -0.1938529 1.1758516 3105703
0.057255678 -0.19403169 1.1743227 3105702
0.065838866 -0.19211765 1.1718403 3105958
-0.070112959 -0.17502834 1.1665186 2973598
-0.06242048 -0.17724454 1.1711831 2907551
-0.05275856 -0.17975077 1.1735694 2908065
0.059466794 -0.18573371 1.1778353 3237288
0.068401195 -0.18563595 1.1757237 3302823
0.077289641 -0.18420637 1.1730585 3237287
-0.078774773 -0.16314282 1.1672999 3105183
-0.071683668 -0.16698235 1.1708628 2974112
-0.063626625 -0.16971795 1.1730732 2842786
0.07025376 -0.17896873 1.1781808 3171750
0.079151951 -0.1759586 1.1771541 3172008
0.087475747 -0.17478737 1.1731198 3303081
-0.086140253 -0.15295531 1.1647416 3104930
-0.080313638 -0.15563704 1.1709884 3170978
0.082146533 -0.16778895 1.178529 3303337
0.090088822 -0.16681516 1.176567 3368873
0.0972187 -0.16600636 1.1736206 3237543
-0.09515705 -0.1395179 1.1662863 3040164
-0.088749461 -0.14370829 1.1676874 3105701
-0.082844488 -0.14850691 1.172165 3302822
0.092181653 -0.15790109 1.1788188 3303597
0.099890769 -0.15601511 1.1747247 3238059
0.10721131 -0.15345362 1.1733395 3303852
-0.097205661 -0.13302377 1.1672642 3106213
-0.089759432 -0.13554658 1.1717914 3172007
0.1012442 -0.14699008 1.1788629 3369387
0.10931806 -0.14731818 1.175366 3435181
-0.10355532 -0.1223501 1.1644857 3237030
-0.097209528 -0.12342609 1.16907 3237800
-0.091171496 -0.12727851 1.1716657 3303594
0.10345858 -0.14107555 1.1790942 3500972
0.11225396 -0.13740063 1.1761396 3500976
0.1172981 -0.13485995 1.1715531 3500977
-0.10413324 -0.11302161 1.1661611 3237545
-0.099745944 -0.11496148 1.1703458 3303852
0.11455724 -0.12799561 1.1793958 3566772
0.11799758 -0.12858412 1.1755271 3566515
-0.10598797 -0.10316401 1.1661437 3369389
0.11605513 -0.11854144 1.1793689 3763639
0.11965542 -0.11787693 1.1746056 3763639
-0.11174677 -0.088918991 1.1638842 3435181
-0.10676059 -0.092930771 1.1673471 3435438
0.11744425 -0.1075232 1.179324 3895737
0.12261654 -0.10778397 1.1743402 3764149
-0.11085081 -0.082481444 1.1649286 3435438
-0.10569014 -0.083436802 1.1691953 3501231
0.11782384 -0.10191233 1.179289 3961530
0.12364979 -0.09834791 1.174296 3961528
0.13115069 -0.095486172 1.1717268 3895735
-0.10996827 -0.073264644 1.1654811 3501489
-0.10580613 -0.073304579 1.1685222 3501490
0.11903851 -0.083957523 1.1791767 4159679
0.12459441 -0.089048639 1.1746992 3962041
0.13130151 -0.093257025 1.1717129 3895735
-0.10990289 -0.065917365 1.1644181 3501747
-0.10499324 -0.063034311 1.1672457 3567541
0.11872111 -0.077548131 1.1791084 4225473
0.12251989 -0.078332618 1.1752548 4159424
-0.10249916 -0.053034335 1.1661839 3764919
0.11907081 -0.068678617 1.1790434 4422597
0.12320083 -0.068267249 1.1751919 4357059
-0.10134196 -0.043318827 1.1659704 3896505
-0.096767649 -0.043481581 1.1707184 3962298
0.11966321 -0.058071896 1.1789724 4685767
0.12388177 -0.058201879 1.1751288 4422851
-0.099200495 -0.034328047 1.1641418 4027836
-0.094281398 -0.032858014 1.1696266 4028094
0.11858828 -0.047395077 1.1767188 4948684
0.1245249 -0.049726278 1.1720762 4751818
-0.096901834 -0.026368879 1.1625569 4093632
-0.091333233 -0.023250088 1.168589 4094399
0.11248291 -0.036545046 1.1785134 5080784
0.11689095 -0.037941836 1.1738876 5211343
-0.087468922 -0.015058227 1.1671784 4094402
-0.080852054 -0.012417018 1.1700419 4226244
-0.074304871 -0.011177093 1.1712776 4620744
-0.02040159 -0.013683595 1.1733234 5412064
0.0020264797 -0.015195534 1.1741787 6463211
0.0098151835 -0.01956667 1.1745095 6397929
0.019517083 -0.019578516 1.1748739 6397929
0.028853396 -0.018292367 1.1752131 6003432
0.11020787 -0.027107373 1.1758431 5081042
0.11540014 -0.030603938 1.1705648 5081041
-0.078776278 -0.004759483 1.1649153 4160963
-0.070858262 -0.0043218657 1.1704888 4752075
-0.055679165 -0.0022870675 1.1718986 4949201
-0.0489887 -0.0033017471 1.1721587 5016022
-0.039486438 -0.0050687045 1.1718639 5213659
-0.029724928 -0.0066364706 1.1716796 5411552
-0.019977145 -0.0080746338 1.1724894 5740773
-0.0099293757 -0.0087530911 1.1736732 6003172
0.00017733127 -0.0094338804 1.1736583 6331366
0.01034473 -0.010109983 1.1714439 6989552
0.02040137 -0.010789625 1.1722279 6792432
0.030482618 -0.011465766 1.1719618 5937640
0.038922716 -0.01110369 1.1745272 5806054
0.049656838 -0.010515414 1.1759257 5674725
0.056461178 -0.009846814 1.1761754 5674983
0.10198756 -0.01545231 1.1779338 5146841
0.10806297 -0.017964356 1.1724654 5080789
-0.074742019 0.0034876466 1.1631262 4554184
-0.071362168 0.0041068718 1.1662499 4751049
-0.05624909 0.0033752918 1.1698259 4818129
-0.048798293 0.0028702915 1.1693095 5015507
-0.039157726 0.0022128522 1.1662747 5147609
-0.029030835 0.0015264899 1.16536 5346018
-0.019542536 0.00052007288 1.1683381 5937898
-0.0091831461 -0.00092502683 1.1689621 6462952
0.0013259528 -0.00088962913 1.1684668 8303605
0.010703269 -0.0016313866 1.1678088 8501495
0.020495903 -0.0032768324 1.1673771 7252467
0.031776428 -0.0034880787 1.1686423 6069484
0.04093872 -0.0030102655 1.1698439 6135528
0.050878845 -0.0040455759 1.1733245 5741031
0.06019412 -0.0044673085 1.1752673 5543655
0.069695108 -0.0038017631 1.1766191 5477092
0.079819784 -0.0031546801 1.1769934 5739747
0.091141529 -0.0041684285 1.1774274 5280481
0.10029588 -0.0074398518 1.1741048 5015513
0.10572203 -0.0097966194 1.1720198 4949463
-0.067606762 0.0097245798 1.1633393 4818122
-0.058134258 0.010081246 1.1636918 5147606
-0.049421035 0.010240294 1.1640174 4818639
-0.040875398 0.0079225302 1.1643587 5344472
0.0037145978 0.0054764003 1.1660542 12971007
0.0081321253 0.0046187639 1.1662277 12905215
0.032635875 0.0029668882 1.1671622 5807584
0.046001561 0.0020658597 1.1676719 6004710
0.052112579 0.0026136115 1.1678965 5807083
0.060965426 0.0045117065 1.1703471 5477863
0.069319732 0.0035279766 1.1732045 5542628
0.080769822 -0.00021260977 1.1770033 5673698
0.091495797 0.0010181367 1.1758939 5804766
0.097236685 -0.0013880655 1.1696258 5147865
0.064576507 0.012010239 1.1682818 5412324
-0.019309614 -0.19477099 1.1789602 3039650
-0.012923419 -0.19584785 1.1792095 3039650
-0.039030023 -0.18552382 1.1781385 2842271
-0.032278813 -0.18597895 1.178396 2973857
-0.022105386 -0.18775079 1.1800576 2973857
-0.012548028 -0.19014397 1.1817015 3039395
-0.0017612316 -0.18893686 1.1813469 3171237
0.0076398575 -0.18815365 1.1809813 3237030
0.017974226 -0.18829568 1.1818427 3302569
0.026286634 -0.18899883 1.1819557 3237546
-0.057933353 -0.17374632 1.1773252 2908065
-0.050443716 -0.17522073 1.1776193 2973857
-0.041944079 -0.17755529 1.1789597 2973857
-0.032396913 -0.18009733 1.180459 2973858
-0.024255538 -0.18146536 1.1826605 3105444
0.00735645 -0.18359643 1.183866 3237030
0.019124687 -0.18287653 1.1843015 3302825
0.02807205 -0.18302546 1.1843308 3171754
0.037928551 -0.18422 1.1830178 3171752
0.048292071 -0.18449789 1.1828207 3171753
0.056930594 -0.18195803 1.1827106 3237546
0.06532643 -0.18011659 1.1820089 3303592
-0.068439782 -0.16355824 1.1768411 2908579
-0.060491934 -0.1662564 1.1791648 2908579
-0.050819859 -0.16837603 1.1804563 3105444
-0.042354904 -0.17071183 1.1818863 3105443
0.051998883 -0.1775265 1.1854887 3303339
0.06021186 -0.17580992 1.1844476 3303082
0.068804562 -0.174289 1.1826601 3237545
0.07493744 -0.17171563 1.1822958 3303850
-0.076679662 -0.15169166 1.1764274 3302822
-0.070461906 -0.15641201 1.178954 3040165
-0.063676618 -0.160649 1.1809974 3040167
0.063900329 -0.16924939 1.1858627 3303598
0.070249945 -0.16567916 1.1851279 3238061
0.079001419 -0.16421418 1.1834943 3303596
0.086875021 -0.16234037 1.1826615 3369131
-0.085720435 -0.14052516 1.1759897 3171751
-0.079612151 -0.14456943 1.1776675 3368615
-0.073073298 -0.14866625 1.1805391 3171751
0.089071892 -0.15588905 1.1841884 3369134
-0.087213442 -0.13335505 1.1758707 3369130
-0.081357591 -0.13569552 1.1791133 3434922
0.090788774 -0.1463078 1.1857173 3435183
-0.088403262 -0.12464853 1.1770837 3434923
0.094006002 -0.13941273 1.1859299 3501232
0.1009808 -0.13674723 1.1855562 3435694
0.10790781 -0.13548049 1.1832149 3501232
-0.095836736 -0.11298059 1.1763684 3369646
-0.090451144 -0.11709578 1.1782746 3435182
0.10526714 -0.12777582 1.1870509 3567282
0.10947828 -0.12753753 1.1850235 3567027
-0.10330796 -0.099750631 1.1749707 3501231
-0.09910512 -0.1039563 1.1779176 3435439
0.10580217 -0.11986738 1.1870015 3829686
0.11114803 -0.11741976 1.1854016 3829431
-0.10307944 -0.096372709 1.1749496 3501231
-0.098549679 -0.093420029 1.1767616 3567024
0.11406509 -0.10821231 1.1858748 3830201
-0.10212725 -0.082298011 1.1748616 3632818
-0.099031031 -0.08321631 1.1769874 3698612
0.11691763 -0.097774118 1.185223 3896507
-0.10147978 -0.072727218 1.1748017 3633333
-0.097764567 -0.073156387 1.177747 3764919
0.11746144 -0.087582365 1.1846533 4093886
-0.1013357 -0.063914262 1.1747296 3633334
-0.097366884 -0.063226148 1.1780748 3830201
0.1150892 -0.077771395 1.1852007 4291523
-0.096191891 -0.052989591 1.1764945 3896506
0.11533201 -0.067283407 1.1844949 4619975
-0.0922786 -0.043680515 1.1766071 4028348
0.11015876 -0.055470128 1.1865985 5146320
0.11446173 -0.057992406 1.1857815 4883148
-0.089876816 -0.034414947 1.1751863 3962814
-0.084915742 -0.033371188 1.1779366 3963072
0.10982167 -0.046609547 1.1850069 5146577
0.11353929 -0.048498724 1.1831615 5080527
-0.087882884 -0.025458492 1.1748964 4028607
-0.081684679 -0.024112247 1.1772522 4291526
-0.031848408 -0.02546823 1.1810031 5147865
-0.024381729 -0.025744602 1.1812859 5344731
-0.0080629904 -0.025936753 1.1819003 5345501
-0.0012889924 -0.026393406 1.1821586 5739743
0.0087599941 -0.029315963 1.1812272 5936862
0.01777513 -0.029929891 1.1819047 5871068
0.027988564 -0.029502034 1.1832851 5739228
0.046128988 -0.029590011 1.183967 5213656
0.1085541 -0.037622783 1.1847801 4949970
-0.079329394 -0.016816564 1.1751415 4422856
-0.070668846 -0.012615807 1.1772492 4686797
-0.060260348 -0.012185574 1.1778182 4884690
-0.050048321 -0.014306188 1.1797212 4950486
-0.039643943 -0.015773572 1.1792909 5213659
-0.031108866 -0.017534822 1.1777588 5279707
-0.021070024 -0.019348957 1.1785519 5345244
-0.010821598 -0.018404417 1.1788394 5411808
-0.0010591308 -0.020180114 1.1790193 5806052
0.0080724973 -0.023933977 1.1784855 6068964
0.020049255 -0.025118403 1.1789455 6068963
0.030182416 -0.023409642 1.1802347 6003173
0.038697086 -0.022255786 1.1814218 5608417
0.048843987 -0.022945389 1.1824093 5411038
0.055619575 -0.02342023 1.184269 5279709
0.10033164 -0.024679467 1.185035 5212630
0.10578393 -0.028656773 1.1835297 5015248
-0.066528879 -0.0072167143 1.1755376 4949712
-0.05977767 -0.007671833 1.1757951 4949713
-0.04965084 -0.0083545148 1.1761813 5016279
-0.040299557 -0.0093619525 1.1765412 5213659
-0.031723797 -0.010694139 1.1768749 5345501
0.040889788 -0.015023708 1.1796392 5871590
0.049366884 -0.015029624 1.1799575 5871847
0.059669197 -0.013473928 1.182332 5543139
0.066998519 -0.012834579 1.1828876 5280225
0.091382876 -0.014481865 1.185533 5411294
0.097227179 -0.016308464 1.1832212 5279196
0.069629215 -0.0079122484 1.1806556 5411556
0.079307698 -0.0068680346 1.1810098 5412066
0.090559714 -0.0076265708 1.1814389 5477344
0.097158566 -0.010333642 1.1817105 5213404
-0.011452522 -0.18558668 1.1871804 3105189
-0.031228842 -0.17576253 1.1873523 3039906
-0.021716906 -0.17854041 1.1881627 3039908
-0.012360565 -0.18032292 1.1904358 3105447
-0.0016335901 -0.1802837 1.1882529 3105702
0.0075355396 -0.17965466 1.1878411 3171750
0.016522828 -0.17984644 1.1881802 3237289
0.028079273 -0.17876208 1.1886046 3237548
0.038274452 -0.17944938 1.1889933 3171752
0.047336839 -0.1800603 1.1893389 3171752
-0.057987496 -0.16248356 1.1852301 3039909
-0.050243989 -0.16373292 1.1864214 3105701
-0.04235287 -0.16691029 1.1884034 3105443
-0.033200763 -0.17292407 1.1902554 3040163
-0.0024511181 -0.17408295 1.1914201 3105960
0.0089900773 -0.17373705 1.1918466 3105958
0.018192843 -0.17284763 1.1913837 3237545
0.028672813 -0.17249757 1.1906785 3237547
0.038726088 -0.17286485 1.1905535 3237544
0.048772499 -0.17331383 1.1910189 3237545
0.057571664 -0.1719207 1.1903188 3303339
-0.068565682 -0.15231884 1.1847435 3172009
-0.060471691 -0.15602086 1.1874818 3105961
-0.051373109 -0.15884516 1.1894493 3171752
0.03235466 -0.16591772 1.192655 3303337
0.039174236 -0.16637745 1.1929151 3303593
0.049307175 -0.16608122 1.1932929 3303594
0.058710687 -0.16410232 1.1923776 3303596
0.065717652 -0.16307944 1.1898797 3238062
-0.075353704 -0.14332063 1.1844095 3434409
-0.06985414 -0.14544065 1.1874602 3237547
-0.061743967 -0.14835632 1.1889677 3237805
0.060115643 -0.15687135 1.1936177 3238318
0.06962502 -0.15457985 1.1928337 3238572
0.079796657 -0.15506111 1.1915386 3434926
0.086363815 -0.1549058 1.1905829 3369134
-0.077124193 -0.13414109 1.1854939 3435179
-0.071421154 -0.136526 1.1880555 3369388
0.074657135 -0.1482033 1.1940874 3500977
0.080538638 -0.14505903 1.1932797 3435186
0.086091533 -0.14547379 1.1904898 3500720
-0.084880747 -0.12285287 1.1848725 3566511
-0.079452105 -0.12609395 1.1867727 3566767
-0.072484761 -0.12914345 1.1883955 3500977
0.082494766 -0.13753751 1.1937875 3501234
0.090628363 -0.13565575 1.1913242 3501490
-0.09352009 -0.10907232 1.1834263 3566770
-0.087186702 -0.11407673 1.1863099 3632306
-0.080961972 -0.11943144 1.1879917 3632563
0.092940636 -0.12711635 1.1931756 3699127
0.10052862 -0.12635107 1.1913345 3633076
-0.094385363 -0.10340658 1.1843446 3566770
-0.088571303 -0.10468037 1.1875763 3763892
0.09439037 -0.11811303 1.1945635 3633335
0.10128757 -0.11639392 1.1923611 3764407
-0.093903922 -0.093324699 1.1860753 3698868
-0.08965902 -0.094216533 1.1874434 3699126
0.095766611 -0.10620888 1.1945105 3962811
0.10232471 -0.1067469 1.1935939 3830969
0.1101187 -0.10750853 1.1910578 3830714
-0.094331615 -0.083329111 1.184093 3699126
-0.089236192 -0.084215857 1.1873714 3830712
0.10367133 -0.096871346 1.1941247 4028606
0.11193077 -0.09754464 1.1910383 3962300
-0.093138218 -0.073898368 1.1847323 3830970
-0.08831986 -0.073885724 1.1873149 3962813
0.10453117 -0.087846592 1.1946779 4291522
0.11255386 -0.087996557 1.1913415 4094399
-0.092763506 -0.063831195 1.1847723 3962044
-0.08800704 -0.064439848 1.1872435 4093630
0.10684569 -0.077235453 1.1944047 4554438
0.11176705 -0.07833758 1.1908631 4357059
-0.091449343 -0.053855807 1.1843525 4093886
-0.086934835 -0.053412914 1.1871867 4291009
0.10575363 -0.066597342 1.1936474 4686026
0.11187565 -0.067120105 1.1907685 4685769
-0.089302212 -0.046725567 1.1830361 4159935
-0.084255815 -0.044573743 1.1860659 4225985
0.099152222 -0.056164239 1.1941973 5015248
0.10523548 -0.057868287 1.1917721 5014991
-0.08055824 -0.034987226 1.1853803 4292037
-0.075421877 -0.037540238 1.1874794 4619977
-0.052228279 -0.0322484 1.1883036 5279449
-0.04427211 -0.032784753 1.188607 5016538
-0.031846501 -0.034764972 1.189091 4950743
-0.022465726 -0.037077609 1.1894635 4950488
-0.013384692 -0.037532967 1.1898084 5147351
-0.0029017739 -0.037287515 1.1901999 5278422
0.0075128367 -0.040314924 1.1897279 5212886
0.016913848 -0.040289931 1.1892189 5278423
0.026894925 -0.040120393 1.1900924 5147094
0.037689678 -0.041248094 1.1917586 4885460
0.047277346 -0.040391535 1.1913832 4950741
0.056368731 -0.040483341 1.1924531 5016279
0.09838438 -0.046245556 1.1926802 5212370
0.10577784 -0.047919702 1.1903707 5212369
-0.078007817 -0.028176822 1.1852984 4423370
-0.075710014 -0.025131993 1.1849576 4554187
-0.051413998 -0.027271062 1.1880236 5147610
-0.04147061 -0.027221292 1.1866618 5081818
-0.032545142 -0.030102856 1.1870222 5016538
-0.02133544 -0.029417843 1.1875705 5278938
-0.012215406 -0.029424824 1.1879129 5344730
-0.0017957222 -0.03101436 1.1872507 5673948
0.0082893036 -0.033945825 1.1865877 5805277
0.017351687 -0.03455675 1.1869333 5541848
0.027623555 -0.034110446 1.187315 5475544
0.037972108 -0.032530606 1.1876895 5213397
0.048526727 -0.033862133 1.188804 5082070
0.058178134 -0.033718713 1.1908604 5016536
0.067176796 -0.032136701 1.1927855 5213915
0.077959225 -0.031884246 1.1931881 5279453
0.088839754 -0.033074759 1.1936071 5213659
0.098111875 -0.036636218 1.1923853 5212628
0.10480718 -0.03703618 1.1902385 5146833
-0.074924223 -0.019226156 1.183334 4554443
-0.049653411 -0.019107752 1.1842817 5016281
-0.04246486 -0.02050335 1.1845639 5147611
-0.011487547 -0.023502633 1.1857533 5411294
0.059430264 -0.023728453 1.1884178 5148123
0.068118997 -0.024317518 1.1889493 5213915
0.078051895 -0.025207803 1.1908703 5213917
0.088759132 -0.025860004 1.1918552 5213659
0.096698344 -0.028144248 1.1901894 5212887
