# .PCD v0.7 - Point Cloud Data file format
VERSION 0.7
FIELDS x y z rgba
SIZE 4 4 4 4
TYPE F F F U
COUNT 1 1 1 1
WIDTH 174
HEIGHT 1
VIEWPOINT 0 0 0 1 0 0 0
POINTS 174
DATA ascii
-0.34124905 -0.13029048 0.88008571 5134174
-0.33446324 -0.13168898 0.87988663 5134176
-0.34186926 -0.12566921 0.88071132 4871515
-0.34891689 -0.14892845 0.88464129 4936281
-0.33840889 -0.15115178 0.88432515 5199967
-0.33353072 -0.15101515 0.88433635 5397348
-0.35732204 -0.14245954 0.88522547 4673880
-0.34958026 -0.14250675 0.88327277 4870232
-0.34002531 -0.14226033 0.8840158 5068382
-0.33022603 -0.14168775 0.88462913 5068384
-0.32243776 -0.14006507 0.88580012 4476504
-0.35798877 -0.1329186 0.88513708 4607822
-0.35091883 -0.13252196 0.88383472 4673623
-0.33990934 -0.13295677 0.88375962 5134174
-0.32950398 -0.13177812 0.8839035 4739419
-0.32170388 -0.1319707 0.88516337 4081746
-0.35840631 -0.12484872 0.88791043 4410445
-0.35009024 -0.12314861 0.8851006 4213839
-0.33979243 -0.12235221 0.88519299 4345429
-0.32970634 -0.12247923 0.88516086 4016211
-0.32155296 -0.1227488 0.88627666 3621193
-0.34962845 -0.11774044 0.885831 3884109
-0.34026739 -0.11650484 0.88598412 3752784
-0.32984126 -0.11627995 0.88599908 3621192
-0.32252046 -0.11715574 0.8858698 3686459
-0.35695797 -0.16262743 0.89332485 4673626
-0.34881312 -0.1629232 0.89040661 4870741
-0.33962172 -0.16384766 0.89045417 5265754
-0.32956976 -0.1628952 0.89083767 5397604
-0.32110229 -0.16034067 0.89415741 4608350
-0.35820416 -0.15319693 0.89063716 4673629
-0.34979522 -0.15419817 0.88830292 4870744
-0.34130347 -0.15547065 0.88778198 5134174
-0.32901511 -0.15323433 0.88872415 5397606
-0.32074353 -0.15278262 0.89297688 4476760
-0.31459022 -0.14889351 0.89569521 4015442
-0.36536661 -0.1458011 0.89618856 3883351
-0.36189276 -0.1449939 0.89104509 4475995
-0.32826811 -0.14665899 0.88895375 5068641
-0.31918627 -0.14351934 0.89143604 4082513
-0.31325069 -0.14281563 0.89601022 3752531
-0.36337394 -0.13496533 0.89119202 4079443
-0.31744567 -0.13436645 0.89211309 3621705
-0.3128553 -0.1370039 0.89487797 3751503
-0.31925455 -0.12669876 0.89163858 3490378
-0.34493732 -0.18197253 0.90236861 5002588
-0.34173805 -0.18190351 0.90237319 5528419
-0.35580847 -0.17269133 0.90363932 4739163
-0.34849912 -0.17498702 0.90034699 5002333
-0.33899587 -0.17507784 0.90026456 5397092
-0.32982728 -0.17305076 0.90189445 5332066
-0.32381594 -0.17200126 0.90368515 4740695
-0.35732836 -0.16807561 0.8989678 4082256
-0.35035434 -0.16883391 0.89708906 5068120
-0.32745448 -0.16808194 0.89917493 5200736
-0.3193109 -0.16485974 0.9017542 4345175
-0.31225422 -0.16310039 0.90429461 4278096
-0.31683603 -0.15496287 0.89977932 4147028
-0.31200305 -0.15587188 0.90377045 3819087
-0.31236166 -0.14791811 0.90107101 3687502
-0.33747709 -0.19510697 0.91168213 5528423
-0.33318114 -0.19448046 0.91176045 5397348
-0.34796733 -0.18682045 0.90743601 4804702
-0.33848089 -0.18674129 0.90684766 5462626
-0.32908621 -0.18624926 0.9095034 5003105
-0.32107159 -0.18267994 0.91091585 4804440
-0.35734642 -0.17722328 0.91009271 3817824
-0.35130504 -0.18026698 0.90563589 4673622
-0.33526587 -0.17992103 0.9056589 5660265
-0.32791173 -0.17822039 0.90587789 5069150
-0.31893525 -0.17550561 0.90824974 4475986
-0.31358525 -0.17113838 0.90883219 4014924
-0.31624958 -0.16890955 0.90711921 4606547
-0.31056693 -0.16644225 0.90794885 3620428
-0.34386662 -0.20295085 0.91769493 4079956
-0.33724618 -0.20347871 0.91530728 5266270
-0.33139405 -0.20321897 0.91764015 5002845
-0.34687954 -0.19663206 0.91653538 4079963
-0.33921465 -0.19877298 0.91421646 5330781
-0.32873586 -0.19656515 0.91616136 5002331
-0.32557085 -0.19034278 0.91533577 5001816
-0.32145593 -0.18758842 0.91691291 4540755
-0.31714246 -0.18052635 0.9166503 4213074
-0.33760351 -0.21498533 0.92816806 5265766
-0.33899865 -0.21019436 0.92593461 5068639
-0.33033067 -0.20830172 0.92569709 4214103
-0.34731731 -0.20346308 0.92166728 1580089
-0.32617158 -0.20128191 0.92260343 4145996
-0.32355946 -0.19540417 0.92272139 4212054
-0.34399962 -0.2165684 0.93099076 3618132
-0.33848676 -0.21753794 0.93085152 5199718
-0.3319234 -0.21630791 0.93100804 4214875
-0.33215958 -0.27782229 0.93883854 528927
-0.32702506 -0.27837369 0.93875641 1517876
-0.32767603 -0.28980926 0.94932073 4419983
-0.34294832 -0.28310585 0.94823134 1651559
-0.33752316 -0.28180605 0.9452275 1782104
-0.32536706 -0.2837519 0.94282019 4154236
-0.32027876 -0.28077775 0.94707084 3028033
-0.33473831 -0.27546811 0.95126987 2369321
-0.32692343 -0.27491781 0.94769984 2040105
-0.3350713 -0.25591832 0.94987661 4146252
-0.34252745 -0.28931916 0.95748168 5077683
-0.33565852 -0.29155093 0.95582438 4617364
-0.32622623 -0.29172164 0.9557873 4549258
-0.32104987 -0.28590891 0.95387447 6582660
-0.34381071 -0.27745059 0.95505166 7695014
-0.33619532 -0.27366942 0.9562242 2040625
-0.32812145 -0.27219006 0.9557395 2172202
-0.32124454 -0.27696383 0.95508397 2760198
-0.33673695 -0.30191344 0.96384341 4683677
-0.33103827 -0.30179054 0.96385157 3831442
-0.34451386 -0.29509744 0.96362311 3299734
-0.33742067 -0.29694498 0.9619475 4683420
-0.32883799 -0.29738373 0.96282947 3960460
-0.342042 -0.3759625 0.96695966 3829135
-0.33392477 -0.37530977 0.96703589 4223637
-0.32769069 -0.37562031 0.96698463 3960467
-0.34305957 -0.36668822 0.96821487 3498881
-0.33464599 -0.3659994 0.96789187 3895695
-0.32682356 -0.36456472 0.96847785 3631246
-0.34319255 -0.35520026 0.96674073 3499128
-0.33593029 -0.35583866 0.96664369 4025235
-0.32714653 -0.35495168 0.96862459 3499655
-0.34279028 -0.34562597 0.96601617 3826560
-0.33605108 -0.34559244 0.9665153 4156303
-0.32807061 -0.34630018 0.96893048 3630985
-0.34275013 -0.33659542 0.97026414 3893387
-0.33616316 -0.33593339 0.9687742 4157333
-0.32882079 -0.33555058 0.97088927 3762828
-0.3412323 -0.32842702 0.97338426 3762325
-0.33559597 -0.3252691 0.97010279 4420507
-0.32937387 -0.32561368 0.97240156 3828877
-0.34268257 -0.31475118 0.9752351 4222878
-0.33547056 -0.31591684 0.97129959 4552347
-0.32926649 -0.31658852 0.97415954 3631755
-0.34461075 -0.30619839 0.97074318 3627913
-0.33593327 -0.30743343 0.9684779 4683676
-0.32879692 -0.30639711 0.97157353 3892613
-0.32802179 -0.29812092 0.9693886 3563127
-0.34342963 -0.38647449 0.97101879 3033484
-0.33507538 -0.38759822 0.97327119 2897991
-0.32502219 -0.38651991 0.97290742 3891064
-0.31748998 -0.38583332 0.97467089 2638186
-0.34765515 -0.37736207 0.97081524 666715
-0.33670801 -0.37935257 0.97052997 4813457
-0.32318953 -0.37613857 0.97094434 3499654
-0.31601453 -0.37636206 0.97462124 3561592
-0.34856141 -0.36608499 0.97234106 6722
-0.32352656 -0.36669105 0.97222197 3694979
-0.31696138 -0.36656764 0.9742471 3233144
-0.32217467 -0.35634756 0.97361821 3104639
-0.31748888 -0.35666236 0.97677946 2640231
-0.32307765 -0.34674034 0.97491825 2907007
-0.31871077 -0.34737909 0.9794122 3099492
-0.34576675 -0.33508176 0.97652787 4089741
-0.32368237 -0.33730042 0.97655559 3496061
-0.31938827 -0.33672053 0.98131269 4278874
-0.34362942 -0.32701337 0.97761536 2972810
-0.32456493 -0.32719529 0.97893852 3757171
-0.32072419 -0.32869405 0.9823997 3748927
-0.34259814 -0.32126099 0.97839147 3630740
-0.32412836 -0.31971654 0.97857285 3953004
-0.33557135 -0.39449105 0.97756368 984897
-0.32517466 -0.39041835 0.97809881 4350584
-0.31539497 -0.36650312 0.98198986 4674411
-0.31563729 -0.35837662 0.98544335 6974583
-0.31762889 -0.3474251 0.98692673 3815753
-0.3496365 -0.33706781 0.98534691 5799072
-0.31700566 -0.33751851 0.9852376 5064001
-0.31513524 -0.37407598 0.9934113 7039097
-0.31553271 -0.36848462 0.99517679 7565430
-0.31641328 -0.3598665 0.99600673 8223350
-0.31688026 -0.3510572 0.99248922 9076613
