# .PCD v0.7 - Point Cloud Data file format
VERSION 0.7
FIELDS x y z rgba
SIZE 4 4 4 4
TYPE F F F U
COUNT 1 1 1 1
WIDTH 174
HEIGHT 1
VIEWPOINT 0 0 0 1 0 0 0
POINTS 174
DATA ascii
-0.33732343 -0.14069042 0.86960924 5134174
-0.33055237 -0.14214408 0.86932188 5134176
-0.33789739 -0.13606872 0.8702746 4871515
-0.34509531 -0.1592958 0.87412143 4936281
-0.33461076 -0.16160452 0.87366813 5199967
-0.32973182 -0.16150874 0.87362397 5397348
-0.35343832 -0.15276125 0.87484837 4673880
-0.34572017 -0.15285915 0.87280601 4870232
-0.33615559 -0.15269789 0.87344033 5068382
-0.32634541 -0.15221161 0.87394434 5068384
-0.3185308 -0.15066247 0.87503672 4476504
-0.35402551 -0.14321469 0.87483507 4607822
-0.34696791 -0.14286782 0.87345392 4673623
-0.33596408 -0.14339402 0.87324852 5134174
-0.32554817 -0.14230341 0.87328047 4739419
-0.31773603 -0.14257017 0.87444866 4081746
-0.35434306 -0.13516164 0.87766999 4410445
-0.34604579 -0.13351101 0.8747763 4213839
-0.33574125 -0.13280135 0.87475526 4345429
-0.32565764 -0.1330124 0.87460566 4016211
-0.31749451 -0.13335806 0.87562525 3621193
-0.34553 -0.12811226 0.87553948 3884109
-0.33615774 -0.12695603 0.87559313 3752784
-0.32573059 -0.12681836 0.87548918 3621192
-0.31841943 -0.12775433 0.87526911 3686459
-0.35315129 -0.17298892 0.88280034 4673626
-0.34504333 -0.17333184 0.87978613 4870741
-0.33586013 -0.17433336 0.87972093 5265754
-0.32579672 -0.17346771 0.87999499 5397604
-0.31727043 -0.17100781 0.88323462 4608350
-0.35434872 -0.16352937 0.88019389 4673629
-0.34597594 -0.16458409 0.87775564 4870744
-0.33750173 -0.1659237 0.87712759 5134174
-0.32518494 -0.16379693 0.87794346 5397606
-0.31686151 -0.16344479 0.88210338 4476760
-0.31064475 -0.15962678 0.88477778 4015442
-0.36138421 -0.15611386 0.88587981 3883351
-0.35796306 -0.15529893 0.88070238 4475995
-0.32437992 -0.15722986 0.87821084 5068641
-0.31524396 -0.15418404 0.88061011 4082513
-0.30925047 -0.15356272 0.88512027 3752531
-0.3593578 -0.14525966 0.88093722 4079443
-0.31341854 -0.14505109 0.88133162 3621705
-0.30881912 -0.14774653 0.88402456 3751503
-0.31516802 -0.13736536 0.88093221 3490378
-0.34119111 -0.19249803 0.89156771 5002588
-0.33799151 -0.1924558 0.89153582 5528419
-0.35196823 -0.18313567 0.89302957 4739163
-0.34471685 -0.18546873 0.88963675 5002333
-0.33521628 -0.18563834 0.88944387 5397092
-0.32601279 -0.18369965 0.89098197 5332066
-0.31997263 -0.18271326 0.89271051 4740695
-0.35350275 -0.1784741 0.8884086 4082256
-0.34655744 -0.17927715 0.88644403 5068120
-0.32362959 -0.17873147 0.88827038 5200736
-0.31542999 -0.17559598 0.89077806 4345175
-0.30833 -0.1739139 0.89324909 4278096
-0.31289458 -0.16570625 0.88884467 4147028
-0.30802387 -0.16668415 0.89277315 3819087
-0.30834639 -0.15870854 0.89013427 3687502
-0.33373538 -0.20576069 0.9007014 5528423
-0.32943368 -0.20517066 0.90073448 5397348
-0.34420344 -0.19735663 0.89663547 4804702
-0.33472407 -0.19735251 0.8959381 5462626
-0.32529566 -0.19695801 0.89848852 5003105
-0.3172355 -0.19346598 0.89983338 4804440
-0.35347006 -0.1877007 0.89946812 3817824
-0.34750623 -0.19076279 0.89492035 4673622
-0.33146551 -0.19055101 0.89476043 5660265
-0.32409525 -0.18891348 0.8949064 5069150
-0.3150695 -0.18629085 0.89719349 4475986
-0.30967653 -0.18197274 0.89774489 4014924
-0.31234148 -0.17970952 0.89607859 4606547
-0.30662906 -0.17729577 0.89685988 3620428
-0.34012127 -0.21359375 0.90673214 4079956
-0.33353344 -0.2141598 0.90426445 5266270
-0.32765284 -0.21396567 0.90653133 5002845
-0.34309393 -0.20724186 0.90565217 4079963
-0.33547455 -0.2094301 0.90322971 5330781
-0.32495582 -0.20732388 0.90506893 5002331
-0.32174814 -0.2011224 0.9042508 5001816
-0.31759226 -0.19841389 0.90579969 4540755
-0.31322268 -0.1913864 0.90553707 4213074
-0.33383992 -0.22575481 0.9170469 5265766
-0.33522016 -0.22093648 0.91486365 5068639
-0.32653981 -0.21911466 0.91453928 4214103
-0.34353027 -0.21410556 0.91074038 1580089
-0.32235751 -0.21210788 0.91144747 4145996
-0.31969473 -0.20625317 0.91157675 4212054
-0.34021631 -0.22730455 0.91993207 3618132
-0.33471376 -0.22831909 0.91972232 5199718
-0.32813889 -0.22714509 0.91981167 4214875
-0.32880399 -0.28870985 0.92720973 528927
-0.32367554 -0.28930351 0.92706436 1517876
-0.32430148 -0.30080858 0.93755448 4419983
-0.33952817 -0.2939702 0.93668902 1651559
-0.33412716 -0.29269427 0.93363202 1782104
-0.32201639 -0.29472435 0.93107063 4154236
-0.31685463 -0.29182333 0.93528312 3028033
-0.33121964 -0.28642324 0.9396863 2369321
-0.32344198 -0.28591269 0.93603027 2040105
-0.33140367 -0.26686189 0.93843514 4146252
-0.33905342 -0.30025285 0.94588983 5077683
-0.33222309 -0.30253002 0.94413751 4617364
-0.3227936 -0.30277923 0.94399023 4549258
-0.31759074 -0.29699641 0.9420588 6582660
-0.34026438 -0.28835687 0.94355863 7695014
-0.33260438 -0.28464797 0.94466978 2040625
-0.32452443 -0.28323269 0.94410223 2172202
-0.31769603 -0.28805891 0.94333357 2760198
-0.33329663 -0.3129403 0.95209509 4683677
-0.32759738 -0.31286508 0.95203823 3831442
-0.34101778 -0.30605817 0.95201278 3299734
-0.33396018 -0.30795285 0.95024228 4683420
-0.32537192 -0.30846956 0.95102197 3960460
-0.33919001 -0.38696283 0.95474941 3829135
-0.3310672 -0.3863785 0.95473641 4223637
-0.324837 -0.38674074 0.95461094 3960467
-0.3401148 -0.3776896 0.95608175 3498881
-0.33169997 -0.37706882 0.95566642 3895695
-0.32385951 -0.37570375 0.95617205 3631246
-0.34016779 -0.36619067 0.95469046 3499128
-0.33291277 -0.366889 0.95450497 4025235
-0.32409966 -0.36608967 0.95639038 3499655
-0.33969313 -0.35661516 0.9540289 3826560
-0.3329486 -0.35664153 0.95445031 4156303
-0.32494715 -0.3574332 0.9567681 3630985
-0.33952796 -0.3476159 0.95833981 3893387
-0.33295321 -0.34699827 0.95677853 4157333
-0.32558402 -0.34669197 0.95881128 3762828
-0.3379055 -0.33948302 0.96149975 3762325
-0.33228081 -0.33634886 0.95817578 4420507
-0.32603583 -0.33676186 0.96039993 3828877
-0.33921897 -0.32580912 0.96346378 4222878
-0.33206278 -0.32700682 0.95943701 4552347
-0.3258321 -0.32775074 0.96222031 3631755
-0.34112644 -0.31720859 0.95905495 3627913
-0.3324863 -0.31849983 0.95668083 4683676
-0.32530636 -0.31754535 0.95970106 3892613
-0.32448658 -0.30926052 0.95756584 3563127
-0.3406195 -0.39749166 0.95874995 3033484
-0.3322497 -0.39870125 0.96089768 2897991
-0.32219261 -0.39770439 0.96042532 3891064
-0.3146351 -0.39709342 0.96210647 2638186
-0.34477004 -0.38834307 0.95865965 666715
-0.33384413 -0.39042282 0.95823377 4813457
-0.32029513 -0.38732493 0.95851463 3499654
-0.31308049 -0.38763469 0.96210665 3561592
-0.34556353 -0.37707001 0.96027541 6722
-0.32053775 -0.37788433 0.95986271 3694979
-0.3139489 -0.37783027 0.96181267 3233144
-0.31908268 -0.36756274 0.96131623 3104639
-0.31436366 -0.36793929 0.9644208 2640231
-0.31988955 -0.35795787 0.96269441 2907007
-0.31547686 -0.35866523 0.96713299 3099492
-0.34245947 -0.34612197 0.96464849 4089741
-0.32039574 -0.34852517 0.9644053 3496061
-0.31604251 -0.34801528 0.96911645 4278874
-0.34024179 -0.33807972 0.96576816 2972810
-0.32116556 -0.33843035 0.96686959 3757171
-0.31729808 -0.33998591 0.97027546 3748927
-0.33915317 -0.33234182 0.96657288 3630740
-0.32067016 -0.33095309 0.96655166 3953004
-0.3327544 -0.40562025 0.96514684 984897
-0.32231826 -0.40163851 0.96559048 4350584
-0.31229305 -0.37783426 0.96953708 4674411
-0.3124271 -0.36973095 0.97305042 6974583
-0.31430906 -0.35877407 0.97463405 3815753
-0.34624419 -0.34813869 0.97349745 5799072
-0.31362176 -0.34886122 0.97300786 5064001
-0.31196594 -0.3854906 0.980901 7039097
-0.31229588 -0.37990886 0.98271042 7565430
-0.31309414 -0.37128988 0.98361135 8223350
-0.3135272 -0.36245203 0.98016173 9076613
