# .PCD v0.7 - Point Cloud Data file format
VERSION 0.7
FIELDS x y z rgba
SIZE 4 4 4 4
TYPE F F F U
COUNT 1 1 1 1
WIDTH 1133
HEIGHT 1
VIEWPOINT 0 0 0 1 0 0 0
POINTS 1133
DATA ascii
0.047596473 0.034760788 1.0122929 5268347
0.11614944 -0.0089650676 1.0168271 7374502
-0.099886179 -0.0027861521 1.0245101 9214113
-0.091090471 0.001135841 1.0225428 6978442
0.11225399 -0.0070147365 1.016906 7112109
0.11674887 -0.0028191954 1.0174996 8686741
-0.089206979 0.0069055036 1.0231743 7636109
-0.083866209 0.011010431 1.0222217 7437970
0.11680754 0.0053236708 1.016934 9277068
0.082495123 0.021590129 1.018622 5992060
0.089098856 0.019502349 1.021082 6451580
0.09596628 0.018348791 1.0197115 6516347
-0.059216563 0.026858687 1.0209539 6254982
-0.055538442 0.031209394 1.0269313 6648965
-0.039692361 0.03007853 1.0196649 5270660
0.06380666 0.032044992 1.0210102 5662844
0.069675259 0.030676886 1.0210042 5794679
0.0782585 0.027895436 1.0197425 5926261
0.086477026 0.024246693 1.0225804 6253428
-0.049482126 0.035970941 1.0216217 7043204
-0.040382043 0.036635116 1.021897 6188928
-0.029984966 0.039716169 1.0226879 5991293
-0.020215135 0.041862085 1.0226479 5794427
-0.010442302 0.041832045 1.0216897 5597052
-0.0022618677 0.041400343 1.0203538 5399930
0.0070743151 0.041747496 1.0190057 5203324
0.017790059 0.041742444 1.0188326 5269365
0.030502666 0.041768238 1.0196277 5334394
0.039710931 0.04074496 1.0214709 5466234
0.046275139 0.038919836 1.0221834 5597049
0.063808434 0.034976333 1.0210342 5991033
0.068466201 0.034891948 1.0232445 6055795
-0.018255539 0.043809012 1.0224322 6056827
-0.0091876164 0.044903561 1.0257953 5859449
-0.00083047524 0.045057222 1.0245615 5728377
0.0083632991 0.044491753 1.0260086 5532027
0.019011911 0.043926179 1.0258321 5532021
-0.096984163 -0.0011717752 1.0303346 7306630
-0.095016196 -0.00018892437 1.0303109 7438985
-0.07740061 0.017558567 1.0361735 7044228
-0.073527455 0.017532833 1.0331101 6255491
0.091404736 0.021858126 1.0274818 6187632
0.096815288 0.022347465 1.0273985 6119529
-0.059192013 0.029897735 1.0299799 6780808
0.059441343 0.03220284 1.0280831 5465215
0.083201289 0.027031377 1.0326577 6056820
0.089282081 0.026344143 1.0308536 5988198
-0.046792645 0.0381556 1.0298476 7108737
-0.040371593 0.041010901 1.0330679 7108222
-0.032035053 0.042083755 1.0296416 6582396
0.050902795 0.039328307 1.03053 5859705
0.056236029 0.037482008 1.0291785 5728122
-0.027467828 0.045449853 1.032096 6713719
-0.021028813 0.04635267 1.0333997 6450807
-0.012842771 0.046584636 1.0316191 6122104
-0.0010094345 0.047564253 1.0314361 6122617
0.011324726 0.048069119 1.0316578 6057083
0.017667573 0.047902927 1.0324875 6057334
-0.08235912 0.016308948 1.0392438 7832202
0.082930207 0.030407399 1.0366906 5792617
0.085906953 0.030405983 1.0366426 5724767
-0.039108329 0.044357806 1.0387762 7764863
-0.019260898 0.04831785 1.0384881 6384242
-0.010330642 0.048313648 1.0383439 6121843
0.1634974 -0.079382107 1.0534894 13950701
0.16652845 -0.079383537 1.0534406 13160147
0.16551994 -0.076351732 1.0534817 13423577
0.16468444 -0.08912082 1.0603913 12898285
0.16866478 -0.090096645 1.0598189 12832198
0.1632106 -0.083146147 1.0586067 10136266
0.16997737 -0.083628632 1.0586007 13159885
0.16358675 -0.076874696 1.0600097 12175571
0.1688742 -0.075784452 1.0564326 13093836
-0.14014514 -0.10939677 1.076949 1720740
-0.14091539 -0.10249893 1.0768064 3628972
-0.14192146 -0.096349478 1.0782852 4745397
0.1641659 -0.090977326 1.0693859 6256041
0.16871323 -0.0936637 1.0694903 12767188
0.16245344 -0.081909455 1.0714885 7312841
-0.13790207 -0.1336942 1.0879147 2903988
-0.13478532 -0.13369569 1.0878644 1324707
-0.13936813 -0.12165585 1.0872873 2904505
-0.13807102 -0.11288556 1.0859883 2644141
0.16443516 -0.11097851 1.0832193 5801403
0.16886766 -0.11132693 1.0831449 11779799
-0.13778327 -0.10177515 1.0841746 3039906
0.16358146 -0.10187273 1.0823078 3630254
0.16979189 -0.10269101 1.0816125 11516624
0.17690714 -0.10267229 1.0830863 13685195
-0.14023985 -0.092826918 1.086652 2708908
0.16335419 -0.093396991 1.081506 3762605
0.1680879 -0.097179852 1.0802733 10465738
0.16345029 -0.086551458 1.0774351 6721740
-0.1378669 -0.075509511 1.0883929 1588628
-0.13475016 -0.075510979 1.0883424 3826867
-0.13126105 -0.14911088 1.0936816 3694011
-0.13626397 -0.14256182 1.0918159 7178192
-0.13100742 -0.14232215 1.092887 2114980
-0.13646559 -0.1310907 1.0919136 1063065
-0.13197277 -0.13392012 1.0927179 2447769
-0.13599178 -0.12353045 1.0919681 2578847
-0.13344128 -0.12311134 1.0949309 2907546
0.16429923 -0.12202661 1.0886314 6851775
0.16986196 -0.12155181 1.0870453 13029078
-0.13528439 -0.11344516 1.0927898 3104917
-0.1334337 -0.11056319 1.095034 3170462
0.16291355 -0.1112344 1.0887426 3040417
0.17260702 -0.1145513 1.0870585 13422807
0.17552853 -0.11142422 1.0870371 13619661
-0.13736369 -0.10092174 1.0929264 3104162
0.16167089 -0.10301562 1.0881873 2973607
-0.13668901 -0.092599154 1.0932339 3169952
0.16212705 -0.092926033 1.0904062 2843043
-0.138495 -0.08291401 1.0925006 3301299
-0.12598269 -0.16110086 1.1034993 4750553
-0.12230809 -0.16334483 1.1054219 1196192
-0.12804481 -0.15380862 1.1003921 3036848
-0.12406382 -0.15612696 1.1055096 1789334
0.16000821 -0.15220146 1.0984541 12898004
-0.12696515 -0.14292693 1.1018866 2776475
0.16049412 -0.14309378 1.0974211 9087435
0.16625123 -0.13842788 1.0939659 13488846
-0.1292094 -0.13218613 1.101789 3038106
0.1603379 -0.1324355 1.0965111 4354994
0.16814496 -0.13045266 1.0940009 13752800
-0.131054 -0.12248813 1.1033432 2973083
0.16033064 -0.12267141 1.0974994 2121388
-0.13595441 -0.10889968 1.0990889 3301280
-0.13251713 -0.11388288 1.1026294 3039132
0.16102929 -0.11459279 1.0954131 2646946
0.17729105 -0.1093692 1.0970272 13817039
-0.1359506 -0.10260276 1.0991408 3366820
-0.13332476 -0.10311174 1.104095 3105183
0.15946566 -0.10237329 1.0990729 3631271
0.17834456 -0.107265 1.0970274 13817037
-0.13594383 -0.091408223 1.0992327 3499424
-0.13319145 -0.092460014 1.1029803 3302563
0.15912512 -0.092115507 1.0984038 3369127
-0.13315398 -0.082955882 1.1027578 3434147
0.16106163 -0.08254005 1.0994194 2908578
0.16678643 -0.079898573 1.0974393 8233160
-0.13782318 -0.071778663 1.1002818 3365295
-0.1324552 -0.073017381 1.1031744 3499689
0.16185495 -0.072960436 1.0992234 4024485
0.16679153 -0.071479812 1.0975084 11192030
-0.13624954 -0.062918127 1.1024725 2181536
-0.13100307 -0.062788561 1.1035891 3433908
0.16112401 -0.067544438 1.1016331 2708114
-0.13456307 -0.054731123 1.1065134 8233201
-0.13076498 -0.055837698 1.1047283 3564980
0.011774681 0.1171135 1.1015633 9935247
0.017487407 0.11801279 1.1014785 9934992
-0.11655454 -0.17233178 1.1139487 929696
-0.11233385 -0.17270613 1.1161855 1984411
0.15003447 -0.16856335 1.1119828 13424882
-0.11759816 -0.16274974 1.1117518 2512540
-0.11292444 -0.16467738 1.1149276 2906513
0.1513222 -0.1626209 1.1095661 8955594
0.15692012 -0.16125087 1.1059308 14080986
-0.12473281 -0.14866823 1.1125829 2381461
-0.12159137 -0.15386687 1.1144272 2776212
0.1515276 -0.15300998 1.1084061 3697834
-0.12516271 -0.14275379 1.113472 2841752
-0.12298366 -0.14710197 1.1165682 2906774
0.15339531 -0.14309822 1.1089375 2646183
-0.12702861 -0.13219997 1.1146129 2907034
-0.12297721 -0.13643567 1.1166558 2775704
0.15399536 -0.1343731 1.1100998 3696546
0.15604325 -0.12983319 1.1095374 3761571
-0.12806442 -0.12273636 1.1132946 2973083
0.15771468 -0.12372839 1.1088938 3368880
-0.12916113 -0.11252329 1.1128517 3039134
0.15801166 -0.11211725 1.1085905 3500454
-0.12933679 -0.10207119 1.1126405 3171232
0.15696171 -0.10368663 1.10969 3631529
-0.12990007 -0.093296327 1.1120217 3302564
0.1553929 -0.093257546 1.1055146 3697839
0.15585826 -0.093533836 1.1085054 3763633
-0.12997371 -0.082748361 1.1129098 3368355
0.15642637 -0.082276627 1.1083031 3436468
0.17074531 -0.078661367 1.1083874 10992842
-0.12762848 -0.072332293 1.1129576 3697068
0.15436052 -0.06936872 1.112729 3765679
0.15748186 -0.071830429 1.1078393 3830452
0.17039365 -0.07440991 1.108428 11387079
-0.12656115 -0.064539164 1.1108042 3631022
-0.12439139 -0.061326664 1.1102954 3500456
0.15368195 -0.062428284 1.1099077 3830449
0.1603574 -0.062904388 1.107316 5207985
0.16694252 -0.063951813 1.1112368 10334913
-0.12675808 -0.052532692 1.1129779 3434161
0.15282325 -0.053494811 1.1097411 3893939
0.15990379 -0.053975414 1.108821 8428221
-0.12695013 -0.042532224 1.1166352 6194370
-0.12238595 -0.040439181 1.1174361 4421311
0.15072376 -0.041685201 1.1119244 5734064
0.15704133 -0.045370799 1.1128831 10203587
-0.12104875 -0.033773363 1.1174693 6852289
0.14920832 -0.035745695 1.1098883 8955077
0.019010158 0.093889624 1.1162578 9737616
-0.085841909 -0.20917702 1.1237924 7635861
-0.082414821 -0.20969321 1.1264 8100012
-0.096050546 -0.19927475 1.1267059 10535920
-0.089063391 -0.20193532 1.1242179 5996227
-0.082412645 -0.20610286 1.1264294 6394567
-0.10618128 -0.18816936 1.1189595 8431615
-0.099139392 -0.19063932 1.1215951 1526185
-0.092892349 -0.19306883 1.1255629 1262491
0.13084336 -0.19040588 1.1231148 11717846
-0.11473116 -0.17960942 1.119168 7571711
-0.10772422 -0.18189453 1.1205919 1917611
-0.1006874 -0.18444988 1.1242356 2379673
-0.093889385 -0.1874276 1.1267685 2644619
0.13243736 -0.18353365 1.1231456 5010097
0.13969223 -0.18054646 1.1199098 10599906
0.14678147 -0.17933232 1.118948 14081762
-0.10774134 -0.17308594 1.12332 2709143
0.13348657 -0.17293406 1.1232159 2909858
0.14007507 -0.17243069 1.1192949 4026283
0.14761244 -0.17259631 1.1154894 12307424
-0.11471888 -0.15928917 1.1193349 2775446
-0.110292 -0.16352879 1.1221381 2775442
0.14134462 -0.16349059 1.1201662 3105445
0.14620891 -0.16262068 1.1150939 2578854
-0.11671218 -0.15210667 1.1215805 2775449
-0.11242452 -0.15455155 1.1260047 2906778
0.14370316 -0.15370288 1.1216089 3564451
0.14699225 -0.15269369 1.1175634 3433893
-0.12054124 -0.14343631 1.1228541 2840984
0.1452305 -0.1455332 1.1232517 3565217
0.14892726 -0.14337435 1.1178755 3499430
-0.12539592 -0.13147745 1.1197362 2841497
-0.12231709 -0.13330625 1.1256725 2907290
0.1512474 -0.1327723 1.120259 3237547
-0.12554421 -0.12203427 1.1214166 2973083
-0.12274064 -0.12255403 1.1257677 3038877
0.15436469 -0.12309762 1.1214703 3827369
0.15692732 -0.1219852 1.1152551 3564710
-0.12657572 -0.11207531 1.1227725 3039391
-0.12387535 -0.11402211 1.126523 3170977
0.15463664 -0.11300802 1.1213671 3565735
0.15693249 -0.1134293 1.1153255 3500198
-0.12666239 -0.10390101 1.1249844 3170977
0.15489891 -0.10398424 1.1207703 3631790
0.15602463 -0.10568536 1.1234052 3434923
-0.12682714 -0.093339495 1.1240737 3302823
0.15457235 -0.092533141 1.1210364 3566513
-0.12681164 -0.083327085 1.1228223 3368614
0.15367374 -0.083276786 1.1211656 3632560
-0.12628174 -0.075632259 1.1242106 3565995
0.15246104 -0.07309752 1.1199969 3895728
-0.12331165 -0.060598265 1.1258867 3697842
0.15010503 -0.063126981 1.1186501 4158132
-0.12166473 -0.052284919 1.1246918 3502262
0.14899996 -0.052468099 1.1199558 4027837
-0.11902304 -0.04276697 1.1241416 3698611
0.14421666 -0.041053388 1.1241276 4619197
0.14993067 -0.04411025 1.1184708 4946612
-0.12533841 -0.036293056 1.1205183 7180220
-0.11763334 -0.03335768 1.1276193 4815032
0.14412475 -0.034566179 1.1235157 5209534
0.14873172 -0.032755479 1.1161216 8425655
0.020174114 0.089837894 1.1192062 9474444
-0.058776136 -0.21962658 1.1329377 8300241
-0.077043772 -0.2113933 1.1296635 7642055
-0.069517434 -0.21207179 1.131673 4815810
-0.062736794 -0.21553734 1.1330352 5210825
-0.086180657 -0.19947264 1.1295453 932767
-0.079186425 -0.20293367 1.1310884 2382238
-0.07053344 -0.20599648 1.1332396 2251168
0.11296965 -0.20283169 1.1303023 6518691
0.1187841 -0.20179661 1.1287882 11319227
-0.087873966 -0.19274582 1.131495 2447513
-0.082447886 -0.19623688 1.1335123 2513045
0.12063918 -0.19357833 1.1292019 4617903
0.12763508 -0.19357367 1.1261411 10929103
-0.097330078 -0.18171126 1.1313263 2971544
-0.091411978 -0.18548363 1.1317452 2774929
0.12270728 -0.18430671 1.1286306 2909086
0.12757581 -0.18334126 1.1262262 3105187
-0.1048795 -0.16850485 1.130102 2709911
-0.10022353 -0.17358595 1.1323384 2644371
0.12911013 -0.17353174 1.1268976 3368356
-0.10717693 -0.16190386 1.132012 2775444
-0.10219654 -0.16603668 1.1327461 2709910
0.13355134 -0.16367595 1.1278918 3368613
0.13773362 -0.16069955 1.1262485 3499683
-0.11039013 -0.15332985 1.1318161 2841497
0.13539362 -0.15624003 1.1303235 3237027
0.14008111 -0.1535109 1.1276032 3302821
-0.11632849 -0.141729 1.1310787 2645144
-0.11280377 -0.14347778 1.1335475 2775964
0.14322025 -0.14358538 1.1284828 3237542
0.14729658 -0.14000078 1.1275978 3106215
-0.11813967 -0.13333666 1.1320603 2907291
0.14460717 -0.13403797 1.1290239 3499683
0.14768541 -0.13204628 1.1274666 3303338
-0.1191038 -0.12341843 1.1331031 3039134
0.14930947 -0.12355818 1.1277791 3499947
-0.12428105 -0.1090977 1.1309042 3236770
-0.12207076 -0.11341615 1.1341667 3236770
0.1510538 -0.11305518 1.1282438 3500458
-0.12427713 -0.10261792 1.1309574 3237027
-0.12248726 -0.10301352 1.1349258 3302821
0.15343416 -0.10251162 1.1287597 3632048
-0.12427126 -0.09289825 1.1310372 3302824
-0.12248169 -0.093801454 1.1350015 3302569
0.1517103 -0.093621202 1.1287568 3632047
-0.12469773 -0.083826356 1.1311188 3434408
-0.12185504 -0.081493184 1.1350927 3434665
0.14831866 -0.082570061 1.1285387 4026292
-0.12425952 -0.07345891 1.131197 3631531
-0.12246892 -0.072667889 1.1351752 3631531
0.14840819 -0.074580751 1.1272291 4157366
-0.1242556 -0.066979133 1.1312503 4025255
-0.12106554 -0.061876871 1.1335268 3632304
0.14787151 -0.062787615 1.1268903 4289211
-0.1176091 -0.052881993 1.1329734 3568048
0.14473298 -0.052023713 1.1276963 4094399
0.14708298 -0.056422938 1.1289557 4224702
-0.11632444 -0.046823546 1.1312879 3764911
-0.11284144 -0.042531118 1.1337675 3895729
0.14219442 -0.04360792 1.1285945 4487616
-0.11747921 -0.028742552 1.1344558 6458567
-0.11255598 -0.032512583 1.1337452 3895996
0.14211373 -0.032562159 1.127632 5735616
0.14897159 -0.029309258 1.1271479 9477559
-0.11702242 -0.026068218 1.1354706 6852289
-0.11377142 -0.026069753 1.1354181 5933254
0.052927434 0.075492516 1.1295611 9474701
-0.021829151 -0.23019347 1.1442561 7248329
0.011000689 -0.23179393 1.1429126 5801654
0.019014824 -0.23066397 1.1422591 5210039
0.03182986 -0.23131396 1.1433804 6328255
0.039495528 -0.23131756 1.1432565 7379645
0.05105494 -0.23120135 1.1430708 8430007
0.058941916 -0.2293987 1.1389576 8625323
-0.059855122 -0.22198433 1.1369364 9678537
-0.048925485 -0.22204491 1.1432867 4422071
-0.039565191 -0.2227377 1.1446038 2778029
-0.029804297 -0.22455721 1.1444312 2513574
-0.022192415 -0.22727273 1.144286 2315684
0.0077397479 -0.22801697 1.1437966 2120102
0.019785795 -0.22802266 1.1436019 2185635
0.032927603 -0.22693366 1.1433986 2186146
0.038402412 -0.22803144 1.1433012 2316696
0.05373507 -0.22584826 1.1430717 4486314
0.061262663 -0.22544046 1.1409531 5997746
0.072426409 -0.22249325 1.1416543 6063288
0.081115365 -0.22104229 1.142669 6589614
0.089218929 -0.22126515 1.1425363 8757678
-0.06528528 -0.21001835 1.1371225 1855898
-0.058513675 -0.21255684 1.1402309 2249885
-0.050767276 -0.21490368 1.1441218 2381985
-0.042628016 -0.21704121 1.1447002 3039902
0.075095713 -0.21545394 1.1428121 2841504
0.081119075 -0.21490918 1.1427194 3302564
0.090664312 -0.21264724 1.1412503 4420011
0.1003962 -0.21178271 1.1367185 6984117
0.10979921 -0.20901334 1.1343035 6254993
-0.07641159 -0.19950002 1.1381888 2710418
-0.068630233 -0.20279706 1.1416175 2775447
-0.061863188 -0.20505264 1.1443093 2906776
0.093132019 -0.20476332 1.1422088 3171492
0.10159779 -0.20337062 1.1392831 3237285
0.10986646 -0.20212552 1.1349305 3629215
-0.07923004 -0.19258286 1.1422919 2775191
-0.071055442 -0.19609922 1.1446648 2906012
0.10358556 -0.19417915 1.1408602 3040421
0.11047526 -0.19247162 1.1373764 3105703
0.11633392 -0.19270268 1.1343321 2777257
-0.094628111 -0.17846462 1.1378559 2710677
-0.087807506 -0.18238154 1.1412436 2709909
-0.081552684 -0.18601318 1.1435837 2709910
0.11168985 -0.18412253 1.141005 3368100
0.11920202 -0.182255 1.1365054 3302561
-0.095802113 -0.17194551 1.1410401 2710421
-0.090953127 -0.17483345 1.1450276 2644886
0.11377621 -0.1763735 1.1425091 3040936
0.12178671 -0.17326126 1.1403179 3237031
0.1281458 -0.17033938 1.1373258 3368615
-0.10549104 -0.15888302 1.1381924 2776209
-0.099985629 -0.16340593 1.1428171 2841240
0.12385808 -0.16479345 1.1424415 3237287
0.13023239 -0.16252774 1.1372135 3302822
-0.10641435 -0.15226762 1.1427958 2710683
-0.10167585 -0.1555852 1.1454926 2841499
0.13254136 -0.15413281 1.1398003 3237541
0.13745323 -0.1513889 1.1359311 3237798
-0.10852794 -0.1437162 1.14351 2907293
0.13427323 -0.14538896 1.1424329 3237797
0.13892744 -0.14280681 1.1373782 3303334
-0.11489293 -0.1319833 1.1397086 2907805
-0.11259742 -0.13367034 1.1457158 2907805
0.1408148 -0.1334658 1.1399806 3434407
-0.11536174 -0.12268858 1.1413167 3039392
-0.11265783 -0.12391608 1.1465971 3039391
0.14276208 -0.12389324 1.1399008 3500202
0.14682668 -0.12093662 1.1344301 3631274
-0.11847545 -0.1135351 1.1433092 3170979
0.14475448 -0.11364455 1.1420803 3631791
0.14805365 -0.11302975 1.1362534 3566510
-0.11885424 -0.10319494 1.1445816 3105957
0.1439192 -0.1025203 1.140963 3632305
0.14906006 -0.10357021 1.1348703 3501227
-0.11926652 -0.093150444 1.1423848 3237546
0.14345303 -0.093441904 1.1401662 3698099
0.14798807 -0.093782134 1.1350348 3698094
-0.11863369 -0.083404727 1.1426929 3434923
0.1447037 -0.084173307 1.1407678 3895479
0.14684771 -0.086133994 1.134716 3895477
-0.11823842 -0.072952941 1.1433917 3566256
0.14499092 -0.072882086 1.1421896 4027579
0.14743109 -0.072279982 1.1388212 4157882
-0.11725058 -0.064037509 1.1426927 3567024
0.14294891 -0.063339368 1.1417912 4159422
0.14720643 -0.063451797 1.1372973 4289724
-0.11496562 -0.054183818 1.1405404 3567791
-0.11177523 -0.052295249 1.1458386 3764403
0.14122134 -0.053289033 1.1404114 4356797
-0.110127 -0.043310635 1.1397897 3830196
0.13854967 -0.04369757 1.1395999 4619718
-0.1086098 -0.032429352 1.1421927 3896507
0.13447435 -0.031807207 1.1402525 4817095
0.13894908 -0.032360062 1.1369529 4948420
-0.11619411 -0.023261301 1.1434816 6916535
-0.10871108 -0.02379258 1.1430488 5210049
0.13366584 -0.025433064 1.1424295 5013440
0.13808878 -0.024998844 1.1400279 5998788
0.033331357 0.048721731 1.1405163 5859448
0.041498169 0.048810542 1.1385276 6122362
0.047105953 0.04891181 1.1414384 6319482
0.058282237 0.050140291 1.1452687 5330522
0.033891313 0.053181097 1.1390198 5792108
0.041707966 0.054026961 1.1383672 5527648
0.047108594 0.053277373 1.1414742 5067354
-0.016037226 -0.23019335 1.1471629 4354997
-0.0086469222 -0.23124072 1.1490353 4684224
0.0012259958 -0.23093896 1.1474115 4289976
0.012196773 -0.22863801 1.1467198 2054307
0.022626983 -0.22919194 1.1465468 2777510
0.028116081 -0.2302926 1.1464491 4026798
0.044585355 -0.23030037 1.1461831 5604271
0.04842918 -0.2286551 1.1461346 4881326
-0.035009854 -0.21983126 1.1475546 3039902
-0.027053609 -0.22075695 1.1479186 2710943
-0.018541586 -0.222693 1.15057 2645152
-0.0086119361 -0.22558342 1.1537488 2514339
0.0013197428 -0.22548008 1.1530558 2514851
0.011213491 -0.22296658 1.1513832 2842787
0.021062763 -0.22252946 1.1490273 2908579
0.030741349 -0.2221431 1.1493632 3039651
0.040952101 -0.2228601 1.1503037 2908578
0.050297834 -0.22199059 1.1499099 2778020
0.060292356 -0.22031477 1.1474404 2646433
0.069842666 -0.22299188 1.1458354 5012145
0.081370384 -0.22427839 1.1456386 8955830
-0.048030157 -0.21140847 1.1481199 2841242
-0.038156334 -0.21350268 1.1499912 2775960
-0.02911815 -0.21479805 1.1517682 2841500
-0.019652348 -0.2170053 1.1553311 2907551
0.012041103 -0.21628314 1.1548253 3105184
0.021254409 -0.21591893 1.1546795 3170722
0.031204538 -0.21592361 1.1545188 3302053
0.041339263 -0.21537557 1.1543597 3170723
0.051842734 -0.21445912 1.1541976 3105188
0.061146699 -0.21365592 1.1523393 3170467
0.070689976 -0.21341887 1.1483009 3236258
0.080805019 -0.20996542 1.1462101 3171236
-0.064642608 -0.20005223 1.1481959 2906776
-0.058095489 -0.20230097 1.1492146 2907033
-0.049587365 -0.20332038 1.15276 2841497
-0.04028387 -0.20741305 1.1557432 2775704
0.062165171 -0.20819847 1.1540824 3105443
0.071009733 -0.20820265 1.1539395 3105443
0.081785306 -0.2044796 1.1525328 3105956
0.090095684 -0.20158359 1.148885 3105956
-0.075615495 -0.18906647 1.1484634 2644884
-0.068500623 -0.19266276 1.1513195 2775705
-0.060088951 -0.19556111 1.1538268 2841497
0.085388824 -0.19715264 1.1537982 3172006
0.093031213 -0.1947659 1.1526943 3040421
0.09885484 -0.19239827 1.1501193 2974628
-0.084393799 -0.18027785 1.1486775 2645144
-0.077703327 -0.1820744 1.151614 2710425
-0.072377875 -0.18481076 1.1530184 2776216
0.10233139 -0.18376237 1.1503843 3171493
0.10726044 -0.18150824 1.1471727 3237026
-0.087385654 -0.17228043 1.1513803 2710424
-0.080954298 -0.17452535 1.1552159 2710937
0.10530111 -0.17725986 1.1536404 3302823
0.11158329 -0.17315169 1.1504143 3172005
0.11736692 -0.1700069 1.1495045 3172006
-0.096093565 -0.16087332 1.149026 2841498
-0.091621101 -0.16343638 1.1538566 2907290
0.11415236 -0.16620727 1.1535883 3303592
0.12038052 -0.16281712 1.1521821 3237544
0.12642623 -0.15841614 1.1454529 3303337
-0.097825766 -0.15242928 1.1508381 2973342
-0.093135655 -0.15560555 1.157023 3038879
0.12402734 -0.15506077 1.1528538 3237544
0.12831645 -0.15199624 1.1482756 3303336
-0.10585533 -0.14086682 1.1503484 2973342
-0.099719778 -0.14407124 1.1547238 2973600
0.13175036 -0.14288241 1.1494954 3368872
-0.1074069 -0.13301446 1.1517913 3039392
-0.10188815 -0.13388279 1.157343 3236259
0.13308512 -0.1334575 1.1513016 3500460
0.13742234 -0.13096987 1.1455011 3434923
-0.10849243 -0.12337566 1.1524241 3170978
0.13414705 -0.12453666 1.1522747 3500719
0.13878889 -0.12201107 1.1488867 3500718
-0.1150953 -0.11218379 1.1497334 3237029
-0.11118695 -0.11360537 1.1556597 3237286
0.1391768 -0.11317731 1.1517254 3697329
-0.11508998 -0.10339932 1.1498057 3237543
-0.11240993 -0.103027 1.1572667 3172263
0.1403923 -0.10406257 1.1512755 3697843
-0.11533855 -0.093787044 1.1528893 3303340
-0.11318222 -0.0927568 1.1578637 3303852
0.14017935 -0.093620308 1.1517649 3764149
-0.11544427 -0.084000126 1.149971 3500716
-0.11259703 -0.082700685 1.157937 3501229
0.14310367 -0.083173491 1.1503748 3764661
-0.1150734 -0.075947866 1.1500312 3566512
-0.11183004 -0.072563298 1.154371 3632306
0.14012691 -0.072963059 1.150406 3896764
-0.11122257 -0.062943131 1.1544404 3698357
0.13418427 -0.062938109 1.1527809 4291265
0.13792771 -0.064063244 1.1471865 4225217
-0.10961214 -0.053933352 1.1541249 3764408
0.13496175 -0.053330157 1.1521807 4554434
0.13746946 -0.053007752 1.1461418 4488640
-0.10663739 -0.043229353 1.154965 3895997
-0.10246317 -0.040057916 1.1581242 4027323
0.13456053 -0.042524248 1.1512759 4817354
-0.10514465 -0.0336679 1.1515523 3962044
-0.10107327 -0.032512814 1.1573637 4093118
0.12529024 -0.030214243 1.1545273 5014224
0.13061719 -0.032916032 1.1504184 4751563
-0.10406205 -0.023246266 1.150287 4290235
-0.099107638 -0.023157671 1.1547419 4158908
-0.092869997 -0.020897374 1.158127 4028609
0.12360209 -0.023160644 1.1528345 4817874
0.13020124 -0.022835925 1.1475075 5145287
-0.096754238 -0.016493469 1.152625 4487616
-0.091304019 -0.013868026 1.1568259 4356800
0.11475305 -0.010640167 1.1528581 5276623
0.12103203 -0.013624452 1.1490173 5604813
0.13041161 -0.014834695 1.1474588 6720449
-0.089176297 -0.0068938732 1.1581825 5671109
0.1129204 -0.0050857738 1.1543623 5802961
0.11922055 -0.0058239922 1.1501585 6787017
0.036869366 0.010737516 1.1562921 12972031
-0.018403053 0.020693012 1.1552663 5869264
0.01402471 0.017013788 1.1567127 7515376
0.021517795 0.016641684 1.1565886 8764660
0.031123705 0.016194902 1.1564298 10146554
0.037756495 0.015159801 1.1563141 10870005
-0.076215625 0.02908136 1.1502678 8028800
-0.071091637 0.029444963 1.1501881 7305855
-0.013980165 0.021818265 1.1572044 5671370
-0.010663457 0.021816701 1.1571509 5869265
0.012553512 0.021805756 1.1567758 6988787
0.016975792 0.021803662 1.1567044 7185904
0.10321561 0.030608401 1.1553842 6314850
-0.069868654 0.034446642 1.1502094 8028802
0.10012215 0.034148037 1.1554632 6117979
0.076043211 0.044748396 1.1479379 5593178
0.078239113 0.044747353 1.1479025 5658970
-0.014115034 -0.22000641 1.1592178 2973083
-0.0085688084 -0.22111851 1.1591191 2973595
0.00087003317 -0.22069815 1.1596369 2973598
-0.034077153 -0.20890214 1.1596315 2842012
-0.027699057 -0.21029201 1.159517 2776219
-0.018335849 -0.21278936 1.1608694 2907806
-0.0087164491 -0.21418656 1.1623368 2907807
0.0018430939 -0.21473356 1.1623373 2973599
0.010680929 -0.21237655 1.1595469 3039136
0.021434698 -0.21139696 1.1600481 3170723
0.031401433 -0.21127683 1.1592213 3236770
0.041188814 -0.21081524 1.1584003 3170979
0.050234649 -0.21060614 1.1582559 3170980
0.056891929 -0.20894504 1.1581621 3171236
-0.04516558 -0.200021 1.1598836 2842012
-0.038435161 -0.20230168 1.1612109 2842011
-0.028807182 -0.20457335 1.1620439 2842012
-0.020496149 -0.20603937 1.1634363 2907805
0.02597861 -0.20745289 1.1626742 3302309
0.031972319 -0.20628965 1.1614439 3302308
0.040603057 -0.20616144 1.1599483 3171236
0.051346377 -0.20672345 1.15827 3171236
0.061998919 -0.20536873 1.159776 3105443
0.071810775 -0.20344511 1.1589667 3171492
0.07834439 -0.20155858 1.1578765 3040420
-0.066237077 -0.18891621 1.1603153 2841497
-0.057454955 -0.19167387 1.1606841 2907291
-0.048997339 -0.19433962 1.1618749 2907549
-0.042289745 -0.19554552 1.1638746 2907551
0.074965604 -0.19634303 1.1619745 3040420
0.081952065 -0.19448932 1.159982 3106213
0.089739874 -0.19187443 1.1577722 3106214
-0.067704231 -0.18244538 1.1623925 2907290
-0.061095472 -0.18534014 1.1637622 2973340
0.086102873 -0.18744192 1.161868 3302823
0.092110485 -0.18504018 1.1593903 3237030
0.098254725 -0.18163784 1.1594969 3237031
-0.085084438 -0.16893658 1.160784 2841497
-0.076681703 -0.17242455 1.161153 2842012
-0.070523977 -0.17468382 1.163502 2907547
0.10343038 -0.17394893 1.1586218 3368361
0.1085012 -0.17069209 1.1576434 3237285
-0.086560041 -0.16301861 1.1608565 2973085
-0.079735965 -0.16326913 1.1634815 3039135
0.10573009 -0.16680759 1.1577201 3368615
0.11226767 -0.16348636 1.1583693 3237799
0.11682791 -0.16015589 1.1575956 3303337
-0.093948096 -0.15007111 1.1610824 2973857
-0.088496715 -0.1536164 1.1625209 3039137
-0.082525268 -0.15452017 1.1648619 3104930
0.11428162 -0.15599793 1.1596713 3172264
0.12048404 -0.15309942 1.1582614 3238059
-0.095118254 -0.14187667 1.1621687 3039650
-0.09109138 -0.14549844 1.1650745 3105700
0.12375237 -0.14336981 1.1597761 3369132
0.12793174 -0.14351884 1.1575532 3434410
-0.09785752 -0.13331833 1.1629978 3171236
0.12566568 -0.13525727 1.1608583 3500719
0.12901959 -0.13294494 1.1596229 3435183
-0.10502444 -0.12121923 1.1614985 3302823
-0.10033189 -0.12322292 1.1640733 3171495
0.12978463 -0.1228466 1.1595118 3566514
-0.10674235 -0.11259526 1.163052 3368873
-0.10303594 -0.11378787 1.164728 3368875
0.13248913 -0.1136466 1.1585255 3697588
-0.10762128 -0.10353877 1.164353 3303850
0.13410486 -0.10406947 1.1612072 3763892
0.13727479 -0.10335983 1.1577327 3698099
-0.10897587 -0.093323968 1.1633921 3435181
-0.10308258 -0.093835846 1.165693 3435438
0.13513966 -0.093948193 1.1618452 3829942
0.1379403 -0.093377218 1.1589471 3764149
-0.10792762 -0.083654612 1.1638548 3501229
0.13514774 -0.080588646 1.161955 3896505
0.13950621 -0.083455279 1.1596789 3830455
-0.10733092 -0.073790267 1.1634647 3632563
-0.10306846 -0.070456646 1.1658852 3567542
0.13275152 -0.073407993 1.1594809 4027837
0.1379564 -0.076954372 1.157939 3896505
-0.10656923 -0.063730553 1.16333 3829940
-0.10306442 -0.063776866 1.16594 3699127
0.13127591 -0.063804045 1.160822 4291009
-0.10615316 -0.053585462 1.1628734 3895737
-0.10242167 -0.052803256 1.16602 4027576
0.13156734 -0.05376 1.1602333 4422849
-0.10497952 -0.046883665 1.1621094 4158911
-0.10045777 -0.043203123 1.1640669 4093372
0.13150898 -0.044011667 1.1598144 4817355
-0.096711501 -0.033802189 1.1636221 4093630
-0.091912344 -0.030383259 1.1660347 4094397
0.12407522 -0.033266492 1.1607451 5080014
0.12855114 -0.036453679 1.158424 4883149
-0.094612807 -0.026178144 1.1621124 4028348
-0.090081736 -0.023635224 1.1635603 4028864
0.11958216 -0.023617245 1.1604525 4949202
-0.086508453 -0.01404696 1.1638998 4029123
-0.082253501 -0.011832885 1.1660314 3963586
0.11351798 -0.013757035 1.1615206 5146069
0.11691374 -0.018141672 1.1587626 5080276
-0.085725695 -0.0062115714 1.1621331 5342665
-0.078538209 -0.0040986538 1.1660351 4882633
-0.015084207 -0.00036050379 1.1650411 6070261
-0.0084050763 -0.00036365539 1.1649332 6528744
-0.0017259475 -0.00036679953 1.1648253 8827627
0.013858683 -0.00037415326 1.1645736 10340848
0.022604777 -0.0010144487 1.164427 8895736
0.030110423 -0.0017177612 1.1643001 6266608
0.10447751 -0.00096531957 1.1621052 5475287
0.10892995 -0.0044715479 1.1603376 5475028
-0.075093985 0.0019070208 1.1640285 5999306
-0.06843324 0.003013365 1.1639301 5540557
-0.059874538 0.0063496232 1.1631525 5803727
-0.047114197 0.0080661774 1.1656276 4950220
-0.03815316 0.0069374368 1.1654737 5016280
-0.028435364 0.0063250437 1.1649116 5411294
-0.018418122 0.0063218847 1.1629095 5806569
-0.0084038749 0.0063164905 1.1643881 7120874
0.00119403 0.0070537999 1.1648391 12379901
0.011746595 0.0065453127 1.1621379 13891069
0.021550339 0.0063075796 1.1613039 12969723
0.031518944 0.0065326542 1.162029 9946095
0.041596271 0.0062930211 1.1622672 10013177
0.051329162 0.0081709325 1.1618847 7449069
0.058021422 0.0099957809 1.1639457 5411552
0.10154508 0.002937302 1.1606845 6526426
-0.045132209 0.013013221 1.1656363 6264275
-0.03757808 0.013833754 1.1630207 5803990
-0.028025467 0.014471628 1.1613715 5345755
-0.018018547 0.015728667 1.1612202 5412839
-0.0084205791 0.016313113 1.1615701 5676266
0.00065377168 0.015368164 1.1637733 7253489
0.01045532 0.015197307 1.1617562 8436213
0.020416524 0.012969464 1.1605768 12051453
0.034841128 0.017400615 1.1603804 10082302
0.042680293 0.016657263 1.1602477 10607102
0.051163897 0.015807942 1.1601037 7515119
0.058223046 0.015179962 1.1613181 6068200
-0.0062032118 0.02185791 1.1610799 6001365
-0.0017656963 0.021855816 1.1610081 6396124
0.11072883 0.02757211 1.1592386 6447199
-0.0051507019 -0.21041384 1.1671532 3039391
0.0024164496 -0.20985761 1.1685358 3039135
0.013838248 -0.21042281 1.1668465 3104930
-0.034185879 -0.19922912 1.1677141 2776478
-0.027778052 -0.20014426 1.1696035 2842271
-0.017841753 -0.20180631 1.1716115 2907807
-0.0086082127 -0.20367423 1.1719609 2908063
0.0014270144 -0.20453778 1.1728964 2973600
0.011740249 -0.20355634 1.1722711 3105187
0.021653153 -0.20320231 1.1711943 3236773
0.031347349 -0.20186192 1.1703682 3237029
0.042295046 -0.20195325 1.1702573 3171237
0.051908266 -0.20288858 1.167794 3171236
0.061419714 -0.20132875 1.1670762 3105444
0.070253015 -0.19983691 1.1660227 3171493
-0.046321932 -0.1903795 1.1711835 2841758
-0.038211253 -0.19269727 1.1718335 2907551
-0.029256687 -0.19383132 1.1745036 2842271
-0.018553298 -0.19503474 1.1754975 2908064
-0.011806285 -0.19616266 1.1753793 2973857
0.0095614046 -0.19617273 1.1750342 3105444
0.022432605 -0.19517905 1.1748345 3237030
0.032468896 -0.19559298 1.1738689 3302823
0.042128347 -0.19481511 1.1735961 3171495
0.051482923 -0.19340633 1.1729884 3105703
0.061188638 -0.19366783 1.1726208 3105703
0.070964567 -0.19315857 1.1705668 3105702
0.079254553 -0.19063522 1.1676675 3105958
-0.057620708 -0.18266341 1.1698762 2973598
-0.049556699 -0.18442392 1.1740851 2907551
-0.03963457 -0.18630821 1.1759098 2908065
0.072806284 -0.18478228 1.1741066 3237288
0.081586957 -0.18405262 1.171526 3302823
0.09020336 -0.18198936 1.1684191 3237287
-0.066998228 -0.17140062 1.1713306 3105183
-0.059485134 -0.17480519 1.1744423 2974112
-0.051156264 -0.17702378 1.1761723 2842786
0.083122656 -0.17731206 1.1740015 3171750
0.091732457 -0.17369509 1.1725585 3172008
0.0997293 -0.17190775 1.1681101 3303081
-0.075152174 -0.1616962 1.1693512 3104930
-0.06883052 -0.1640697 1.1752306 3170978
0.094247505 -0.1653631 1.1739202 3303337
0.10198961 -0.16382843 1.1715573 3368873
0.10887994 -0.1624988 1.1682519 3237543
-0.084945157 -0.14892021 1.1716148 3040164
-0.078206792 -0.15268949 1.172598 3105701
-0.071762204 -0.15714395 1.1766685 3302822
0.10360426 -0.15482724 1.1738557 3303597
0.11093797 -0.15236737 1.1693931 3238059
0.11798632 -0.149299 1.1676679 3303852
-0.087364867 -0.14259359 1.1728172 3106213
-0.079533249 -0.1446746 1.1768966 3172007
0.1119107 -0.14333257 1.1736161 3369387
0.11978731 -0.14306563 1.1696904 3435181
-0.094550967 -0.13233258 1.1705729 3237030
-0.08790879 -0.13304511 1.1747938 3237800
-0.081496403 -0.13651942 1.1769954 3303594
0.11373639 -0.13728632 1.1738364 3500972
0.12209517 -0.13298514 1.1704862 3500976
0.12670356 -0.13004445 1.1656852 3500977
-0.095655978 -0.1230894 1.1724448 3237545
-0.090929329 -0.12478985 1.1763551 3303852
0.12394124 -0.12349452 1.1737851 3566772
0.12719855 -0.12379395 1.1697292 3566515
-0.098159939 -0.11337984 1.1727041 3369389
0.12480386 -0.11396155 1.1738496 3763639
0.12808882 -0.11298723 1.1689148 3763639
-0.10496661 -0.099523686 1.171011 3435181
-0.099544659 -0.10324035 1.1741315 3435438
0.12545319 -0.10287529 1.1739303 3895737
0.13035391 -0.102715 1.1686751 3764149
-0.1044452 -0.093056217 1.1721226 3435438
-0.099009022 -0.09372361 1.1760916 3501231
0.12545659 -0.097251669 1.1739764 3961530
0.13075386 -0.093231142 1.1687467 3961528
0.13789785 -0.089833945 1.1658353 3895735
-0.10414854 -0.083809882 1.172794 3501489
-0.099834397 -0.083613515 1.1756088 3501490
0.12546746 -0.079256088 1.1741244 4159679
0.13109881 -0.08389619 1.1692672 3962041
0.13789921 -0.087599739 1.1658536 3895735
-0.10462925 -0.076460257 1.171862 3501747
-0.099776164 -0.073294416 1.1744769 3567541
0.12472157 -0.072882295 1.1741889 4225473
0.12834984 -0.073353343 1.1701256 4159424
-0.098013341 -0.063134879 1.1734651 3764919
0.12447701 -0.064009361 1.1742657 4422597
0.12835594 -0.063265115 1.1702086 4357059
-0.097517624 -0.053361431 1.1733661 3896505
-0.092692256 -0.053284552 1.177861 3962298
0.12435849 -0.053386912 1.174355 4685767
0.12836203 -0.053176884 1.1702914 4422851
-0.096080586 -0.044221327 1.1715891 4027836
-0.090980291 -0.042502988 1.1768309 4028094
0.12245592 -0.042775191 1.1723551 4948684
0.12827423 -0.044633903 1.1673627 4751818
-0.094405144 -0.036103334 1.1700287 4093632
-0.088737696 -0.032704338 1.1758122 4094399
0.11574912 -0.032387994 1.1746669 5080784
0.11998329 -0.033417679 1.1697892 5211343
-0.085508421 -0.024251327 1.1743468 4094402
-0.078936368 -0.02121231 1.1769025 4226244
-0.072428793 -0.01955238 1.1778113 4620744
-0.018446583 -0.018453121 1.1769485 5412064
0.0040457221 -0.018463716 1.1765853 6463211
0.012114171 -0.022304833 1.1764234 6397929
0.021800872 -0.021668673 1.1762722 6397929
0.03103571 -0.019761853 1.1761388 6003432
0.11271065 -0.023087248 1.172292 5081042
0.11783037 -0.026149474 1.1666832 5081041
-0.077654734 -0.013358966 1.1718122 4160963
-0.069493145 -0.012469955 1.1769649 4752075
-0.054428827 -0.0094383582 1.1776038 4949201
-0.047681477 -0.010003902 1.1774902 5016022
-0.038112741 -0.011122577 1.1766597 5213659
-0.028292943 -0.012026697 1.1759294 5411552
-0.018441621 -0.012816817 1.1761947 5740773
-0.0083216485 -0.012834266 1.1768312 6003172
0.0017922912 -0.012832716 1.1762679 6331366
0.011847295 -0.012790546 1.1735054 6989552
0.021954527 -0.012802795 1.1737422 6792432
0.032029197 -0.012794673 1.1729294 5937640
0.040553071 -0.011902317 1.1750495 5806054
0.051284317 -0.010612935 1.175887 5674725
0.058032684 -0.0094913915 1.1757873 5674983
0.10385923 -0.012043633 1.1750263 5146841
0.10978313 -0.014061466 1.1691988 5080789
-0.074280307 -0.0048338696 1.169961 4554184
-0.070784912 -0.0040337741 1.1729115 4751049
-0.0554852 -0.0037977993 1.1756669 4818129
-0.048056241 -0.0037924424 1.1747469 5015507
-0.038571797 -0.0037552491 1.1711935 5147609
-0.028486103 -0.003744863 1.1697304 5346018
-0.018804584 -0.0041531548 1.1721822 5937898
-0.0083535016 -0.004906334 1.1722295 6462952
0.0020877412 -0.0041562468 1.1711781 8303605
0.011444204 -0.0042553172 1.1700101 8501495
0.021286771 -0.0052312464 1.1690298 7252467
0.032608315 -0.0047007501 1.1696907 6069484
0.04177019 -0.0036245584 1.170413 6135528
0.051930994 -0.0040385127 1.173342 5741031
0.061345216 -0.0038601533 1.1747799 5543655
0.07084018 -0.0025760457 1.1756374 5477092
0.080904856 -0.0012541935 1.1754857 5739747
0.092275798 -0.0015095025 1.1753 5280481
0.10143395 -0.0041086674 1.1714377 5015513
0.10688385 -0.0060642809 1.1690255 4949463
-0.067574263 0.001865603 1.1699078 4818122
-0.058141243 0.0028541237 1.1697636 5147606
-0.049453031 0.0035947561 1.1696293 4818639
-0.040766347 0.0018529594 1.1694747 5344472
0.0039138822 0.0023904443 1.1687577 12971007
0.0083815334 0.0018297732 1.1686809 12905215
0.032955468 0.0018181801 1.1682839 5807584
0.046359435 0.001811862 1.1680675 6004710
0.052423712 0.0027665272 1.1679773 5807083
0.061250523 0.0052207261 1.1699886 5477863
0.069794185 0.0047604665 1.1723807 5542628
0.081656396 0.0017447099 1.1754982 5673698
0.092201039 0.0037108064 1.1738439 5804766
0.097741306 0.0017876327 1.1672375 5147865
0.064238138 0.012974486 1.1678705 5412324
-0.0050186291 -0.19911861 1.1792459 3039650
0.0014291191 -0.19976652 1.1791365 3039650
-0.025325488 -0.19120932 1.179639 2842271
-0.018554945 -0.19121252 1.1795297 2973857
-0.008211242 -0.19231921 1.1806169 2973857
0.0015589986 -0.194087 1.1817079 3039395
0.012206659 -0.19215132 1.1808032 3171237
0.021501295 -0.19073167 1.1799536 3237030
0.031853702 -0.19018999 1.1802627 3302569
0.040188361 -0.19033343 1.1799217 3237546
-0.044985984 -0.18072081 1.1800427 2908065
-0.037410002 -0.18169169 1.1799124 2973857
-0.028713927 -0.18346781 1.1807575 2973857
-0.018951781 -0.18538269 1.181702 2973858
-0.010630259 -0.18623118 1.1834433 3105444
0.021072268 -0.18624613 1.1829312 3237030
0.032772921 -0.18474185 1.1827546 3302825
0.041698836 -0.18428841 1.1823064 3171754
0.051527347 -0.18479744 1.180451 3171752
0.061860505 -0.18437402 1.1796993 3171753
0.070292473 -0.18125694 1.1791769 3237546
0.078497037 -0.17884441 1.1780641 3303592
-0.056157034 -0.17125735 1.1803011 2908579
-0.047933314 -0.17344759 1.1821505 2908579
-0.038086042 -0.17492965 1.1828885 3105444
-0.029419582 -0.17671064 1.183825 3105443
0.065234832 -0.17720821 1.1822923 3303339
0.073247127 -0.17492762 1.1808482 3303082
0.081610337 -0.17280588 1.1786351 3237545
0.087529883 -0.1698204 1.1779925 3303850
-0.065177619 -0.15996777 1.1805396 3302822
-0.058532234 -0.16429482 1.182647 3040165
-0.051379699 -0.16809446 1.1842505 3040167
0.076562636 -0.16815481 1.182184 3303598
0.082611814 -0.16415489 1.1811779 3238061
0.091145262 -0.1620805 1.1791091 3303596
0.098820269 -0.15966892 1.1778938 3369131
-0.074950919 -0.14943019 1.1807841 3171751
-0.068505496 -0.15307786 1.182062 3368615
-0.061562952 -0.15676624 1.1845082 3171751
0.10066298 -0.15310711 1.1794182 3369134
-0.076921389 -0.1423759 1.180874 3369130
-0.070755973 -0.14436348 1.1837585 3434922
0.10181957 -0.14345515 1.1810267 3435183
-0.078619763 -0.13378772 1.1823056 3434923
0.10457823 -0.13636291 1.181193 3501232
0.11132996 -0.13322867 1.1804979 3435694
0.11802052 -0.13146463 1.1778157 3501232
-0.086840048 -0.12263765 1.1821966 3369646
-0.081097573 -0.12640806 1.1837398 3435182
0.11508526 -0.12401162 1.1819251 3567282
0.11915527 -0.12346099 1.1796817 3567027
-0.095238686 -0.10992193 1.1814368 3501231
-0.090612248 -0.11387729 1.1840799 3435439
0.11509006 -0.11608522 1.1819901 3829686
0.12016693 -0.11326029 1.1801534 3829431
-0.095236644 -0.10653633 1.1814646 3501231
-0.090821669 -0.1033119 1.1830868 3567024
0.12248698 -0.10388514 1.1806375 3830201
-0.095228121 -0.092429668 1.1815805 3632818
-0.091967151 -0.093168095 1.1835221 3698612
0.12460001 -0.093270227 1.180024 3896507
-0.095222324 -0.082837135 1.1816593 3633333
-0.091332778 -0.083057776 1.1843951 3764919
0.12443367 -0.083057813 1.1796106 4093886
-0.095668375 -0.074034363 1.181739 3633334
-0.091578752 -0.073129095 1.1848809 3830201
0.12144776 -0.073437795 1.1804603 4291523
-0.091173962 -0.062814847 1.1834255 3896506
0.12095445 -0.062948145 1.1799322 4619975
-0.087887645 -0.053266019 1.1834987 4028348
0.11512905 -0.051541694 1.1825205 5146320
0.11953956 -0.053756434 1.1814309 4883148
-0.086187422 -0.043840162 1.18212 3962814
-0.081165045 -0.042504657 1.1846217 3963072
0.11411816 -0.042701811 1.1811093 5146577
0.11784773 -0.044309463 1.1790355 5080527
-0.084811762 -0.03476651 1.1818867 4028607
-0.078598276 -0.03304024 1.1839342 4291526
-0.02865224 -0.031091712 1.1850107 5147865
-0.021179359 -0.030868769 1.1848918 5344731
-0.0048746578 -0.029970579 1.1846359 5345501
0.0019187406 -0.029973783 1.1845261 5739743
0.012074536 -0.032199286 1.1830103 5936862
0.021133969 -0.032214552 1.1831973 5871068
0.031356119 -0.031120002 1.1840414 5739228
0.049472537 -0.029996209 1.183758 5213656
0.11224572 -0.033818446 1.1811126 4949970
-0.076850802 -0.025572725 1.1818337 4422856
-0.068387181 -0.020829335 1.1835545 4686797
-0.058014791 -0.019707531 1.1835781 4884690
-0.047596369 -0.021163054 1.1848981 4950486
-0.037156079 -0.021920174 1.1838899 5213659
-0.028618325 -0.023080379 1.1818755 5279707
-0.018452927 -0.024225742 1.182102 5345244
-0.0082894322 -0.022597559 1.1818624 5411808
0.001564851 -0.023714319 1.181492 5806052
0.01088343 -0.026836678 1.1804066 6068964
0.022919727 -0.027218528 1.180209 6068963
0.032971829 -0.024850205 1.1809894 6003173
0.041442756 -0.023142964 1.1817437 5608417
0.051651597 -0.023161992 1.1821789 5411038
0.058534503 -0.02320642 1.1836675 5279709
0.10320714 -0.021463193 1.1820372 5212630
0.1088222 -0.025042139 1.1801733 5015248
-0.064713955 -0.01513952 1.1817236 4949712
-0.057943407 -0.015142709 1.1816143 4949713
-0.047787581 -0.0151475 1.1814502 5016279
-0.03838427 -0.015528105 1.1812952 5213659
-0.029733472 -0.01628454 1.1811492 5345501
0.043050222 -0.015754603 1.1799783 5871590
0.05151375 -0.015194334 1.1798463 5871847
0.061803322 -0.012983039 1.1816986 5543139
0.06909325 -0.011859745 1.1818758 5280225
0.093640581 -0.011899561 1.1831937 5411294
0.099459574 -0.013294846 1.1805423 5279196
0.071266286 -0.0067396462 1.1795968 5411556
0.080858916 -0.005051367 1.1794558 5412066
0.092143163 -0.0050566867 1.1792735 5477344
0.098912328 -0.0073169544 1.1791456 5213404
0.0026442716 -0.18954609 1.1872023 3105189
-0.01770284 -0.18107936 1.1886008 3039906
-0.0079974234 -0.18322191 1.1888551 3039908
0.0015660189 -0.18440309 1.1905959 3105447
0.012132706 -0.18361011 1.1878481 3105702
0.021203976 -0.1823592 1.1869618 3171750
0.030189291 -0.1819503 1.18682 3237289
0.041654106 -0.18009655 1.1866502 3237548
0.05187849 -0.18010136 1.1864849 3171752
0.060966831 -0.18010566 1.1863382 3171752
-0.045360405 -0.1696029 1.1881416 3039909
-0.037497871 -0.17034516 1.1888976 3105701
-0.029317312 -0.17301236 1.1904004 3105443
-0.019698944 -0.17842245 1.1916553 3040163
0.01107759 -0.17752498 1.1911657 3105960
0.022476776 -0.17641574 1.1909907 3105958
0.03156149 -0.17490205 1.1900563 3237545
0.041941434 -0.17383699 1.1888026 3237547
0.051975343 -0.17352466 1.1881378 3237544
0.062039811 -0.17330287 1.1880612 3237545
0.070676088 -0.17131045 1.1869205 3303339
-0.056601521 -0.16016753 1.1884007 3172009
-0.048143033 -0.16335544 1.1906383 3105961
-0.038783707 -0.16558889 1.1920691 3171752
0.045279462 -0.16705349 1.1906995 3303337
0.05211857 -0.16705671 1.1905891 3303593
0.062214989 -0.16608436 1.190434 3303594
0.071402803 -0.16346374 1.189057 3303596
0.078180745 -0.16193533 1.1862097 3238062
-0.063980654 -0.15164292 1.18859 3434409
-0.058195252 -0.15343177 1.1913059 3237547
-0.049839545 -0.15581627 1.192328 3237805
0.072389171 -0.15617329 1.1903512 3238318
0.081668809 -0.1532356 1.1891054 3238572
0.091764852 -0.1530121 1.187264 3434926
0.09824577 -0.15240112 1.1859641 3369134
-0.066295967 -0.14262009 1.1899326 3435179
-0.060316715 -0.14465241 1.1921445 3369388
0.08632651 -0.14655352 1.1902053 3500977
0.091933668 -0.14300901 1.1891438 3435186
0.09734261 -0.14300849 1.186056 3500720
-0.074807808 -0.13187194 1.1899277 3566511
-0.069080859 -0.13476731 1.1914784 3566767
-0.061848629 -0.13736394 1.1926737 3500977
0.093410209 -0.13538098 1.1896827 3501234
0.10125543 -0.13292037 1.1868259 3501490
-0.084409505 -0.11868487 1.1891911 3566770
-0.077610686 -0.12329271 1.1916438 3632306
-0.070961937 -0.12823994 1.1928959 3632563
0.10309193 -0.12427236 1.1887059 3699127
0.11050144 -0.12297134 1.186479 3633076
-0.085598379 -0.11310415 1.1902564 3566770
-0.079546094 -0.11403023 1.1931515 3763892
0.10401314 -0.11521291 1.1901776 3633335
0.11065145 -0.11300159 1.1876438 3764407
-0.085695028 -0.10303885 1.1921411 3698868
-0.0813324 -0.10366255 1.1932656 3699126
0.10459031 -0.10324359 1.1902667 3962811
0.11111039 -0.10332549 1.1889939 3830969
0.11878899 -0.10352381 1.1860344 3830714
-0.086892784 -0.093067095 1.1903652 3699126
-0.08157967 -0.093656108 1.193352 3830712
0.1118245 -0.093390405 1.1896309 4028606
0.11993113 -0.093461275 1.1860988 3962300
-0.086295918 -0.083587646 1.1911106 3830970
-0.081356287 -0.083287999 1.1934336 3962813
0.11211134 -0.08433719 1.1903008 4291522
0.11993381 -0.083898306 1.1865412 4094399
-0.086589456 -0.073519722 1.1913124 3962044
-0.081676245 -0.073842451 1.1935165 4093630
0.11369735 -0.073591456 1.1900969 4554438
0.11848207 -0.074308306 1.1862798 4357059
-0.085965812 -0.063473463 1.191004 4093886
-0.081343889 -0.062768683 1.1936022 4291009
0.11186132 -0.063041165 1.1895909 4686026
0.11783966 -0.063108787 1.1863823 4685769
-0.084371731 -0.056196518 1.1897045 4159935
-0.07932286 -0.053753886 1.1925007 4225985
0.10462062 -0.05308529 1.1906788 5015248
0.11066341 -0.054340571 1.1879039 5014991
-0.076313123 -0.043931238 1.1917933 4292037
-0.070912331 -0.046162736 1.1935704 4619977
-0.048111174 -0.039333723 1.1932584 5279449
-0.040132221 -0.03933749 1.1931295 5016538
-0.027594544 -0.040483359 1.1929176 4950743
-0.018074438 -0.04216427 1.19275 4950488
-0.0089778937 -0.042012092 1.1926044 5147351
0.0014713183 -0.041067053 1.1924434 5278422
0.012023237 -0.043379199 1.191365 5212886
0.021360418 -0.042713899 1.1903584 5278423
0.031340789 -0.041885369 1.1907041 5147094
0.042260967 -0.042307671 1.1917745 4885460
0.05173609 -0.040802155 1.1909065 4950741
0.060858048 -0.040297087 1.1914908 5016279
0.10311428 -0.04321989 1.1893841 5212370
0.11046672 -0.044358801 1.1866556 5212369
-0.074229121 -0.036964096 1.1916994 4423370
-0.072160587 -0.033766843 1.1912922 4554187
-0.047645848 -0.03430932 1.1930255 5147610
-0.037816104 -0.033570439 1.1911392 5081818
-0.028712474 -0.035849411 1.1909735 5016538
-0.017559867 -0.034419179 1.1909385 5278938
-0.0084543992 -0.033817023 1.1907964 5344730
0.0019967053 -0.034691617 1.1895536 5673948
0.012203526 -0.036927473 1.1883036 5805277
0.021291863 -0.036931761 1.1881567 5541848
0.031516932 -0.035800409 1.1880009 5475544
0.041742679 -0.033532947 1.1878545 5213397
0.052407276 -0.034166783 1.188383 5082070
0.062124975 -0.03340362 1.1899267 5016536
0.07108961 -0.031247348 1.1913999 5213915
0.081837371 -0.030275315 1.1912345 5279453
0.092779666 -0.030736454 1.1910539 5213659
0.10218818 -0.033647448 1.1892778 5212628
0.10876918 -0.03356456 1.1867719 5146833
-0.071858108 -0.027798615 1.1897361 4554443
-0.046636868 -0.025992669 1.1893437 5016281
-0.039366748 -0.026905008 1.1892188 5147611
-0.0082397405 -0.027828619 1.1887085 5411294
0.062576309 -0.023317419 1.187602 5148123
0.071300983 -0.023327738 1.1876612 5213915
0.081360504 -0.023574919 1.189036 5213917
0.092124999 -0.02351889 1.1894394 5213659
0.1000966 -0.025239035 1.1873138 5212887
0.092874885 -0.016514786 1.1871688 5279708
0.097419053 -0.016516924 1.1870954 5411037
-0.013986068 -0.17920905 1.1965574 3106213
-0.0082630031 -0.17921177 1.1964649 3105959
0.003019209 -0.1798712 1.1962773 3105706
0.013484634 -0.17922202 1.1961136 3105960
-0.024855733 -0.17233559 1.1967894 3105700
-0.017415825 -0.1735957 1.197409 3105957
-0.0082541648 -0.17360002 1.1972611 3106216
0.0020688092 -0.17373282 1.1979434 3106217
0.012706812 -0.17322108 1.1976044 3171752
0.020598589 -0.17272788 1.1971433 3303337
0.031803969 -0.17007285 1.195893 3369130
0.038671643 -0.1700761 1.1957822 3369132
-0.037444472 -0.16111976 1.1974185 3171753
-0.027733851 -0.16355962 1.1996286 3171752
