# .PCD v0.7 - Point Cloud Data file format
VERSION 0.7
FIELDS x y z rgba
SIZE 4 4 4 4
TYPE F F F U
COUNT 1 1 1 1
WIDTH 174
HEIGHT 1
VIEWPOINT 0 0 0 1 0 0 0
POINTS 174
DATA ascii
-0.32679406 -0.15206531 0.84680319 5134174
-0.320117 -0.15390977 0.84656268 5134176
-0.3271051 -0.14744963 0.84765822 4871515
-0.33573931 -0.17034373 0.85038137 4936281
-0.3254036 -0.17325707 0.84999824 5199967
-0.32052758 -0.17345282 0.85003704 5397348
-0.343692 -0.16335618 0.85125506 4673880
-0.33595642 -0.16383147 0.84933531 4870232
-0.32641265 -0.16427204 0.85013044 5068382
-0.31660208 -0.16439775 0.85081333 5068384
-0.30873108 -0.16336834 0.85209769 4476504
-0.34371132 -0.1537995 0.85164464 4607822
-0.33662099 -0.15381941 0.85039395 4673623
-0.32566586 -0.15499669 0.85034376 5134174
-0.31520599 -0.15453619 0.850591 4739419
-0.30744666 -0.15532085 0.85187262 4081746
-0.3436034 -0.1458686 0.85481924 4410445
-0.33517015 -0.14459899 0.85213393 4213839
-0.32484308 -0.14450949 0.85231006 4345429
-0.3147887 -0.14531952 0.85231435 4016211
-0.30668101 -0.14619768 0.85344976 3621193
-0.3343493 -0.13927796 0.85313785 3884109
-0.32492757 -0.13869023 0.85339272 3752784
-0.31451049 -0.13917506 0.85346323 3621192
-0.30726492 -0.1405385 0.85332108 3686459
-0.34475455 -0.18388173 0.85832953 4673626
-0.33662626 -0.18458381 0.85543466 4870741
-0.32751906 -0.18613166 0.85547459 5265754
-0.31742892 -0.18588454 0.85594833 5397604
-0.30883375 -0.18408012 0.85942847 4608350
-0.34533957 -0.17426586 0.8561151 4673629
-0.33700001 -0.17571804 0.85376912 4870744
-0.32860997 -0.17753673 0.85322076 5134174
-0.3162061 -0.17619011 0.85432655 5397606
-0.30795568 -0.17651436 0.85863173 4476760
-0.30157444 -0.17319292 0.86156857 4015442
-0.35202777 -0.16668731 0.8620016 3883351
-0.34846804 -0.16586189 0.85692018 4475995
-0.31501794 -0.16970038 0.85489035 5068641
-0.30576384 -0.16731285 0.85756612 4082513
-0.29982942 -0.16724341 0.86219513 3752531
-0.34926873 -0.15577579 0.85756588 4079443
-0.30341351 -0.15834463 0.85871083 3621705
-0.29903328 -0.16142267 0.86135876 3751503
-0.30469605 -0.15055767 0.85861558 3490378
-0.33413914 -0.20442638 0.86643809 5002588
-0.33094266 -0.20457515 0.86645973 5528419
-0.34436718 -0.19450335 0.86812872 4739163
-0.33720484 -0.1971228 0.86475587 5002333
-0.32772917 -0.19785465 0.86470932 5397092
-0.31845719 -0.196539 0.86647815 5332066
-0.31240255 -0.19599104 0.86834502 4740695
-0.3455357 -0.18956736 0.86368924 4082256
-0.33861476 -0.19070275 0.86180425 5068120
-0.3157331 -0.19161312 0.86402255 5200736
-0.30741024 -0.18908446 0.86679542 4345175
-0.30027038 -0.18793763 0.86945117 4278096
-0.30425671 -0.17929223 0.86533219 4147028
-0.29952696 -0.18072574 0.86929291 3819087
-0.29932621 -0.17264104 0.86699611 3687502
-0.32765567 -0.21848622 0.87510967 5528423
-0.32332793 -0.21815765 0.8752377 5397348
-0.33752877 -0.20930448 0.87124193 4804702
-0.32805443 -0.20984054 0.87069857 5462626
-0.3186686 -0.2101211 0.87341559 5003105
-0.31044197 -0.20717946 0.87504011 4804440
-0.34625742 -0.19923723 0.87433898 3817824
-0.34040177 -0.2024577 0.86976016 4673622
-0.32437658 -0.20320353 0.86986858 5660265
-0.31692618 -0.20201939 0.87020421 5069150
-0.30780503 -0.20004255 0.8727479 4475986
-0.30217659 -0.19608334 0.87357229 4014924
-0.30467093 -0.19359589 0.87196249 4606547
-0.29884094 -0.1915648 0.87293953 3620428
-0.33460683 -0.22616868 0.88069248 4079956
-0.32801917 -0.227025 0.87830937 5266270
-0.32218087 -0.22728026 0.88067722 5002845
-0.33717659 -0.21960978 0.87984002 4079963
-0.32965651 -0.22214781 0.87744868 5330781
-0.31906757 -0.2207568 0.87954682 5002331
-0.31548283 -0.21473029 0.87904924 5001816
-0.31120327 -0.21234407 0.88078058 4540755
-0.30642021 -0.205587 0.88089234 4213074
-0.32925218 -0.2391091 0.89057249 5265766
-0.33030301 -0.23412882 0.88857734 5068639
-0.32152531 -0.2328198 0.88847226 4214103
-0.33811456 -0.22664322 0.8846193 1580089
-0.31687748 -0.22595286 0.88575393 4145996
-0.31387487 -0.22027938 0.88617891 4212054
-0.33576211 -0.24039316 0.89328468 3618132
-0.33032653 -0.24172674 0.89312017 5199718
-0.3236964 -0.24095473 0.89336634 4214875
-0.32815173 -0.3026253 0.89808661 528927
-0.32306576 -0.30351937 0.89799857 1517876
-0.3245694 -0.31539798 0.90797055 4419983
-0.33934462 -0.30762666 0.90715539 1651559
-0.33382115 -0.30654985 0.90424401 1782104
-0.3218064 -0.30919415 0.90179324 4154236
-0.31656131 -0.30678862 0.90620995 3028033
-0.3306604 -0.30072561 0.91060966 2369321
-0.32279912 -0.30052966 0.90710521 2040105
-0.32965994 -0.28115323 0.91020173 4146252
-0.33941567 -0.3143087 0.91608274 5077683
-0.33270091 -0.31691629 0.91434419 4617364
-0.32330173 -0.31772518 0.91433865 4549258
-0.31772968 -0.31218916 0.91274309 6582660
-0.33987477 -0.30227381 0.91424829 7695014
-0.3320303 -0.29908198 0.91564214 2040625
-0.32387143 -0.29813206 0.91526687 2172202
-0.31732824 -0.30332315 0.91440088 2760198
-0.33453894 -0.32756943 0.92182636 4683677
-0.3288452 -0.3278344 0.92186487 3831442
-0.34183523 -0.32023844 0.92191672 3299734
-0.33487058 -0.32247746 0.92018026 4683420
-0.32634422 -0.32354164 0.92107546 3960460
-0.34486297 -0.40115011 0.92118543 3829135
-0.336721 -0.40105483 0.9213289 4223637
-0.330522 -0.40178517 0.92128855 3960467
-0.34526062 -0.39190248 0.92290199 3498881
-0.3368175 -0.39177144 0.9226498 3895695
-0.32892066 -0.39090246 0.9233405 3631246
-0.34460515 -0.3803727 0.92200792 3499128
-0.33740216 -0.38149726 0.92190963 4025235
-0.32859394 -0.38130906 0.92396998 3499655
-0.34355083 -0.37082365 0.92176837 3826560
-0.33682883 -0.37127292 0.92229712 4156303
-0.32893321 -0.37264091 0.92470747 3630985
-0.34293261 -0.36204028 0.92646605 3893387
-0.33630475 -0.36175355 0.92503929 4157333
-0.32896969 -0.36197653 0.92720211 3762828
-0.34088978 -0.35416001 0.93000013 3762325
-0.33502787 -0.35123217 0.92690593 4420507
-0.32886109 -0.35211304 0.92921072 3828877
-0.34142604 -0.34052688 0.93253148 4222878
-0.33427948 -0.34198159 0.92857283 4552347
-0.3281571 -0.3432152 0.9314217 3631755
-0.34273702 -0.33164912 0.92846805 3627913
-0.33414584 -0.3333559 0.92618018 4683676
-0.32697967 -0.33296272 0.92935443 3892613
-0.32562995 -0.32465947 0.92759252 3563127
-0.34698927 -0.41173327 0.92470384 3033484
-0.33874762 -0.413533 0.92693228 2897991
-0.32864207 -0.41312319 0.9266659 3891064
-0.32109436 -0.41303876 0.92849368 2638186
-0.35058722 -0.40235615 0.92494178 666715
-0.33979791 -0.40506881 0.92460299 4813457
-0.32609659 -0.40280521 0.92523617 3499654
-0.31898147 -0.40369898 0.92892754 3561592
-0.35074046 -0.3911339 0.92702991 6722
-0.32580376 -0.39343226 0.92698669 3694979
-0.31926095 -0.39385647 0.92904329 3233144
-0.32376623 -0.38328725 0.92890799 3104639
-0.31913677 -0.38407719 0.93206924 2640231
-0.32402736 -0.37371787 0.93068653 2907007
-0.31974822 -0.37487555 0.93516111 3099492
-0.34588778 -0.36064017 0.93278521 4089741
-0.32400486 -0.36435232 0.93279481 3496061
-0.31971791 -0.36430395 0.93759328 4278874
-0.34321812 -0.35280007 0.93428689 2972810
-0.32422027 -0.35434234 0.93568009 3757171
-0.32051626 -0.35626963 0.93907762 3748927
-0.34180617 -0.34717697 0.93535614 3630740
-0.32327616 -0.34690163 0.9356935 3953004
-0.33974141 -0.42058212 0.93086988 984897
-0.32909751 -0.41725683 0.93165362 4350584
-0.31775302 -0.3942855 0.93678606 4674411
-0.31747165 -0.38634408 0.94064355 6974583
-0.31872943 -0.37537044 0.94266832 3815753
-0.34995031 -0.36279708 0.94147652 5799072
-0.3174248 -0.36545706 0.94148314 5064001
-0.31809339 -0.40241987 0.9478125 7039097
-0.31812534 -0.39690962 0.94985574 7565430
-0.31842744 -0.38830388 0.95111507 8223350
-0.31827071 -0.37931848 0.94804388 9076613
