# .PCD v0.7 - Point Cloud Data file format
VERSION 0.7
FIELDS x y z rgba
SIZE 4 4 4 4
TYPE F F F U
COUNT 1 1 1 1
WIDTH 174
HEIGHT 1
VIEWPOINT 0 0 0 1 0 0 0
POINTS 174
DATA ascii
-0.26918185 -0.21904349 0.84252542 5134174
-0.26268083 -0.22137651 0.84194511 5134176
-0.26911205 -0.21461841 0.84412104 4871515
-0.27964965 -0.23684698 0.84314388 4936281
-0.26959121 -0.24051382 0.84222543 5199967
-0.26474905 -0.24112056 0.84220028 5397348
-0.28699636 -0.22945362 0.84519291 4673880
-0.27931395 -0.23025626 0.84317136 4870232
-0.26984644 -0.23161712 0.84382236 5068382
-0.26008588 -0.23267254 0.84441215 5068384
-0.25216588 -0.2325277 0.84579563 4476504
-0.28621939 -0.22011955 0.8471303 4607822
-0.2791467 -0.22052918 0.84584707 4673623
-0.26832828 -0.22259513 0.84553522 5134174
-0.25786862 -0.22305773 0.84578615 4739419
-0.25021151 -0.22468662 0.84687293 4081746
-0.28547168 -0.21284696 0.85155064 4410445
-0.27694261 -0.21186809 0.84905273 4213839
-0.26664576 -0.2126728 0.84917408 4345429
-0.25669461 -0.21431114 0.8489815 4016211
-0.24869715 -0.21603736 0.84990656 3621193
-0.27568701 -0.20686844 0.85090256 3884109
-0.26625121 -0.20712034 0.85118848 3752784
-0.25591195 -0.20848006 0.85111171 3621192
-0.24880491 -0.21040371 0.85070294 3686459
-0.2898224 -0.25069398 0.84884489 4673626
-0.2817606 -0.25159404 0.84582174 4870741
-0.27281523 -0.25388429 0.8455506 5265754
-0.26274344 -0.25456256 0.84599274 5397604
-0.25405285 -0.25407308 0.84966397 4608350
-0.28958538 -0.24083132 0.84822619 4673629
-0.2813797 -0.24257568 0.84562141 4870744
-0.27316737 -0.24497665 0.84473044 5134174
-0.26070264 -0.24487022 0.8459599 5397606
-0.25253955 -0.24657875 0.85010153 4476760
-0.24592431 -0.24432428 0.85349768 4015442
-0.29565886 -0.23377709 0.85530919 3883351
-0.29200599 -0.23243789 0.85040641 4475995
-0.25898015 -0.23868078 0.84756297 5068641
-0.24957839 -0.23754245 0.8505311 4082513
-0.24369255 -0.23872276 0.85507131 3752531
-0.29196522 -0.22255954 0.8526876 4079443
-0.24649477 -0.22910787 0.85310256 3621705
-0.24240649 -0.23293076 0.85518676 3751503
-0.24712104 -0.22132924 0.85428226 3490378
-0.28102076 -0.2730982 0.85343832 5002588
-0.27784815 -0.27351543 0.85341477 5528419
-0.29039526 -0.26276112 0.85678512 4739163
-0.28345284 -0.26538777 0.85298514 5002333
-0.27407143 -0.26689261 0.85275882 5397092
-0.26473492 -0.26666224 0.85465783 5332066
-0.25866932 -0.26693341 0.85654956 4740695
-0.29111487 -0.25708926 0.85321438 4082256
-0.28429967 -0.25847834 0.85112518 5068120
-0.26159087 -0.2616483 0.85301763 5200736
-0.25310597 -0.2603091 0.85611051 4345175
-0.24591459 -0.26021045 0.85887098 4278096
-0.24913427 -0.25070789 0.85623753 4147028
-0.24456966 -0.25315648 0.85988188 3819087
-0.24367708 -0.24485156 0.85892802 3687502
-0.27579832 -0.28887254 0.85966784 5528423
-0.27145931 -0.28893241 0.85981947 5397348
-0.28484094 -0.27839097 0.85740757 4804702
-0.27544096 -0.27962247 0.85672289 5462626
-0.26613131 -0.28112501 0.85929728 5003105
-0.25769949 -0.27918515 0.86132479 4804440
-0.29271945 -0.26826605 0.8621558 3817824
-0.28712067 -0.27117836 0.85707664 4673622
-0.27121517 -0.2732701 0.85695857 5660265
-0.26369444 -0.27278382 0.8574338 5069150
-0.25445858 -0.27201667 0.86020571 4475986
-0.24852492 -0.268729 0.86162603 4014924
-0.25079083 -0.2658132 0.86045802 4606547
-0.24481866 -0.26446286 0.86171424 3620428
-0.2834076 -0.29675102 0.86397302 4079956
-0.27689758 -0.29775694 0.86143982 5266270
-0.27111831 -0.29888111 0.86369681 5002845
-0.28541377 -0.28994906 0.8642143 4079963
-0.27811515 -0.29268506 0.86139369 5330781
-0.2674624 -0.29254431 0.86362129 5002331
-0.26338285 -0.28683841 0.86408633 5001816
-0.25893134 -0.28513169 0.86615461 4540755
-0.25360101 -0.27890679 0.86733186 4213074
-0.27922514 -0.31152669 0.87158412 5265766
-0.27984145 -0.30621821 0.8704316 5068639
-0.27098453 -0.3056486 0.8704837 4214103
-0.286971 -0.29756203 0.8677932 1580089
-0.26575932 -0.29884455 0.86888719 4145996
-0.26229599 -0.29358688 0.87020898 4212054
-0.28583908 -0.31268504 0.87409371 3618132
-0.28053296 -0.31442425 0.87367946 5199718
-0.27386346 -0.31425998 0.87400484 4214875
-0.28349349 -0.37528616 0.86867023 528927
-0.27849957 -0.37657642 0.8684051 1517876
-0.28106308 -0.38974923 0.87632388 4419983
-0.29513055 -0.38074011 0.8768782 1651559
-0.2895155 -0.37967059 0.87414467 1782104
-0.27774653 -0.3828775 0.87121898 4154236
-0.2723507 -0.3816689 0.87593371 3028033
-0.28592491 -0.37524307 0.88135153 2369321
-0.27804965 -0.37513882 0.87787455 2040105
-0.28328857 -0.35601768 0.88412291 4146252
-0.2958245 -0.38875404 0.88460129 5077683
-0.28933889 -0.39159709 0.88241875 4617364
-0.28004047 -0.39317787 0.8822208 4549258
-0.27401367 -0.38794208 0.88150996 6582660
-0.29526249 -0.37658533 0.88474983 7695014
-0.28718889 -0.37433007 0.88659298 2040625
-0.27897665 -0.37401783 0.88632411 2172202
-0.27288434 -0.37952831 0.88458371 2760198
-0.29211518 -0.40313259 0.88808215 4683677
-0.28646398 -0.40387577 0.88804018 3831442
-0.29877344 -0.39532927 0.88940978 3299734
-0.29200804 -0.3978312 0.8872875 4683420
-0.28360718 -0.39973632 0.88794255 3960460
-0.3085503 -0.47450632 0.87556046 3829135
-0.30043012 -0.47511721 0.87566465 4223637
-0.29431376 -0.47634733 0.87546599 3960467
-0.30818576 -0.46566001 0.87875938 3498881
-0.29975963 -0.46619666 0.8784771 3895695
-0.291823 -0.46611524 0.87924856 3631246
-0.30656213 -0.45423397 0.87974644 3499128
-0.29947785 -0.4559263 0.87942004 4025235
-0.29069984 -0.45681298 0.88142639 3499655
-0.30471137 -0.44489503 0.88105488 3826560
-0.29805446 -0.44598508 0.88146001 4156303
-0.29031849 -0.44838226 0.88356477 3630985
-0.30339488 -0.43707448 0.88711327 3893387
-0.29675612 -0.43711534 0.88570911 4157333
-0.28948119 -0.43829966 0.88775933 3762828
-0.30072591 -0.43007198 0.89186752 3762325
-0.29461753 -0.42718121 0.88925225 4420507
-0.2885628 -0.42893767 0.8913433 3828877
-0.30013868 -0.41703478 0.89658391 4222878
-0.29311037 -0.41841981 0.89239526 4552347
-0.28713328 -0.42060775 0.89496601 3631755
-0.30067343 -0.40753666 0.89402562 3627913
-0.29223871 -0.40956187 0.89143521 4683676
-0.28508788 -0.4102906 0.8945846 3892613
-0.28303593 -0.40195388 0.89418662 3563127
-0.31157941 -0.48530495 0.87732613 3033484
-0.30353338 -0.48812598 0.87917894 2897991
-0.29342726 -0.48852533 0.87891722 3891064
-0.28591233 -0.48937082 0.88068545 2638186
-0.31438231 -0.47582334 0.87910789 666715
-0.30385545 -0.47933805 0.87826288 4813457
-0.29001778 -0.47836182 0.8791666 3499654
-0.28302914 -0.48043558 0.88261747 3561592
-0.31361181 -0.4651165 0.88299274 6722
-0.28895491 -0.46945563 0.88241494 3694979
-0.28248551 -0.47075421 0.8843329 3233144
-0.28609022 -0.45996404 0.88594598 3104639
-0.28156596 -0.46164161 0.88890672 2640231
-0.28556317 -0.45082289 0.88925749 2907007
-0.28142822 -0.45304608 0.89345664 3099492
-0.30626822 -0.43647727 0.89359498 4089741
-0.2847729 -0.44195947 0.8928594 3496061
-0.2805317 -0.44305015 0.89757401 4278874
-0.30296329 -0.42923653 0.89633328 2972810
-0.28417146 -0.43256876 0.89733416 3757171
-0.2806662 -0.43532547 0.90034926 3748927
-0.30109388 -0.42399997 0.8982929 3630740
-0.28260866 -0.42533451 0.89855033 3953004
-0.30514148 -0.49561298 0.88192517 984897
-0.29426274 -0.49336159 0.88316983 4350584
-0.28107467 -0.47256011 0.89189309 4674411
-0.28015819 -0.46540266 0.8969878 6974583
-0.28050861 -0.4548375 0.90077686 3815753
-0.31055951 -0.43966994 0.90184647 5799072
-0.27837119 -0.44500765 0.90120983 5064001
-0.2821736 -0.48232037 0.90145314 7039097
-0.28175947 -0.47723222 0.90436476 7565430
-0.28135008 -0.46895069 0.90700769 8223350
-0.28042045 -0.45963073 0.9054364 9076613
