# .PCD v0.7 - Point Cloud Data file format
VERSION 0.7
FIELDS x y z rgba
SIZE 4 4 4 4
TYPE F F F U
COUNT 1 1 1 1
WIDTH 174
HEIGHT 1
VIEWPOINT 0 0 0 1 0 0 0
POINTS 174
DATA ascii
-0.22798416 -0.23035702 0.84792441 5134174
-0.22194958 -0.23300076 0.84577096 5134176
-0.2272114 -0.22621676 0.85002041 4871515
-0.23972753 -0.2473519 0.84835988 4936281
-0.23039985 -0.25149584 0.8450008 5199967
-0.22572514 -0.25240555 0.84393543 5397348
-0.2458505 -0.23986305 0.85274857 4673880
-0.23879279 -0.24086741 0.84915268 4870232
-0.22953665 -0.24291775 0.84772795 5068382
-0.21997768 -0.24467668 0.84622401 5068384
-0.21195929 -0.24524321 0.84600955 4476504
-0.24387395 -0.23096809 0.85565627 4607822
-0.23723739 -0.23164937 0.85294896 4673623
-0.22690618 -0.23434722 0.8502304 5134174
-0.21667336 -0.2355179 0.84833288 4739419
-0.2091298 -0.23777738 0.84765822 4081746
-0.24164601 -0.22445947 0.86072212 4410445
-0.2336877 -0.22369143 0.85671991 4213839
-0.22366972 -0.22517109 0.8546856 4345429
-0.21412505 -0.22740729 0.8523097 4016211
-0.20628802 -0.22976205 0.85139781 3621193
-0.23165508 -0.21909651 0.85889941 3884109
-0.22239761 -0.21999764 0.85726637 3752784
-0.21242617 -0.2220002 0.85496092 3621192
-0.20572931 -0.22430316 0.85290521 3686459
-0.24986328 -0.26117823 0.85417581 4673626
-0.24263227 -0.26216143 0.84951872 4870741
-0.23414534 -0.26496524 0.84718436 5265754
-0.22427544 -0.26635087 0.84552258 5397604
-0.21504083 -0.2669512 0.84742147 4608350
-0.24884832 -0.25136381 0.85477388 4673629
-0.24147481 -0.25324962 0.85038799 4870744
-0.23383161 -0.25602737 0.84758323 5134174
-0.22140183 -0.25690466 0.84630924 5397606
-0.21279487 -0.25970864 0.8484925 4476760
-0.20548043 -0.25839204 0.85076034 4015442
-0.25280827 -0.24500605 0.86375803 3883351
-0.25003847 -0.24322507 0.85843545 4475995
-0.21885064 -0.25112981 0.84830636 5068641
-0.20899399 -0.25103569 0.84946233 4082513
-0.20249045 -0.25322676 0.85255313 3752531
-0.24866733 -0.23379348 0.86189264 4079443
-0.20472446 -0.24326862 0.85241318 3621705
-0.20068273 -0.24760529 0.85314119 3751503
-0.20440479 -0.23571169 0.85466743 3490378
-0.2424349 -0.28453037 0.85405529 5002588
-0.23937514 -0.28514487 0.85334784 5528419
-0.25002748 -0.27418628 0.86048096 4739163
-0.24419503 -0.2766923 0.85507369 5002333
-0.23520161 -0.27875486 0.85279536 5397092
-0.22569318 -0.27940184 0.85281056 5332066
-0.21943019 -0.2803311 0.85340673 4740695
-0.25088683 -0.26803094 0.85787112 4082256
-0.24474335 -0.26954877 0.85430807 5068120
-0.2224706 -0.27442053 0.85122418 5200736
-0.21346861 -0.27408624 0.85270941 4345175
-0.20590734 -0.27484632 0.85397232 4278096
-0.20868511 -0.26487789 0.85325533 4147028
-0.20375811 -0.26810908 0.85557842 3819087
-0.20230743 -0.25982833 0.85552335 3687502
-0.2375931 -0.30133355 0.85707533 5528423
-0.23332717 -0.3016955 0.85635102 5397348
-0.24590501 -0.29007342 0.85800433 4804702
-0.23695488 -0.29180226 0.85531139 5462626
-0.22750346 -0.29425496 0.85576934 5003105
-0.21869944 -0.29317287 0.85630566 4804440
-0.25178993 -0.28023455 0.86546719 3817824
-0.24753851 -0.28275424 0.85904831 4673622
-0.23219883 -0.28583491 0.85550171 5660265
-0.22471094 -0.28590953 0.85452729 5069150
-0.21508735 -0.28614351 0.8554787 4475986
-0.20871758 -0.28348207 0.85609281 4014924
-0.21088743 -0.28028941 0.8557775 4606547
-0.20468768 -0.27952084 0.85597968 3620428
-0.2449408 -0.30923265 0.86177868 4079956
-0.23914449 -0.31028926 0.85789335 5266270
-0.23317046 -0.3120943 0.85879368 5002845
-0.24623643 -0.30241796 0.86327231 4079963
-0.23988101 -0.3051939 0.85873199 5330781
-0.22903174 -0.3060613 0.85879308 5002331
-0.22443441 -0.30075556 0.85915375 5001816
-0.21953604 -0.2996515 0.86049289 4540755
-0.21353406 -0.29401514 0.86136222 4213074
-0.24076435 -0.32517776 0.86647463 5265766
-0.24109995 -0.31973085 0.86614829 5068639
-0.23237763 -0.3197498 0.86450708 4214103
-0.24777901 -0.31034422 0.86609817 1580089
-0.22694851 -0.31314141 0.86277503 4145996
-0.22283316 -0.30835992 0.86403435 4212054
-0.24686418 -0.32624891 0.87008417 3618132
-0.24191251 -0.32825214 0.8684051 5199718
-0.23531459 -0.3285684 0.86741388 4214875
-0.25130439 -0.3874681 0.85643458 528927
-0.24658892 -0.38902879 0.85501939 1517876
-0.24880457 -0.4029969 0.8615604 4419983
-0.26163363 -0.39326441 0.86603916 1651559
-0.25656083 -0.39218453 0.8623997 1782104
-0.24589698 -0.39570054 0.85680753 4154236
-0.23962174 -0.39552486 0.86046749 3028033
-0.25128734 -0.3890655 0.86924779 2369321
-0.24423268 -0.38898024 0.86431378 2040105
-0.24643299 -0.37063891 0.87384576 4146252
-0.26158741 -0.40223014 0.8726697 5077683
-0.25591645 -0.40514955 0.8688978 4617364
-0.24700578 -0.40728584 0.86665398 4549258
-0.24076895 -0.40240401 0.86542469 6582660
-0.25989968 -0.3902677 0.8742401 7695014
-0.25145191 -0.3888247 0.87470841 2040625
-0.24344398 -0.38901061 0.87285119 2172202
-0.23831761 -0.394602 0.86925024 2760198
-0.25861597 -0.41716686 0.87349635 4683677
-0.25316581 -0.41826141 0.87223625 3831442
-0.26416436 -0.40921542 0.8770988 3299734
-0.25817734 -0.41182458 0.87337285 4683420
-0.25001311 -0.41434392 0.8720957 3960460
-0.28355885 -0.48482764 0.85558021 3829135
-0.27565482 -0.48597229 0.85398722 4223637
-0.26982379 -0.48755577 0.85242063 3960467
-0.28179225 -0.47656652 0.85973436 3498881
-0.27365515 -0.4776029 0.85771418 3895695
-0.26574168 -0.47814643 0.85689372 3631246
-0.27897611 -0.46552539 0.86181432 3499128
-0.27226487 -0.46761006 0.85987246 4025235
-0.26338422 -0.46933943 0.85996211 3499655
-0.27606773 -0.45660603 0.86389762 3826560
-0.2695815 -0.45817178 0.8628279 4156303
-0.261839 -0.46133956 0.86302972 3630985
-0.27292484 -0.44982523 0.87051129 3893387
-0.26670173 -0.45009696 0.86781955 4157333
-0.25930968 -0.45202911 0.86821353 3762828
-0.26877993 -0.44375527 0.87548494 3762325
-0.26303631 -0.44092515 0.87209237 4420507
-0.25688189 -0.44334909 0.87269664 3828877
-0.2661272 -0.43158409 0.88159907 4222878
-0.26017073 -0.43281412 0.87595391 4552347
-0.25404119 -0.43572724 0.87698531 3631755
-0.26626578 -0.42180473 0.88041991 3627913
-0.25869125 -0.42398486 0.87596691 4683676
-0.25117177 -0.42561471 0.87751126 3892613
-0.24847977 -0.41745651 0.87776953 3563127
-0.28717309 -0.49554816 0.85653448 3033484
-0.27921361 -0.49911904 0.85637623 2897991
-0.26941741 -0.50013161 0.8540588 3891064
-0.26181293 -0.50170463 0.85417378 2638186
-0.28871295 -0.48625329 0.86002254 666715
-0.27889946 -0.49028778 0.85666078 4813457
-0.26510924 -0.49034873 0.85490674 3499654
-0.25781426 -0.49333942 0.85660642 3561592
-0.28625035 -0.47627798 0.86499751 6722
-0.26264504 -0.48208076 0.85897744 3694979
-0.25607604 -0.4840548 0.85938871 3233144
-0.25831228 -0.47339147 0.86303788 3104639
-0.25348327 -0.47576153 0.86480212 2640231
-0.25633869 -0.46486562 0.86730635 2907007
-0.25170666 -0.46792495 0.87028259 3099492
-0.27445805 -0.44996783 0.87745786 4089741
-0.25407827 -0.45667237 0.87176949 3496061
-0.24914184 -0.458693 0.87536865 4278874
-0.2700496 -0.44341803 0.88037586 2972810
-0.25178984 -0.44806975 0.87718511 3757171
-0.24804544 -0.45144743 0.87906867 3748927
-0.26737449 -0.43864447 0.88256973 3630740
-0.24937244 -0.44119763 0.87897003 3953004
-0.28095141 -0.50679952 0.85841894 984897
-0.26987389 -0.5054574 0.8577466 4350584
-0.25343606 -0.48700175 0.86622643 4674411
-0.25092646 -0.48071337 0.87189949 6974583
-0.2495909 -0.47079176 0.87698674 3815753
-0.27738994 -0.45401293 0.88592756 5799072
-0.24652244 -0.46128204 0.87822425 5064001
-0.25359884 -0.49792665 0.87450206 7039097
-0.25218081 -0.49334025 0.87789214 7565430
-0.2505267 -0.48556113 0.88142562 8223350
-0.2490636 -0.47619265 0.88089144 9076613
