# .PCD v0.7 - Point Cloud Data file format
VERSION 0.7
FIELDS x y z rgba
SIZE 4 4 4 4
TYPE F F F U
COUNT 1 1 1 1
WIDTH 174
HEIGHT 1
VIEWPOINT 0 0 0 1 0 0 0
POINTS 174
DATA ascii
-0.20510028 -0.2304672 0.85220718 5134174
-0.19918001 -0.23337916 0.85008264 5134176
-0.20415227 -0.22636823 0.85431242 4871515
-0.21760277 -0.24691367 0.85255903 4936281
-0.20845422 -0.25147212 0.84924459 5199967
-0.20381981 -0.25259137 0.84820294 5397348
-0.22340414 -0.23915978 0.8569243 4673880
-0.21637987 -0.2404789 0.85336488 4870232
-0.20721845 -0.2429446 0.85198689 5068382
-0.19774091 -0.24513277 0.8505317 5068384
-0.18975534 -0.2460614 0.85035926 4476504
-0.22104281 -0.23036629 0.85985357 4607822
-0.21442941 -0.23134449 0.85718083 4673623
-0.20421638 -0.2345044 0.854514 5134174
-0.19403695 -0.23613507 0.85266954 4739419
-0.18659984 -0.2387329 0.85203224 4081746
-0.21854992 -0.22397022 0.86493933 4410445
-0.2105436 -0.22355913 0.86098051 4213839
-0.20059206 -0.22548857 0.8589977 4345429
-0.19114569 -0.22815205 0.85666996 4016211
-0.18341845 -0.23085813 0.85579687 3621193
-0.20831691 -0.21906307 0.86317647 3884109
-0.19910105 -0.22038057 0.86159164 3752784
-0.18921816 -0.22283003 0.85933691 3621192
-0.1826214 -0.22543165 0.85731405 3686459
-0.2283849 -0.26027292 0.85830373 4673626
-0.22118084 -0.26157773 0.85368401 4870741
-0.21281703 -0.26476038 0.85139143 5265754
-0.20301114 -0.26658958 0.8497805 5397604
-0.19382352 -0.26760912 0.85172784 4608350
-0.22693013 -0.2505151 0.85891938 4673629
-0.21962602 -0.25272828 0.85457051 4870744
-0.21210137 -0.25584626 0.85180306 5134174
-0.19971733 -0.25728387 0.85059422 5397606
-0.19125794 -0.26047668 0.8528198 4476760
-0.18390371 -0.25949469 0.85512823 4015442
-0.23064661 -0.24399364 0.86789018 3883351
-0.22777046 -0.24233451 0.86258465 4475995
-0.19691823 -0.25163239 0.85261202 5068641
-0.18707378 -0.25198558 0.85382062 4082513
-0.18069276 -0.25447178 0.85694331 3752531
-0.22599259 -0.23297808 0.86606079 4079443
-0.18247312 -0.24442263 0.85680383 3621705
-0.17863572 -0.24893849 0.857548 3751503
-0.18182395 -0.23689018 0.85906911 3490378
-0.22202022 -0.28393719 0.85819376 5002588
-0.21898764 -0.2846888 0.85750186 5528419
-0.22917144 -0.27326652 0.86459178 4739163
-0.22342934 -0.27602851 0.85921252 5002333
-0.21452634 -0.27849367 0.85697955 5397092
-0.20505714 -0.27957031 0.85704464 5332066
-0.19884591 -0.28078264 0.85767305 4740695
-0.22973731 -0.26707599 0.86198503 4082256
-0.22364974 -0.26886672 0.85845286 5068120
-0.20160398 -0.27473834 0.85548168 5200736
-0.19260421 -0.27481323 0.85701519 4345175
-0.18509197 -0.27591598 0.85831743 4278096
-0.18741195 -0.26583135 0.85759801 4147028
-0.18264875 -0.26928455 0.85994333 3819087
-0.18082462 -0.26107788 0.85990626 3687502
-0.21796 -0.30094525 0.86121869 5528423
-0.21371098 -0.30149916 0.86051673 5397348
-0.22575878 -0.28932145 0.86211741 4804702
-0.21688169 -0.29145086 0.85947007 5462626
-0.20755354 -0.29432923 0.85997528 5003105
-0.19871257 -0.2936472 0.86055982 4804440
-0.23123254 -0.27923381 0.86956102 3817824
-0.22706501 -0.28193691 0.86316174 4673622
-0.2118616 -0.28570506 0.85969311 5660265
-0.20437962 -0.28611749 0.85875851 5069150
-0.19478174 -0.28678766 0.85976088 4475986
-0.18830146 -0.28441784 0.86041224 4014924
-0.19032288 -0.28112996 0.8600893 4606547
-0.18409589 -0.28064293 0.86032546 3620428
-0.2256828 -0.30850846 0.86587304 4079956
-0.2199194 -0.30982241 0.86201733 5266270
-0.2140381 -0.31189686 0.86294723 5002845
-0.22667675 -0.30164361 0.86736822 4079963
-0.22042912 -0.30469978 0.86285841 5330781
-0.2096307 -0.30605733 0.86297625 5002331
-0.20480001 -0.30096543 0.86336797 5001816
-0.19986396 -0.30008551 0.86473453 4540755
-0.19361787 -0.29472741 0.86564279 4213074
-0.22225742 -0.32463092 0.87057143 5265766
-0.22234444 -0.31917405 0.87025005 5068639
-0.21362323 -0.3195861 0.86865532 4214103
-0.22859158 -0.30949479 0.87017596 1580089
-0.2078914 -0.31322843 0.86696041 4145996
-0.20357074 -0.30863932 0.86824757 4212054
-0.22841878 -0.32542852 0.87414706 3618132
-0.22355388 -0.3276521 0.87249196 5199718
-0.21697178 -0.32826564 0.87153542 4214875
-0.235551 -0.38637039 0.86039805 528927
-0.23090343 -0.38814145 0.85900605 1517876
-0.23378399 -0.4020015 0.86551785 4419983
-0.24618344 -0.39170292 0.86994022 1651559
-0.24104749 -0.39085007 0.86632925 1782104
-0.23052372 -0.3948395 0.8607896 4154236
-0.22426674 -0.39495161 0.86448312 3028033
-0.23567516 -0.38797975 0.87320918 2369321
-0.22859745 -0.3882089 0.8683129 2040105
-0.23001683 -0.36979628 0.87785584 4146252
-0.24657862 -0.4006682 0.87655985 5077683
-0.24102536 -0.40383747 0.8728146 4617364
-0.23220854 -0.40637255 0.8706156 4549258
-0.22575068 -0.40177676 0.86942565 6582660
-0.24435979 -0.38879594 0.87815404 7695014
-0.23585804 -0.38773718 0.87866914 2040625
-0.22785686 -0.38828343 0.87685442 2172202
-0.22296944 -0.39409751 0.87327385 2760198
-0.24429056 -0.41572487 0.87738377 4683677
-0.23888882 -0.41706368 0.87615138 3831442
-0.24949278 -0.40753412 0.88096642 3299734
-0.24360999 -0.41040778 0.87726921 4683420
-0.23556137 -0.41329277 0.87603247 3960460
-0.27217269 -0.48216963 0.85925102 3829135
-0.26432008 -0.48366922 0.85769874 4223637
-0.25855833 -0.48551339 0.8561613 3960467
-0.27005646 -0.47400111 0.86342478 3498881
-0.26196384 -0.47540265 0.86144668 3895695
-0.25407878 -0.47630289 0.86066771 3631246
-0.26675487 -0.46310079 0.86553347 3499128
-0.26013446 -0.4654851 0.86362475 4025235
-0.25134176 -0.46761465 0.86375952 3499655
-0.26345709 -0.45432428 0.86764324 3826560
-0.25704274 -0.4561809 0.86660612 4156303
-0.24945268 -0.45969599 0.86684531 3630985
-0.26004621 -0.44769925 0.874282 3893387
-0.25382739 -0.44824964 0.8716231 4157333
-0.24653259 -0.45051473 0.87205404 3762828
-0.25565773 -0.44182807 0.87928522 3762325
-0.24977376 -0.43925738 0.87592673 4420507
-0.24373868 -0.44195795 0.87656081 3828877
-0.25248992 -0.4297955 0.88542843 4222878
-0.24656492 -0.43128818 0.87981361 4552347
-0.24057911 -0.43447673 0.88087404 3631755
-0.25217953 -0.42001873 0.88426065 3627913
-0.24468754 -0.42253494 0.87984538 4683676
-0.23725793 -0.42450497 0.88142776 3892613
-0.23420097 -0.4164772 0.88171053 3563127
-0.2762734 -0.49271658 0.86017275 3033484
-0.26848289 -0.49664384 0.86005247 2897991
-0.2587302 -0.49809641 0.857786 3891064
-0.25120541 -0.50001204 0.85793948 2638186
-0.27740982 -0.48336506 0.86366403 666715
-0.26777101 -0.48783612 0.86034966 4813457
-0.25398844 -0.48851934 0.85866904 3499654
-0.24684548 -0.49183878 0.86040378 3561592
-0.27452517 -0.47351635 0.8686645 6722
-0.2511746 -0.48037544 0.86276299 3694979
-0.24470392 -0.48264509 0.86320686 3233144
-0.24647498 -0.47189516 0.86685729 3104639
-0.2417677 -0.47448307 0.8686443 2640231
-0.24414061 -0.46347165 0.8711468 2907007
-0.23966783 -0.46674043 0.8741439 3099492
-0.26162165 -0.44777927 0.88122004 4089741
-0.24153584 -0.45539352 0.87563205 3496061
-0.23671532 -0.45763907 0.879255 4278874
-0.25693712 -0.44143862 0.8841697 2972810
-0.23888966 -0.44690871 0.88107049 3757171
-0.2353121 -0.45045424 0.8829698 3748927
-0.25406063 -0.43679318 0.88638365 3630740
-0.23617341 -0.44015479 0.88287675 3953004
-0.2705774 -0.50423986 0.86207634 984897
-0.25944704 -0.50339973 0.86146468 4350584
-0.24223681 -0.48571536 0.8700549 4674411
-0.23947579 -0.47955266 0.87574905 6974583
-0.23772006 -0.46970671 0.88085568 3815753
-0.26477909 -0.45169598 0.88966906 5799072
-0.23423114 -0.46034685 0.88212126 5064001
-0.24293827 -0.49662992 0.87831593 7039097
-0.24133241 -0.4921158 0.88171923 7565430
-0.23934704 -0.48442304 0.88527113 8223350
-0.23745869 -0.47512984 0.88475639 9076613
