# .PCD v0.7 - Point Cloud Data file format
VERSION 0.7
FIELDS x y z rgba
SIZE 4 4 4 4
TYPE F F F U
COUNT 1 1 1 1
WIDTH 1125
HEIGHT 1
VIEWPOINT 0 0 0 1 0 0 0
POINTS 1125
DATA ascii
0.14617318 -0.1026895 1.1415849 3632047
-0.12737626 -0.067028761 1.1215361 3434408
-0.12464963 -0.064901032 1.1257021 3434665
0.14387161 -0.091375142 1.1409795 4026292
-0.12596557 -0.056748103 1.1215421 3631531
-0.12442942 -0.056056965 1.1256434 3631531
0.14482114 -0.083454035 1.1395987 4157366
-0.12535211 -0.050297223 1.1215284 4025255
-0.12188384 -0.045475923 1.1240019 3632304
0.14543253 -0.071670398 1.1390955 4289211
-0.11755797 -0.03685537 1.1236361 3568048
0.14327368 -0.060647309 1.1395341 4094399
0.14508905 -0.06522388 1.1410246 4224702
-0.11557555 -0.030974925 1.1219971 3764911
-0.11190937 -0.026983552 1.124705 3895729
0.14148046 -0.052016135 1.1401374 4487616
-0.11526014 -0.012811363 1.124874 6458567
-0.11067538 -0.017037712 1.1246021 3895996
0.14252307 -0.041030336 1.1390572 5735616
0.14967489 -0.038442716 1.1390944 9477559
-0.11463407 -0.010173753 1.1258945 6852289
-0.11140397 -0.010480471 1.1261046 5933254
0.064102381 0.074913897 1.1326648 9474701
-0.040202655 -0.22212157 1.1444458 7248329
-0.0076694079 -0.22681129 1.1457722 5801654
0.00044220127 -0.22644818 1.1457558 5210039
0.013008488 -0.22827443 1.1479139 6328255
0.020624889 -0.22899765 1.1484091 7379645
0.032121465 -0.22996709 1.1491555 8430007
0.040445123 -0.22898448 1.1456735 8625323
-0.076578826 -0.21052223 1.1339972 9678537
-0.066242576 -0.21149161 1.1412091 4422071
-0.057124142 -0.21303365 1.1432842 2778029
-0.047596704 -0.21576145 1.1439185 2513574
-0.040288851 -0.2191796 1.1444161 2315684
-0.010617729 -0.22273049 1.146351 2120102
0.001350903 -0.22386697 1.1471289 2185635
0.014511279 -0.22401646 1.1479754 2186146
0.019847879 -0.22562337 1.1483314 2316696
0.035288054 -0.22488916 1.149317 4486314
0.042964689 -0.22522566 1.1478086 5997746
0.054266408 -0.22332409 1.1493777 6063288
0.062945701 -0.22267473 1.1510751 6589614
0.070976585 -0.22365734 1.1515989 8757678
-0.080848694 -0.1980992 1.1336207 1855898
-0.074616075 -0.20120415 1.1372914 2249885
-0.067460075 -0.20419556 1.1418188 2381985
-0.059631553 -0.20707472 1.143074 3039902
0.057490163 -0.21654588 1.1506742 2841504
0.063526317 -0.21656898 1.151062 3302564
0.07332924 -0.21523698 1.1503445 4420011
0.083428025 -0.21536833 1.1466041 6984117
0.093212903 -0.21353486 1.1449269 6254993
-0.090978026 -0.18656833 1.1336769 2710418
-0.083840653 -0.19051716 1.1377562 2775447
-0.077552721 -0.19334754 1.1410084 2906776
0.076448768 -0.20760268 1.1514174 3171492
0.085213721 -0.20706102 1.1491699 3237285
0.093882322 -0.20667344 1.145486 3629215
-0.093445241 -0.17934534 1.1374673 2775191
-0.085854635 -0.18356821 1.1405282 2906012
0.087931767 -0.19806914 1.1508069 3040421
0.095206827 -0.1970766 1.1478729 3105703
0.10124026 -0.19790947 1.1453137 2777257
-0.10703599 -0.16392979 1.1316574 2710677
-0.10090749 -0.16840649 1.1356246 2709909
-0.095230281 -0.17256504 1.1384993 2709910
0.096915036 -0.18881413 1.1515011 3368100
0.10490356 -0.18773879 1.147603 3302561
-0.10783616 -0.15727341 1.1346688 2710421
-0.10361429 -0.16053055 1.1390642 2644886
0.099600077 -0.18126868 1.1530882 3040936
0.10801785 -0.17895955 1.1515185 3237031
0.11484239 -0.1766997 1.1490189 3368615
-0.11598757 -0.14341463 1.1309135 2776209
-0.11131972 -0.14834931 1.1360139 2841240
0.11070694 -0.17068607 1.1537143 3237287
0.11766185 -0.16912091 1.1489944 3302822
-0.11664243 -0.13666043 1.1353587 2710683
-0.11246847 -0.14035803 1.138463 2841499
0.12054306 -0.1609339 1.151672 3237541
0.12598418 -0.15873149 1.1481836 3237798
-0.11798649 -0.1279373 1.1358113 2907293
0.122881 -0.15234473 1.1543452 3237797
0.1281452 -0.1503005 1.1496559 3303334
-0.1228897 -0.11573024 1.1313875 2907805
-0.12124823 -0.11751679 1.1375774 2907805
0.13069642 -0.14113198 1.1523051 3434407
-0.12260209 -0.10640512 1.1328561 3039392
-0.12045416 -0.10778546 1.13835 3039391
0.13354182 -0.13178664 1.1522837 3500202
0.13828942 -0.12932192 1.1471283 3631274
-0.124983 -0.096966185 1.1344961 3170979
0.13631681 -0.12173199 1.1545105 3631791
0.14011128 -0.12153318 1.1489627 3566510
-0.1244804 -0.086614817 1.1356266 3105957
0.13663031 -0.11060022 1.1532142 3632305
0.14211576 -0.11223565 1.1475674 3501227
-0.12376378 -0.076616816 1.1332997 3237546
0.13709086 -0.10153378 1.1522884 3698099
0.14196609 -0.10238884 1.1475435 3698094
-0.1222371 -0.066969141 1.1335568 3434923
0.13916215 -0.092413627 1.1528929 3895479
0.1415842 -0.09467449 1.1470546 3895477
-0.1209103 -0.05658938 1.134177 3566256
0.14040388 -0.081175178 1.1542163 4027579
0.14314967 -0.080864549 1.1510497 4157882
-0.11903004 -0.047819503 1.1334676 3567024
0.13931306 -0.071491912 1.1535556 4159422
0.14388388 -0.072082818 1.1494212 4289724
-0.11565848 -0.038263056 1.1314048 3567791
-0.11273403 -0.036586706 1.1369232 3764403
0.13866021 -0.061350364 1.1519369 4356797
-0.10976742 -0.027905636 1.1309342 3830196
0.13698193 -0.051567048 1.1508132 4619718
-0.10742183 -0.017172791 1.133339 3896507
0.13401233 -0.039337695 1.1510117 4817095
0.13866223 -0.040365953 1.1480898 4948420
-0.11418186 -0.0073135644 1.1339169 6916535
-0.10677215 -0.0085504875 1.1340946 5210049
0.13364106 -0.032877877 1.1530502 5013440
0.13826181 -0.032902606 1.1510088 5998788
0.041251432 0.050295196 1.1422799 5859448
0.04952186 0.049583666 1.1409558 6122362
0.054865304 0.049211808 1.1443083 6319482
0.065768376 0.049457408 1.1490149 5330522
0.042348236 0.054655053 1.1407874 5792108
0.050236896 0.054753818 1.1407588 5527648
0.055278592 0.053557895 1.144299 5067354
-0.034685757 -0.22261143 1.1478103 4354997
-0.027599867 -0.2243121 1.1502837 4684224
-0.01764518 -0.2249648 1.1494586 4289976
-0.006485641 -0.2237134 1.1496305 2054307
0.0038258918 -0.22524408 1.1503054 2777510
0.0091764191 -0.22685516 1.1506623 4026798
0.025539853 -0.22840899 1.1517261 5604271
0.02951392 -0.22713178 1.1519709 4881326
-0.052562542 -0.21051387 1.1465626 3039902
-0.044783834 -0.21217343 1.1475769 2710943
-0.036730811 -0.21484977 1.1509264 2645152
-0.027403269 -0.21859933 1.1549257 2514339
-0.017482931 -0.21943837 1.1550353 2514851
-0.0072941966 -0.21789221 1.1541404 2842787
0.0027079284 -0.21842104 1.1525825 2908579
0.012322291 -0.2189362 1.1536942 3039651
0.02231225 -0.22058868 1.1554629 2908578
0.03169997 -0.22060481 1.1558154 2778020
0.041972581 -0.21991625 1.1541431 2646433
0.051323481 -0.22350374 1.1533417 5012145
0.062656604 -0.22586673 1.154089 8955830
-0.064730093 -0.20090073 1.1459882 2841242
-0.055278782 -0.20387593 1.1486717 2775960
-0.046573568 -0.20597944 1.1511855 2841500
-0.037672091 -0.20899865 1.1555232 2907551
-0.0061129769 -0.21125492 1.1575687 3105184
0.0030757883 -0.21175724 1.158163 3170722
0.012961975 -0.21269599 1.1588056 3302053
0.023083571 -0.21310176 1.159459 3170723
0.033606224 -0.21317536 1.1601355 3105188
0.0430624 -0.21327987 1.1590258 3170467
0.052875448 -0.21400937 1.1557682 3236258
0.063405991 -0.21155576 1.1544646 3171236
-0.080145568 -0.18804011 1.144606 2906776
-0.073942468 -0.19087309 1.146173 2907033
-0.065877408 -0.19262056 1.1504036 2841497
-0.057269592 -0.19751182 1.1541699 2775704
0.044451714 -0.20791131 1.1607887 3105443
0.053239435 -0.20874576 1.1613599 3105443
0.064396709 -0.20607334 1.1607887 3105956
0.073207155 -0.20403361 1.1577935 3105956
-0.090014979 -0.17607263 1.1438736 2644884
-0.083521903 -0.18026724 1.1473314 2775705
-0.075648203 -0.18389466 1.1505393 2841497
0.068566233 -0.19909428 1.1622648 3172006
0.076463729 -0.19745339 1.1617564 3040421
0.0826713 -0.19568768 1.1596353 2974628
-0.097910523 -0.16649863 1.1432877 2645144
-0.091674507 -0.16886052 1.1467729 2710425
-0.086760491 -0.17205766 1.1486305 2776216
0.08691819 -0.1874117 1.1600904 3171493
0.09227781 -0.18568668 1.1572639 3237026
-0.10033639 -0.15820916 1.1456572 2710424
-0.094471291 -0.16097701 1.1500221 2710937
0.090222746 -0.18115836 1.1635079 3302823
0.097101897 -0.17771463 1.1607569 3172005
0.10321128 -0.17514171 1.1602842 3172006
-0.10771024 -0.14608121 1.14249 2841498
-0.10389812 -0.14896458 1.1476921 2907290
0.10005721 -0.17098534 1.1640558 3303592
0.10667035 -0.1682187 1.1631216 3237544
0.11362055 -0.16452414 1.1568569 3303337
-0.1087731 -0.137481 1.1440688 2973342
-0.10491055 -0.14097092 1.1506445 3038879
0.11097063 -0.16082692 1.1640049 3237544
0.1158804 -0.15825978 1.1597563 3303336
-0.11560707 -0.12522846 1.1428132 2973342
-0.11016923 -0.12891409 1.1477022 2973600
0.1200545 -0.14948691 1.1611546 3368872
-0.11651742 -0.11724076 1.1440448 3039392
-0.11156373 -0.11852214 1.1500324 3236259
0.12212846 -0.14019743 1.1629651 3500460
0.12712833 -0.13823098 1.1575079 3434923
-0.11673187 -0.1075329 1.1444881 3170978
0.12395005 -0.13139912 1.1639282 3500719
0.12906438 -0.12938017 1.1608996 3500718
-0.1220105 -0.09582223 1.1411576 3237029
-0.118737 -0.097496904 1.1473943 3237286
0.13006082 -0.12057203 1.1636689 3697329
-0.12117887 -0.087076932 1.141139 3237543
-0.11907607 -0.086823411 1.1487877 3172263
0.13216609 -0.11162059 1.163224 3697843
-0.1207597 -0.077429876 1.1440928 3303340
-0.118917 -0.076516971 1.1492141 3303852
0.13290505 -0.10119713 1.1635865 3764149
-0.119706 -0.06772989 1.1410743 3500716
-0.11738959 -0.06656006 1.1492302 3501229
0.13690682 -0.091096446 1.1623287 3764661
-0.11858003 -0.059747905 1.1410809 3566512
-0.11538529 -0.05660449 1.145633 3632306
0.13491754 -0.080653325 1.1620139 3896764
-0.11387675 -0.047083706 1.1456515 3698357
0.12978159 -0.070075281 1.1637976 4291265
0.13383368 -0.071645893 1.1585354 4225217
-0.11140017 -0.038271297 1.1453735 3764408
0.13151084 -0.060594562 1.1631625 4554434
0.13450904 -0.060616538 1.1573427 4488640
-0.10750097 -0.027879335 1.14634 3895997
-0.10330901 -0.02505637 1.1497927 4027323
0.13220803 -0.049816489 1.1621164 4817354
-0.1048432 -0.018562257 1.1429601 3962044
-0.10115471 -0.01768931 1.1490687 4093118
0.12391683 -0.036636647 1.1644816 5014224
0.12927307 -0.03989831 1.1608441 4751563
-0.10268132 -0.0083120316 1.1416783 4290235
-0.098109975 -0.0086076781 1.1465173 4158908
-0.091974631 -0.0068807602 1.150371 4028609
0.12304407 -0.029487491 1.1625853 4817874
0.1300461 -0.02987732 1.157805 5145287
-0.094975397 -0.0022319853 1.1445283 4487616
-0.089651585 -5.3264201e-005 1.1491278 4356800
0.11544695 -0.016195402 1.1617651 5276623
0.1216999 -0.019822583 1.1584746 5604813
0.13101661 -0.021933056 1.1576905 6720449
-0.086987197 0.0067143366 1.1505793 5671109
0.11403513 -0.010467827 1.1630589 5802961
0.12055062 -0.011867635 1.159385 6787017
0.039912604 0.012435421 1.1586823 12972031
-0.013911828 0.027500004 1.1530972 5869264
0.017804155 0.020828635 1.1571933 7515376
0.025214413 0.019754745 1.157678 8764660
0.034716986 0.018408157 1.1582994 10146554
0.041210074 0.016754955 1.15873 10870005
-0.070090175 0.041171096 1.143364 8028800
-0.064964682 0.041052081 1.1436942 7305855
-0.0095700342 0.028240941 1.1553741 5671370
-0.0062746396 0.027928025 1.1555883 5869265
0.016793124 0.025737613 1.1570879 6988787
0.021186985 0.025320381 1.1573735 7185904
0.10770465 0.025990501 1.1629246 6314850
-0.063279003 0.045916922 1.1437624 8028802
0.10496391 0.029804952 1.1627171 6117979
0.082670718 0.042475678 1.1531643 5593178
0.084852517 0.042268492 1.1533061 5658970
-0.032769874 -0.21243468 1.1598748 2973083
-0.027363658 -0.21406254 1.1602354 2973595
-0.01799842 -0.21451816 1.1615087 2973598
-0.051560018 -0.19950533 1.1585615 2842012
-0.045353375 -0.20148784 1.1589764 2776219
-0.036405772 -0.20482585 1.1611056 2907806
-0.027108878 -0.20709066 1.1633588 2907807
-0.016682103 -0.20862339 1.1642169 2973599
-0.0074673295 -0.20715421 1.1621244 3039136
0.0032570511 -0.20717654 1.1634815 3170723
0.013224386 -0.2080045 1.1634604 3236770
0.023045629 -0.20847568 1.163427 3170979
0.032053404 -0.2091167 1.1640108 3170980
0.038824454 -0.20808788 1.1644372 3171236
-0.06174222 -0.18962237 1.1578262 2842012
-0.055384737 -0.19249874 1.1597158 2842011
-0.046111815 -0.1956462 1.1613463 2842012
-0.038113818 -0.19785839 1.1634198 2907805
0.0079313582 -0.20362857 1.1664246 3302309
0.014086936 -0.20305359 1.16567 3302308
0.02278235 -0.2037605 1.1648743 3171236
0.03352328 -0.20535547 1.1640742 3171236
0.044103008 -0.20497686 1.1664207 3105443
0.054086104 -0.20399475 1.1663857 3171492
0.060834844 -0.20274781 1.1658068 3040420
-0.081634611 -0.17658836 1.1564412 2841497
-0.073210284 -0.18014872 1.157546 2907291
-0.065164462 -0.18357253 1.1594428 2907549
-0.058781173 -0.18536487 1.1619896 2907551
0.057650816 -0.19716634 1.1695646 3040420
0.064917423 -0.19601062 1.1681231 3106213
0.073068589 -0.19417606 1.1665219 3106214
-0.082642421 -0.16997242 1.1583261 2907290
-0.076467171 -0.17344797 1.1602545 2973340
0.069554329 -0.18934993 1.1702647 3302823
0.075939998 -0.18756574 1.1682552 3237030
0.082350969 -0.18475202 1.1688219 3237031
-0.098482221 -0.15492734 1.1551808 2841497
-0.090503544 -0.15917923 1.1562626 2842012
-0.084793389 -0.16196242 1.1591241 2907547
0.088284701 -0.17759815 1.1682876 3368361
0.093702793 -0.17484823 1.1676879 3237285
-0.099391699 -0.14889692 1.1550727 2973085
-0.092851922 -0.14973791 1.1582422 3039135
0.091314778 -0.17072067 1.1675006 3368615
0.098065346 -0.16801475 1.1686406 3237799
0.10296749 -0.16514009 1.168203 3303337
-0.10551463 -0.13531287 1.1545676 2973857
-0.10055499 -0.13932642 1.1564779 3039137
-0.094900653 -0.14074297 1.1593024 3104930
0.10066988 -0.16072556 1.1700232 3172264
0.10721119 -0.15844595 1.1690885 3238059
-0.10598582 -0.12702674 1.1554712 3039650
-0.10256341 -0.1309568 1.1587296 3105700
0.1112559 -0.14903934 1.170761 3369132
0.11556551 -0.14961867 1.1688843 3434410
-0.10795921 -0.11823612 1.1559877 3171236
0.11383711 -0.1411234 1.1719099 3500719
0.11748238 -0.13915761 1.1709254 3435183
-0.1138062 -0.10554822 1.1537899 3302823
-0.10954371 -0.10793579 1.1567556 3171495
0.11920692 -0.12917879 1.1707717 3566514
-0.11481731 -0.096774869 1.1551102 3368873
-0.11138529 -0.09827888 1.1570922 3368875
0.12284039 -0.12029143 1.1699116 3697588
-0.11493489 -0.087654017 1.1562423 3303850
0.12513812 -0.11086105 1.1726155 3763892
0.12862667 -0.11051356 1.169401 3698099
-0.11523528 -0.077376142 1.1550695 3435181
-0.10961822 -0.078395993 1.1578436 3435438
0.12707309 -0.10087124 1.1732302 3829942
0.1301363 -0.10061689 1.1705617 3764149
-0.11331587 -0.067840599 1.155515 3501229
0.12833783 -0.087571256 1.1732018 3896505
0.13257198 -0.090873532 1.1713146 3830455
-0.11175841 -0.058083963 1.1550722 3632563
-0.1074049 -0.055121049 1.157794 3567542
0.12683648 -0.080243357 1.1704683 4027837
0.13178788 -0.084288344 1.1693881 3896505
-0.110039 -0.04814373 1.1548952 3829940
-0.10677253 -0.048471056 1.1577799 3699127
0.12617545 -0.070520982 1.1715864 4291009
-0.10862891 -0.03809192 1.1543685 3895737
-0.10510159 -0.037606098 1.1577977 4027576
0.12746279 -0.060560465 1.1709191 4422849
-0.10676883 -0.031544149 1.1536324 4158911
-0.10208844 -0.028268442 1.1559101 4093372
0.12836149 -0.050858539 1.1703957 4817355
-0.097445101 -0.019268848 1.1556717 4093630
-0.092550293 -0.016271383 1.1584281 4094397
0.12192865 -0.039449874 1.1706125 5080014
0.12625255 -0.043083038 1.1686932 4883149
-0.094520509 -0.011902966 1.1542573 4028348
-0.089898199 -0.0097697228 1.1560397 4028864
0.11840723 -0.029429287 1.1698583 4949202
-0.085471004 -0.00055341423 1.156567 4029123
-0.081208065 0.0012905896 1.1590118 3963586
0.11323878 -0.01902727 1.1703315 5146069
0.11641201 -0.023759171 1.167902 5080276
-0.083811864 0.0071414039 1.1547881 5342665
-0.076788932 0.008641988 1.1592351 4882633
-0.013388259 0.0064068586 1.1633254 6070261
-0.0067520514 0.0057767108 1.1637568 6528744
-0.00011584628 0.0051465631 1.1641883 8827627
0.015368629 0.0036762208 1.1651949 10340848
0.023998672 0.0022177026 1.1657611 8895736
0.031390253 0.00081287324 1.1662475 6266608
0.10543287 -0.0054372102 1.1700522 5475287
0.10965933 -0.0093758553 1.1686859 5475028
-0.072643027 0.014262043 1.157451 5999306
-0.065920711 0.014738232 1.1578788 5540557
-0.057049889 0.017244391 1.1577598 5803727
-0.044421129 0.017803289 1.1612386 4950220
-0.035623465 0.015838295 1.1618197 5016280
-0.02599356 0.014309153 1.16205 5411294
-0.015894523 0.01333265 1.1608628 5806569
-0.0060748449 0.012416571 1.1631445 7120874
0.0034835488 0.012260377 1.1643609 12379901
0.014121419 0.010718219 1.1625252 13891069
0.023893692 0.0095491186 1.1624874 12969723
0.033749677 0.0088532269 1.1640122 9946095
0.043708194 0.0076758564 1.1650651 10013177
0.053574722 0.0086275041 1.1654495 7449069
0.060225017 0.0098546743 1.1680249 5411552
0.1030053 -0.0013033673 1.1683592 6526426
-0.041986424 0.022542492 1.1613559 6264275
-0.034204926 0.022605449 1.1593499 5803990
-0.02453424 0.022316866 1.1584703 5345755
-0.01447293 0.022628963 1.1591139 5412839
-0.0049209194 0.02231878 1.160231 5676266
0.0038195644 0.020568371 1.1631688 7253489
0.013689865 0.019444846 1.1619509 8436213
0.023457283 0.016273767 1.1616023 12051453
0.038206667 0.019331276 1.1625243 10082302
0.045925871 0.017855294 1.1630323 10607102
0.054275431 0.016213298 1.1635821 7515119
0.061124645 0.014949299 1.1653684 6068200
-0.0021564262 0.027622037 1.1598638 6001365
0.0022525722 0.027203381 1.1601504 6396124
0.11456686 0.02233395 1.1674039 6447199
-0.023595262 -0.2035825 1.1684079 3039391
-0.016143119 -0.20371222 1.1703907 3039135
-0.0047283452 -0.20537402 1.1696343 3104930
-0.051392984 -0.18972129 1.1665084 2776478
-0.04527086 -0.19119811 1.168918 2842271
-0.035727475 -0.19374651 1.1717383 2907807
-0.026769355 -0.19646379 1.1728508 2908063
-0.016967049 -0.19824582 1.1746018 2973600
-0.0065902807 -0.19824526 1.1748006 3105187
0.0033656396 -0.19883983 1.1745235 3236773
0.01317806 -0.19842759 1.1744683 3237029
0.024041999 -0.19954506 1.1752421 3171237
0.033688411 -0.20141995 1.1735723 3171236
0.043331668 -0.20077023 1.1736081 3105444
0.052322187 -0.20013075 1.1732552 3171493
-0.062873051 -0.17971401 1.1688954 2841758
-0.055095654 -0.18276863 1.1702217 2907551
-0.046528995 -0.1846877 1.1736171 2842271
-0.036100488 -0.18686953 1.1754838 2908064
-0.029502641 -0.18862586 1.175922 2973857
-0.0082722716 -0.19064181 1.1773022 3105444
0.0046102582 -0.19086079 1.1781313 3237030
0.014607047 -0.19222942 1.177983 3302823
0.024287794 -0.19236398 1.1784825 3171495
0.033752352 -0.19184795 1.1786169 3105703
0.043388084 -0.19302318 1.1790364 3105703
0.05330031 -0.19346794 1.1777726 3105702
0.06199583 -0.19178386 1.1755257 3105958
-0.073250636 -0.17099902 1.1666009 2973598
-0.065749153 -0.1734308 1.1714648 2907551
-0.056226317 -0.17620237 1.1741034 2908065
0.05564047 -0.18523869 1.1813625 3237288
0.064627737 -0.18538037 1.1794913 3302823
0.073620051 -0.18418853 1.1770686 3237287
-0.081604853 -0.15888381 1.1671772 3105183
-0.074718714 -0.16292025 1.17092 2974112
-0.066801086 -0.16587722 1.1733392 2842786
0.066593722 -0.17876981 1.1820127 3171750
0.075594619 -0.17600092 1.1812319 3172008
0.084052473 -0.17504984 1.1774248 3303081
-0.088620007 -0.14849593 1.164446 3104930
-0.083038166 -0.15134488 1.1708406 3170978
0.078771606 -0.16791782 1.1827054 3303337
0.086787224 -0.16715705 1.1809592 3368873
0.094012976 -0.16653755 1.1782069 3237543
-0.097307384 -0.134821 1.1657796 3040164
-0.091055706 -0.13918613 1.1673423 3105701
-0.085405424 -0.14415051 1.1719655 3302822
0.08905974 -0.15830672 1.183287 3303597
0.09692435 -0.15662436 1.1794055 3238059
0.10434623 -0.15426049 1.1782229 3303852
-0.099204689 -0.12827517 1.1667173 3106213
-0.091953889 -0.13100654 1.1714365 3172007
0.098410338 -0.14764601 1.1835994 3369387
0.10656336 -0.1481878 1.1803194 3435181
-0.10518569 -0.11742854 1.1637943 3237030
-0.098996818 -0.11868381 1.1685445 3237800
-0.093137354 -0.12270296 1.1712922 3303594
0.10077728 -0.1417942 1.1839036 3500972
0.10974525 -0.1383549 1.1811944 3500976
0.11497781 -0.13594492 1.1767507 3500977
-0.10555524 -0.10809047 1.1654751 3237545
-0.10133614 -0.11015546 1.1697716 3303852
0.1122144 -0.12902111 1.1845329 3566772
0.11574019 -0.12969671 1.1807564 3566515
-0.10714085 -0.098186105 1.1654309 3369389
0.11396827 -0.11961109 1.184568 3763639
0.1177119 -0.11903707 1.1799046 3763639
-0.11244853 -0.083786324 1.1630508 3435181
-0.10766777 -0.087937579 1.1666368 3435438
0.11565635 -0.1086346 1.184586 3895737
0.12095167 -0.10902786 1.1797421 3764149
-0.11140671 -0.077377155 1.1641338 3435438
-0.10639033 -0.078479141 1.1685351 3501231
0.11618873 -0.10303606 1.1845741 3961530
0.12224121 -0.099623308 1.1797475 3961528
0.12988324 -0.096962325 1.1773869 3895735
-0.11028975 -0.068188623 1.164731 3501489
-0.10621342 -0.068346456 1.1678826 3501490
0.11789237 -0.08512073 1.184536 4159679
0.12342645 -0.090353779 1.1801974 3962041
0.13009477 -0.094738081 1.1773821 3895735
-0.10999665 -0.060844157 1.1636873 3501747
-0.10508837 -0.058100041 1.1666522 3567541
0.11775082 -0.078704983 1.1844741 4225473
0.12162907 -0.079586253 1.180722 4159424
-0.10229644 -0.04816984 1.1656809 3764919
0.11834252 -0.06984815 1.1844392 4422597
0.12258413 -0.069543011 1.1807005 4357059
-0.10087089 -0.038489036 1.1655209 3896505
-0.096431881 -0.038783543 1.1703894 3962298
0.11922398 -0.059261341 1.1844085 4685767
0.12353918 -0.059499774 1.1806792 4422851
-0.098438099 -0.029556856 1.1637712 4027836
-0.093630046 -0.028229713 1.1693892 4028094
0.11849986 -0.048555691 1.1821518 4948684
0.12449366 -0.051039938 1.1776646 4751818
-0.095882729 -0.021660559 1.1622669 4093632
-0.090395644 -0.018703789 1.1684533 4094399
0.11264493 -0.037546668 1.1838071 5080784
0.11713614 -0.039055344 1.1792979 5211343
-0.086274162 -0.010617703 1.1671659 4094402
-0.079667389 -0.0081617832 1.1702118 4226244
-0.073124558 -0.0071021393 1.1716254 4620744
-0.019383464 -0.011075355 1.1751096 5412064
0.0029642927 -0.0131974 1.1765624 6463211
0.010619913 -0.017779045 1.1770918 6397929
0.020304637 -0.018055037 1.1777161 6397929
0.02965991 -0.017023534 1.1783085 6003432
0.11069918 -0.028046429 1.1810987 5081042
0.11593463 -0.031674389 1.1759533 5081041
-0.077247798 -0.00055533648 1.1651604 4160963
-0.069473401 -0.00034184754 1.1709453 4752075
-0.054288048 0.0012775883 1.1727662 4949201
-0.047636967 8.1114471e-005 1.1732032 5016022
-0.038181622 -0.0019428656 1.173159 5213659
-0.028464779 -0.0037749484 1.1732329 5411552
-0.018784843 -0.0054786876 1.1743003 5740773
-0.0087945908 -0.0064317361 1.1757514 6003172
0.0012866948 -0.007386826 1.176006 6331366
0.01148783 -0.0083353668 1.1740634 6989552
0.021497661 -0.0092892274 1.175115 6792432
0.03156038 -0.010238558 1.1751177 5937640
0.039935235 -0.010109998 1.1779093 5806054
0.050639924 -0.0098157674 1.1795965 5674725
0.05745073 -0.0093326718 1.18003 5674983
0.10274471 -0.016175695 1.1829953 5146841
0.10889447 -0.018843174 1.177686 5080789
-0.072944805 0.0075819865 1.1634992 4554184
-0.069634527 0.0081041977 1.1667138 4751049
-0.054648358 0.006956622 1.170692 4818129
-0.047202807 0.006250225 1.1703744 5015507
-0.037505586 0.0053359345 1.1675975 5147609
-0.027380109 0.004376173 1.1669531 5346018
-0.018006004 0.0031076223 1.1701821 5937898
-0.0077101085 0.0013806373 1.1710802 6462952
0.0028055985 0.0011313036 1.170867 8303605
0.012173646 0.00013610721 1.1704588 8501495
0.021926124 -0.0017740801 1.1702861 7252467
0.03315872 -0.0022937059 1.1718526 6069484
0.042295016 -0.0020668879 1.1733006 6135528
0.052106332 -0.0033773929 1.1770439 5741031
0.061351206 -0.0040551201 1.1792349 5543655
0.070827007 -0.0036500841 1.1808423 5477092
0.080951795 -0.0032788813 1.1814895 5739747
0.092226148 -0.0046005398 1.1822244 5280481
0.10137437 -0.008114174 1.1791408 5015513
0.10678867 -0.010614157 1.1771966 4949463
-0.065651357 0.013622425 1.1639179 4818122
-0.05618554 0.013721056 1.164525 5147606
-0.047483116 0.013642818 1.1650846 4818639
-0.039015714 0.011093214 1.1656494 5344472
0.0054299179 0.0074339211 1.168534 12971007
0.0098163141 0.006456323 1.1688238 12905215
0.034232322 0.0041378736 1.170411 5807584
0.047550153 0.0028732717 1.1712768 6004710
0.05366553 0.0032544434 1.1716664 5807083
0.062497575 0.0049074292 1.1743578 5477863
0.070742369 0.0036925599 1.177436 5542628
0.081980646 -0.00036373734 1.1815315 5673698
0.092761979 0.00057692826 1.1807131 5804766
0.098601803 -0.001974389 1.1745955 5147865
0.06636481 0.012308367 1.1724074 5412324
-0.023353804 -0.19213432 1.1803542 3039650
-0.017008157 -0.19338466 1.1807721 3039650
-0.042787042 -0.1823535 1.1790255 2842271
-0.036060009 -0.18299228 1.1794629 2973857
-0.025986668 -0.18504247 1.1813926 2973857
-0.016545318 -0.18769704 1.1832865 3039395
-0.0057241227 -0.18678287 1.1832238 3171237
0.0037011728 -0.18625477 1.1831123 3237030
0.014001023 -0.18667886 1.18425 3302569
0.022285275 -0.18760774 1.1845843 3237546
-0.061335403 -0.17006552 1.1777331 2908065
-0.053899106 -0.17174333 1.1782244 2973857
-0.045504972 -0.17431006 1.1797868 2973857
-0.036073957 -0.17711291 1.1815356 2973858
-0.028034739 -0.17870511 1.1839513 3105444
0.0034640529 -0.1816961 1.1859989 3237030
0.015231537 -0.18129687 1.1867514 3302825
0.024167556 -0.18168887 1.1870202 3171754
0.034019757 -0.18314865 1.1859692 3171752
0.044373486 -0.18370768 1.1860493 3171753
0.053077538 -0.18140325 1.1861767 3237546
0.061536036 -0.1797895 1.1857046 3303592
-0.071544945 -0.15959503 1.1769911 2908579
-0.06373845 -0.1625118 1.1795207 2908579
-0.054165591 -0.16489545 1.1810662 3105444
-0.04580855 -0.16746262 1.1827172 3105443
0.048194956 -0.17684381 1.1888318 3303339
0.056476463 -0.17534932 1.1880152 3303082
0.065152153 -0.17405957 1.1864623 3237545
0.071360126 -0.17165318 1.1862686 3303850
-0.079445943 -0.14750832 1.1763842 3302822
-0.073428571 -0.15239985 1.1790656 3040165
-0.066817984 -0.15682286 1.1812803 3040167
0.06030212 -0.16889367 1.189544 3303598
0.066763654 -0.1654961 1.1889877 3238061
0.075592339 -0.16426682 1.1875929 3303596
0.083533391 -0.1626063 1.1869758 3369131
-0.088165596 -0.13609965 1.1757302 3171751
-0.082216486 -0.14031103 1.1775616 3368615
-0.075870603 -0.14458853 1.180598 3171751
0.085862577 -0.15621945 1.188576 3369134
-0.089459896 -0.12889145 1.1755877 3369130
-0.083758876 -0.1313953 1.1789807 3434922
0.087796926 -0.14669085 1.1901726 3435183
-0.090445369 -0.12015776 1.1767886 3434923
0.091193065 -0.13988607 1.1904873 3501232
0.098245084 -0.13741043 1.1903068 3435694
0.10526429 -0.13632864 1.1881551 3501232
-0.09753783 -0.10829106 1.1759013 3369646
-0.092318952 -0.11255407 1.1779417 3435182
0.10273142 -0.12856117 1.1919367 3567282
0.10700041 -0.12843417 1.1900235 3567027
-0.10460734 -0.094860815 1.1743345 3501231
-0.10060076 -0.099183783 1.1773832 3435439
0.10348181 -0.12067012 1.1919199 3829686
0.10893312 -0.1183661 1.1904696 3829431
-0.10428683 -0.091490313 1.1743274 3501231
-0.099728987 -0.088664666 1.1762669 3567024
0.112085 -0.10924206 1.1910423 3830201
-0.10295135 -0.077446565 1.1742975 3632818
-0.099939391 -0.078452013 1.1765034 3698612
0.115236 -0.098884188 1.1904912 3896507
-0.10204323 -0.067896806 1.1742772 3633333
-0.098421484 -0.068431422 1.17732 3764919
0.11607106 -0.088710085 1.18996 4093886
-0.10165836 -0.05909092 1.1742294 3633334
-0.097763628 -0.058516197 1.1776814 3830201
0.11395186 -0.078839168 1.1904664 4291523
-0.096269503 -0.048312839 1.1761568 3896506
0.11449784 -0.068360545 1.1897917 4619975
-0.092109665 -0.039113708 1.1763959 4028348
0.10959217 -0.056414437 1.1917832 5146320
0.11384554 -0.059051387 1.1910759 4883148
-0.089420244 -0.029914565 1.1750613 3962814
-0.084508345 -0.029010333 1.1779461 3963072
0.10953832 -0.047545455 1.1902035 5146577
0.11325158 -0.049531996 1.1884542 5080527
-0.087177128 -0.021015137 1.1748458 4028607
-0.081010193 -0.019841522 1.17737 4291526
-0.031347767 -0.022556856 1.1824524 5147865
-0.023901612 -0.023036413 1.1829346 5344731
-0.0076164752 -0.023672804 1.1839858 5345501
-0.00086673349 -0.024313733 1.1844245 5739743
0.0091207046 -0.027506724 1.1837562 5936862
0.01809443 -0.028366417 1.1846737 5871068
0.028274946 -0.028218374 1.1863283 5739228
0.046381455 -0.028800227 1.1874961 5213656
0.10852143 -0.038527217 1.1899637 4949970
-0.078402117 -0.012609169 1.1753402 4422856
-0.069690585 -0.0086485893 1.177689 4686797
-0.059293304 -0.0085022002 1.1785377 4884690
-0.049197327 -0.010902472 1.180709 4950486
-0.03882876 -0.01265128 1.1805543 5213659
-0.030306499 -0.014641322 1.1792475 5279707
-0.020345466 -0.016728774 1.1803052 5345244
-0.01008662 -0.016063459 1.1808696 5411808
-0.00038424786 -0.018104002 1.1813071 5806052
0.0086532841 -0.022103705 1.1810094 6068964
0.020576842 -0.023613803 1.1817877 6068963
0.030714324 -0.022183001 1.183352 6003173
0.039222196 -0.02126278 1.1847695 5608417
0.049316477 -0.022229336 1.1860271 5411038
0.056024306 -0.022891037 1.1880667 5279709
0.10064907 -0.025365725 1.1900281 5212630
0.10602999 -0.029487282 1.1886604 5015248
-0.065361261 -0.0033612475 1.1761016 4949712
-0.058634225 -0.004000023 1.1765388 4949713
-0.048543677 -0.0049581826 1.1771947 5016279
-0.039236192 -0.0062198639 1.1778029 5213659
-0.030711759 -0.007785067 1.1783633 5345501
0.041657273 -0.014090121 1.1830631 5871590
0.050119486 -0.014326833 1.1836085 5871847
0.060392689 -0.013055377 1.186262 5543139
0.067719087 -0.012616247 1.1870153 5280225
0.091969952 -0.01492957 1.1903096 5411294
0.097822577 -0.016910605 1.1881511 5279196
0.070541292 -0.0077636689 1.1848661 5411556
0.080231518 -0.0069833398 1.185482 5412066
0.091443241 -0.0080479607 1.1862109 5477344
0.097956598 -0.010933734 1.1866529 5213404
-0.015474204 -0.18317989 1.1888033 3105189
-0.034974352 -0.17282242 1.1884676 3039906
-0.025566436 -0.17585896 1.1895263 3039908
-0.016326303 -0.17789859 1.1920453 3105447
-0.005547449 -0.17814733 1.190151 3105702
0.0036431183 -0.17776695 1.1899865 3171750
0.012609551 -0.17820336 1.1905659 3237289
0.024175581 -0.17743406 1.1913024 3237548
0.034334254 -0.17839867 1.1919628 3171752
0.043364186 -0.17925613 1.1925498 3171752
-0.061296459 -0.15881802 1.1856598 3039909
-0.053624462 -0.16027917 1.1870552 3105701
-0.045878485 -0.16367291 1.1892407 3105443
-0.036945857 -0.16993603 1.1913235 3040163
-0.0062813219 -0.17193171 1.1933094 3105960
0.0051494613 -0.17189744 1.1940433 3105958
0.014382072 -0.17125762 1.1938293 3237545
0.024882838 -0.17119128 1.1934061 3237547
0.034922183 -0.17183134 1.1935499 3237544
0.044936605 -0.17255384 1.1942834 3237545
0.053785939 -0.17139915 1.1938225 3303339
-0.071578249 -0.14836892 1.1849133 3172009
-0.063664094 -0.15229382 1.1878589 3105961
-0.05470157 -0.15536736 1.1900632 3171752
0.028687323 -0.16471705 1.1954958 3303337
0.035482481 -0.16536227 1.1959375 3303593
0.045605924 -0.16534203 1.1965876 3303594
0.05508082 -0.16361786 1.1959293 3303596
0.062177517 -0.16278177 1.1936225 3238062
-0.07810837 -0.13918911 1.1844183 3434409
-0.072752252 -0.14146259 1.1876104 3237547
-0.06476754 -0.1445999 1.189328 3237805
0.056647513 -0.15642971 1.1972233 3238318
0.066233143 -0.15439616 1.1966999 3238572
0.076419115 -0.15515153 1.1956768 3434926
0.083011374 -0.15517317 1.1948979 3369134
-0.079657808 -0.12996659 1.1854762 3435179
-0.074092388 -0.1325096 1.1881841 3369388
0.071400821 -0.14816068 1.1981027 3500977
0.077384993 -0.14517608 1.1974604 3435186
0.082997531 -0.14573711 1.1948192 3500720
-0.087085932 -0.11847083 1.1846732 3566511
-0.081800178 -0.12186121 1.1867107 3566767
-0.074964181 -0.12510143 1.1885126 3500977
0.079530001 -0.13771129 1.1980377 3501234
0.087774858 -0.13604727 1.1957978 3501490
-0.095306486 -0.10445839 1.1830277 3566770
-0.089190856 -0.10963759 1.1860685 3632306
-0.083161026 -0.1151621 1.1879042 3632563
0.090267256 -0.1275768 1.1977302 3699127
0.097919926 -0.12701502 1.196095 3633076
-0.096042171 -0.098772697 1.1839358 3566770
-0.090353683 -0.10020909 1.1873192 3763892
0.091922775 -0.11861841 1.1991774 3633335
0.098920733 -0.11708382 1.1971647 3764407
-0.095334202 -0.088710383 1.1857021 3698868
-0.091153324 -0.089719377 1.1871814 3699126
0.093622223 -0.10675596 1.1991888 3962811
0.10018557 -0.1074705 1.1984472 3830969
0.10802136 -0.10843956 1.1961192 3830714
-0.095437303 -0.078703731 1.1837322 3699126
-0.090457693 -0.079733774 1.1871438 3830712
0.10178474 -0.097636029 1.1990367 4028606
0.11010279 -0.098528557 1.1961713 3962300
-0.094006255 -0.069309913 1.1844251 3830970
-0.089260414 -0.069432281 1.1871358 3962813
0.10287377 -0.08863885 1.1996338 4291522
0.11097619 -0.089001417 1.1965133 4094399
-0.093359903 -0.059256706 1.1844983 3962044
-0.088689789 -0.059998278 1.1870948 4093630
0.10548167 -0.078094095 1.1994473 4554438
0.11046468 -0.07932388 1.1960363 4357059
-0.091764957 -0.049320057 1.1841371 4093886
-0.087317854 -0.049004473 1.1870924 4291009
0.10469918 -0.067429051 1.1986856 4686026
0.11087991 -0.068113372 1.1959707 4685769
-0.089390695 -0.042248696 1.1828953 4159935
-0.084371015 -0.04023958 1.1860642 4225985
0.098370716 -0.056821346 1.1990826 5015248
0.10446848 -0.058686174 1.1968174 5014991
-0.08039777 -0.030755982 1.1855003 4292037
-0.075390771 -0.033450913 1.1877303 4619977
-0.052092716 -0.028792448 1.1891882 5279449
-0.044165038 -0.029545233 1.1897036 5016538
-0.031815171 -0.031863049 1.1905159 4950743
-0.022513948 -0.034430269 1.1911343 4950488
-0.013461143 -0.03513271 1.1917216 5147351
-0.0029897196 -0.03517276 1.1923944 5278422
0.007347892 -0.038481236 1.1921948 5212886
0.016756404 -0.038710836 1.1919382 5278423
0.026711341 -0.038813908 1.1930794 5147094
0.037422899 -0.040237095 1.1950316 4885460
0.04703689 -0.039640728 1.1949154 4950741
0.056090426 -0.039981183 1.1962284 5016279
0.097913131 -0.046883065 1.1975684 5212370
0.10531783 -0.048753787 1.195454 5212369
-0.077662349 -0.024017252 1.1855025 4423370
-0.075274512 -0.02103544 1.1852305 4554187
-0.051136546 -0.023838624 1.1889416 5147610
-0.04116248 -0.024056844 1.187847 5081818
-0.032331333 -0.027180396 1.18844 5016538
-0.021125944 -0.026801042 1.1892902 5278938
-0.012021944 -0.027056322 1.1898769 5344730
-0.001635164 -0.028927296 1.1894906 5673948
0.0083808377 -0.032130599 1.1890913 5805277
0.017410768 -0.032988045 1.1896783 5541848
0.027677003 -0.032821573 1.1903363 5475544
0.038050789 -0.03152404 1.1909919 5213397
0.048531681 -0.033143595 1.1923857 5082070
0.058124702 -0.033265684 1.1947005 5016536
0.067108005 -0.031931788 1.1968697 5213915
0.077878609 -0.031972997 1.1975619 5279453
0.088707671 -0.033459321 1.1982696 5213659
0.097909287 -0.037269413 1.1972886 5212628
0.10464653 -0.037847705 1.1953211 5146833
-0.074285552 -0.015150554 1.1836423 4554443
-0.049055398 -0.015720233 1.1852673 5016281
-0.041917499 -0.017311051 1.1857388 5147611
-0.011076029 -0.021152668 1.1877513 5411294
0.059712421 -0.023309268 1.1923155 5148123
0.068364576 -0.024135001 1.1930783 5213915
0.078214496 -0.02529785 1.1952628 5213917
0.08886981 -0.026242271 1.1965328 5213659
0.096786037 -0.028738715 1.1950753 5212887
0.090457559 -0.019380905 1.1942576 5279708
0.094972521 -0.019809626 1.1945511 5411037
-0.031740237 -0.17116587 1.1966784 3106213
-0.02605395 -0.17170581 1.1970481 3105959
-0.014905779 -0.1734215 1.1977782 3105706
-0.0044460762 -0.17375761 1.1984527 3105960
-0.041893952 -0.16330226 1.1959616 3105700
-0.034679577 -0.16524181 1.1971924 3105957
-0.025576796 -0.16610616 1.1977842 3106216
-0.015399653 -0.16719224 1.1992986 3106217
-0.0047678016 -0.16768447 1.1998137 3171752
0.0031468002 -0.16794035 1.1999857 3303337
0.014617002 -0.16636848 1.1996162 3369130
0.021440538 -0.16701642 1.2000598 3369132
-0.053373728 -0.15094805 1.1954566 3171753
-0.044143997 -0.15424597 1.1984682 3171752
-0.034078743 -0.15548195 1.2012092 3172010
-0.025135696 -0.15761496 1.2027531 3172012
-0.01517502 -0.15814221 1.2041943 3237802
-0.0044752182 -0.15845382 1.2043375 3303338
0.0046531423 -0.1593485 1.2051315 3369133
0.015033218 -0.1601015 1.2040808 3369388
0.025178252 -0.16072845 1.2040455 3303853
0.034645379 -0.16044967 1.2026075 3369643
0.044860527 -0.16061272 1.2017469 3303851
-0.069863811 -0.13764818 1.1939539 3303598
-0.062185321 -0.14121576 1.1961943 3303341
-0.054061819 -0.14373296 1.2001725 3303340
-0.045097895 -0.14602889 1.2036303 3369132
-0.037158553 -0.14867698 1.204162 3303600
-0.0039586071 -0.15182951 1.2063203 3303598
0.0086344779 -0.1530253 1.2071389 3435186
0.016075844 -0.1537319 1.2076226 3369391
0.025806863 -0.1546559 1.2082552 3369392
0.035871234 -0.15268345 1.2082686 3369390
0.045708861 -0.1525459 1.2053072 3435184
0.055431217 -0.15184551 1.2021179 3369392
-0.070198208 -0.13057941 1.1946759 3369646
-0.063641563 -0.13353024 1.1999314 3303853
-0.056892674 -0.13754261 1.2028029 3173034
0.03853137 -0.14475158 1.2089908 3566773
0.046830516 -0.14422469 1.2088515 3566516
0.056944527 -0.14329562 1.2065539 3500977
0.066909403 -0.14489949 1.2044857 3500975
-0.079115599 -0.11771405 1.1931956 3632562
-0.070778966 -0.12159264 1.1967692 3501236
-0.063623428 -0.12244819 1.2018009 3501494
0.059784904 -0.13444169 1.210271 3698612
0.067421913 -0.13550881 1.2084017 3567283
0.07663092 -0.13393176 1.2062714 3567283
0.084479243 -0.13160563 1.2038168 3501747
-0.085350648 -0.10742989 1.1927104 3895478
-0.080205768 -0.11046691 1.1955711 3698613
-0.071733236 -0.11222938 1.2003051 3633080
0.061843213 -0.12798117 1.2103499 3699128
0.068662018 -0.1254231 1.2107668 3830713
0.078194693 -0.12593973 1.2101808 3699126
0.08554104 -0.12526694 1.2038327 3633333
-0.085891783 -0.099329151 1.192609 3961271
-0.079553232 -0.10038646 1.1980352 3896247
-0.073300123 -0.10357288 1.2014693 3764921
0.069214255 -0.11849454 1.2107452 3962300
0.080274478 -0.11702177 1.2109718 3896506
0.08830142 -0.11588606 1.205937 3764920
-0.086459532 -0.089912057 1.1939981 3830712
-0.079936996 -0.090098813 1.199596 4093627
0.084217638 -0.10649148 1.21161 4028352
0.08997564 -0.10643659 1.2066348 3962812
-0.085912377 -0.079600096 1.1944493 3962556
-0.079981968 -0.081295818 1.2004113 4028606
0.084679246 -0.096084185 1.2115538 4357317
0.091287926 -0.096907824 1.2079767 4225985
0.097261921 -0.093722507 1.2043258 4225985
-0.084571093 -0.070678249 1.1944619 4028606
-0.080240086 -0.071273863 1.2007576 4094655
0.085963115 -0.088136241 1.2115709 4554695
0.092260033 -0.086573504 1.2073528 4554182
0.0988148 -0.085437298 1.2043573 4619462
-0.084142566 -0.060020763 1.1928691 4159424
-0.076530665 -0.059742656 1.1996676 4160448
-0.07019034 -0.058723263 1.2012997 4554440
0.087686509 -0.074872166 1.2115723 4620747
0.093269855 -0.076428384 1.209689 4686026
0.099916384 -0.077875838 1.2043657 4619977
-0.08258152 -0.050462767 1.1924191 4291265
-0.074908316 -0.051191777 1.1981789 4357573
-0.069535792 -0.051840041 1.201285 4751563
0.004369217 -0.056156784 1.2060671 4818903
0.012074117 -0.056116696 1.2065616 4819160
0.086662084 -0.066208929 1.2114352 4752590
0.094138592 -0.067267589 1.2096694 4817869
0.099537715 -0.069790527 1.2042748 4752076
-0.079699501 -0.041107528 1.1925271 4291778
-0.073908731 -0.040945888 1.1964842 4554440
-0.068772137 -0.043809623 1.201268 4883149
-0.04937749 -0.038553704 1.1984619 5674209
-0.043672282 -0.039095446 1.1988328 5082331
-0.032771278 -0.042978708 1.2014354 4950745
-0.023519121 -0.045606188 1.1995795 4884953
-0.014377866 -0.046465445 1.1999732 4753366
-0.0040895268 -0.046338137 1.2018354 4884692
0.0063289078 -0.048959255 1.2016799 4884692
0.015058124 -0.049061153 1.2028978 4884692
0.02514419 -0.048817839 1.2060049 4950484
0.036035705 -0.050810385 1.2049392 4950488
0.044718973 -0.051371679 1.2064971 4950489
0.055326343 -0.050922673 1.2082279 5411037
0.06420508 -0.051516954 1.2098719 5542623
0.078420117 -0.050841026 1.2107792 5213404
0.085874945 -0.054442815 1.2112877 5081558
0.094071001 -0.057476833 1.209434 5015248
-0.073509783 -0.031181827 1.1928428 4685772
-0.051454324 -0.032807793 1.195366 5542365
-0.042563185 -0.033833142 1.1959975 4951002
-0.033879567 -0.035691645 1.1954253 4884951
-0.024855461 -0.03843021 1.1960274 4753366
-0.011100009 -0.038586464 1.1969122 4950484
-0.0023133634 -0.039708279 1.1974857 5015763
0.027458346 -0.043397713 1.1994282 5015764
0.034281883 -0.044045649 1.1998718 4885461
0.046234738 -0.044195011 1.2006407 4884950
0.056935903 -0.044138815 1.2031775 5082072
0.066169418 -0.043865256 1.2067283 5542624
0.075423494 -0.045901913 1.2097445 5279197
0.085806608 -0.045639448 1.2076032 5213144
0.093112394 -0.048865348 1.2036898 5212627
0.061305761 -0.037412457 1.2015527 5016538
0.067154601 -0.036242977 1.2019187 5213917
0.076866537 -0.034673713 1.2025295 5345245
0.086887777 -0.037944093 1.2038682 5213917
0.17682123 -0.048609171 1.2170806 13158081
-0.02512385 -0.15265442 1.2089761 3303598
-0.012489138 -0.15385416 1.2097975 3303850
-0.052372701 -0.1393822 1.2071167 3303853
-0.04284016 -0.14188991 1.2081076 3304111
-0.033644892 -0.14488778 1.2104746 3303857
-0.024698272 -0.14606217 1.211705 3303856
-0.014357073 -0.14707515 1.212628 3369903
-0.0036826935 -0.14656065 1.2103029 3435441
0.0052384199 -0.14832467 1.2108905 3435187
0.015708232 -0.14867845 1.2115659 3500978
0.026181176 -0.1493964 1.2122444 3369649
0.032996345 -0.14841761 1.212674 3435441
-0.059781749 -0.13116837 1.2065732 3370159
-0.05334593 -0.13255374 1.206998 3370416
-0.043227188 -0.1337738 1.2099127 3436469
-0.033127263 -0.1350513 1.2133276 3502005
-0.023900531 -0.13592742 1.2139274 3501749
-0.013850175 -0.14038028 1.2146096 3501493
-0.0030567236 -0.13775867 1.2140286 3567542
0.0061057745 -0.13873971 1.2155646 3567541
0.016539708 -0.13959131 1.2150517 3633333
0.027016733 -0.14029026 1.2131625 3567541
0.035686135 -0.1403825 1.2127806 3633079
0.04586447 -0.13915384 1.2134242 3632566
-0.059361961 -0.12269136 1.2065305 3501750
-0.052735996 -0.12358726 1.2094686 3567798
-0.044605266 -0.12490113 1.2125069 3633848
-0.031424403 -0.12938213 1.2133902 3633591
-0.024504356 -0.13003923 1.2138401 3699128
-0.0024809698 -0.13096431 1.2152622 3830714
0.0078991 -0.13194996 1.215937 3764921
0.01742545 -0.1319004 1.2165484 3830712
0.028021978 -0.13198863 1.2168717 3830713
0.03672374 -0.13251409 1.2171248 3830458
0.047136206 -0.13323961 1.2158306 3764409
0.055469114 -0.13249221 1.2145429 3764407
-0.067292258 -0.11102128 1.205925 3698874
-0.060929205 -0.11230815 1.208599 3764923
-0.052668415 -0.11378241 1.2118974 3765435
-0.046691943 -0.11860301 1.2123209 3699641
0.046344236 -0.12743735 1.2183689 3896252
0.05699769 -0.12396579 1.2164 3831226
0.064524427 -0.12400261 1.2144978 3830458
-0.069071978 -0.10136305 1.2065222 3896508
-0.060256626 -0.10215473 1.2113143 4028352
-0.052479852 -0.10359289 1.2118256 4094143
0.05925921 -0.11423182 1.2155107 4159936
0.06873291 -0.1138723 1.2146847 4028352
0.076845273 -0.11326832 1.2152007 3962559
-0.076042548 -0.090911336 1.2051973 4093628
-0.069239125 -0.091620341 1.2063917 4028352
-0.059341345 -0.092887223 1.2109836 4094401
-0.052534152 -0.091926008 1.211726 4225986
0.061442513 -0.10521844 1.2177892 4357317
0.069809332 -0.10499161 1.217499 4225732
0.078812018 -0.10538342 1.2152621 4159938
-0.076104537 -0.081116602 1.2051127 4028609
-0.06807217 -0.081949309 1.2070019 3963330
-0.059037644 -0.082857147 1.2112336 4160708
-0.052951261 -0.086522013 1.2116547 4292035
0.065239042 -0.091914013 1.2192899 4620236
0.070485793 -0.095159009 1.2182617 4488649
0.079075024 -0.096617572 1.2152067 4357318
-0.076283723 -0.070813008 1.2050164 4160449
-0.067991987 -0.071770728 1.2092601 4160708
-0.058849078 -0.072667614 1.2111619 4489161
0.072445527 -0.08602614 1.2186306 4555212
0.08103919 -0.085619017 1.2152424 4620489
-0.16735053 -0.053501852 1.2040355 14082013
-0.074217901 -0.063598402 1.2050896 4226242
-0.066110715 -0.062063079 1.2081028 4620234
-0.059027847 -0.060677942 1.2110516 5079759
-0.025159873 -0.06350518 1.21325 6791922
-0.016976586 -0.063116059 1.2137724 5608162
-0.0065965168 -0.064101711 1.2144471 5016279
0.0033536321 -0.067091487 1.2137444 5608413
0.011801989 -0.066431843 1.2156481 4950485
0.018776987 -0.066511072 1.2160966 5016277
0.076114327 -0.075454116 1.2198528 4752847
0.082185566 -0.076048598 1.2170055 4620747
-0.065840557 -0.053143051 1.2065436 4948687
-0.055970367 -0.057081025 1.2112184 5408980
-0.034126423 -0.056012217 1.2106854 6134248
-0.025441408 -0.056359995 1.2106678 5344990
-0.016605185 -0.057383671 1.2116017 4884696
-0.0055192877 -0.05847979 1.2124069 4818902
0.0049419533 -0.060740024 1.2101501 4818646
0.014067866 -0.060516488 1.2114501 4818646
0.02408636 -0.061023895 1.2131356 4884696
0.034151524 -0.061483189 1.2138216 5344733
0.043366451 -0.062339835 1.2140627 5936870
0.05290198 -0.062714741 1.217422 5608416
0.061967287 -0.062682278 1.2188389 5082072
0.07480213 -0.064685382 1.2166735 5016278
0.081089422 -0.066809289 1.2150906 4884178
-0.033869743 -0.049621738 1.2075658 5082331
-0.0051544849 -0.05234842 1.2094325 4687574
0.017817723 -0.054529767 1.2109259 4687574
0.025756454 -0.054619942 1.2114365 4819159
0.032749657 -0.055947643 1.2118965 4950233
0.04538437 -0.057147384 1.2127179 5542369
0.054184373 -0.056692567 1.2132794 5805540
0.067153454 -0.055730321 1.2141043 5213659
0.074427992 -0.056421086 1.2145772 5147866
0.083051592 -0.059175592 1.2151538 5081557
-0.013710916 -0.13618714 1.2185923 3633335
-0.040058754 -0.12304889 1.2167919 3699641
-0.032626294 -0.12420513 1.2172787 3765177
-0.023095027 -0.12528226 1.2195504 3830714
-0.013042632 -0.12719488 1.2214472 3962299
-0.0022390652 -0.12564521 1.2199104 4028092
0.0064713727 -0.12726875 1.2201014 3962300
0.015928946 -0.12780207 1.2211556 3962299
0.025453333 -0.12739515 1.2232621 3962299
0.038018826 -0.12752719 1.2218434 3896509
0.047782782 -0.12798633 1.2224742 3830714
-0.048754174 -0.11179959 1.2161407 3962813
-0.042515632 -0.11412591 1.2183422 3962813
-0.031891324 -0.11635134 1.2212697 4028350
-0.022910718 -0.11933832 1.2218711 4093886
-0.015945258 -0.11999973 1.2223239 4093886
-0.0016824622 -0.1178326 1.2232221 4291263
0.0076048207 -0.11871448 1.2238258 4291265
0.0168921 -0.11959636 1.2244296 4291265
0.027340291 -0.12058848 1.2251087 4225471
0.037867442 -0.12134135 1.2232858 4159424
0.047176979 -0.12207882 1.2223866 4028351
-0.049029179 -0.10241349 1.2160459 4159681
-0.043881927 -0.10465579 1.21931 4159937
-0.00090808515 -0.10968935 1.2232047 4685507
0.0086998791 -0.10966263 1.2238216 4685766
0.017522795 -0.11050042 1.2243952 4685768
0.02946157 -0.11171944 1.2251719 4685254
0.038680881 -0.11225136 1.225518 4553924
0.0480523 -0.1128239 1.2226171 4357059
0.054065261 -0.11103292 1.222738 4291524
-0.049273957 -0.094421335 1.2162983 4291267
-0.043625962 -0.09406314 1.2195308 4291525
0.010203859 -0.10370155 1.2238691 5080013
0.017169319 -0.10436296 1.224322 5013964
0.032703653 -0.10114273 1.225293 5014215
0.039669111 -0.10180414 1.2257459 4948424
0.048974518 -0.10261943 1.2255485 4686025
0.056703195 -0.10275364 1.2244426 4554696
-0.055144299 -0.080772854 1.2154748 4423366
-0.049974136 -0.083428115 1.2176994 4489158
-0.044413578 -0.086777046 1.2202219 4554697
0.033699274 -0.090672851 1.2252707 6725605
0.040874794 -0.091588974 1.2257392 5541334
0.049952015 -0.092216142 1.2263273 4949456
0.059857916 -0.094324633 1.2254539 4752076
-0.055419307 -0.07138674 1.2153798 4751821
-0.050020233 -0.073244862 1.2184142 4817612
-0.02429026 -0.072254322 1.2213948 6133729
-0.021968439 -0.072474793 1.2215457 5804510
0.0023369212 -0.075565279 1.2231321 6726116
0.010537042 -0.075561374 1.2236587 6791913
0.023307055 -0.076773971 1.2244889 5673696
0.03165438 -0.080696799 1.2250572 5344728
0.042710651 -0.082137927 1.2257793 5475805
0.050837021 -0.082909577 1.2263075 5147095
0.061298169 -0.083825126 1.2257844 4949712
0.070294216 -0.081568986 1.2235377 4621777
0.1777081 -0.091435261 1.234526 11781308
-0.057182226 -0.065369353 1.2152171 4883150
-0.048127171 -0.064279191 1.2157897 6001884
-0.037180308 -0.063758656 1.2164885 6133474
-0.026008461 -0.0677251 1.218842 6067939
-0.018111967 -0.067763135 1.2188393 6594284
-0.0070391931 -0.067538194 1.2195486 6002915
0.0036164103 -0.071844541 1.2191752 6857704
0.012724938 -0.070683129 1.2204187 6397928
0.021846514 -0.070879951 1.2222087 6397674
0.030774271 -0.071915217 1.223325 6002659
0.042690288 -0.072764695 1.2246318 5476060
0.051760044 -0.073508471 1.2245357 5213402
0.06206869 -0.075710505 1.2261679 5081814
0.072339371 -0.075633973 1.2242368 4818898
0.18108054 -0.086766735 1.2347041 12896707
0.036159661 -0.066042729 1.2212175 6331369
0.045416664 -0.066921741 1.2218193 5805025
0.052359413 -0.067580998 1.2222706 5213658
0.063385829 -0.067588024 1.2229788 5213658
0.071655914 -0.06847731 1.2235173 5082070
