# .PCD v0.7 - Point Cloud Data file format
VERSION 0.7
FIELDS x y z rgba
SIZE 4 4 4 4
TYPE F F F U
COUNT 1 1 1 1
WIDTH 174
HEIGHT 1
VIEWPOINT 0 0 0 1 0 0 0
POINTS 174
DATA ascii
-0.13302013 -0.21033379 0.8776682 5134174
-0.12702976 -0.21326059 0.87577289 5134176
-0.13213462 -0.20636898 0.88004065 4871515
-0.14581786 -0.22650321 0.87636817 4936281
-0.13656005 -0.23108293 0.87340504 5199967
-0.13188952 -0.23224729 0.87260145 5397348
-0.1517451 -0.21885879 0.88075745 4673880
-0.14453188 -0.22014582 0.87758517 4870232
-0.13534744 -0.22273508 0.87666219 5068382
-0.12583755 -0.22505014 0.87569678 5068384
-0.1178757 -0.2261408 0.87598133 4476504
-0.14941658 -0.21027923 0.88428599 4607822
-0.14266406 -0.21126223 0.8819893 4673623
-0.13236022 -0.21450156 0.879812 5134174
-0.12211481 -0.21625522 0.87853217 4739419
-0.11470084 -0.21897702 0.87823147 4081746
-0.14713921 -0.20420626 0.88984668 4410445
-0.13888885 -0.20376652 0.88642901 4213839
-0.12886737 -0.20580655 0.88498127 4345429
-0.11934119 -0.20855096 0.8831194 4016211
-0.11162458 -0.21137506 0.88259637 3621193
-0.13672608 -0.19943747 0.8889935 3884109
-0.12745306 -0.20087092 0.88792789 3752784
-0.11749212 -0.20341477 0.88617754 3621192
-0.11082764 -0.2060515 0.88444263 3686459
-0.15718921 -0.23990245 0.88071305 4673626
-0.14972821 -0.24112494 0.87649626 4870741
-0.14129394 -0.24436618 0.87457383 5265754
-0.13143986 -0.24632195 0.87349278 5397604
-0.12241654 -0.2476375 0.87596112 4608350
-0.15559894 -0.2302224 0.88192892 4673629
-0.14807212 -0.23236787 0.87794083 4870744
-0.14044341 -0.23550221 0.87549549 5134174
-0.12803563 -0.2371431 0.87499863 5397606
-0.11979651 -0.24062708 0.87758464 4476760
-0.11258913 -0.23992305 0.88040167 4015442
-0.15976444 -0.22408852 0.89097553 3883351
-0.15652344 -0.22222328 0.88595653 4475995
-0.12526917 -0.23166366 0.87748218 5068641
-0.11553085 -0.23229036 0.87929076 4082513
-0.1094102 -0.23506975 0.88267636 3752531
-0.15480193 -0.21309695 0.8900227 4079443
-0.11099397 -0.2249905 0.88295031 3621705
-0.1072955 -0.22962019 0.88369846 3751503
-0.11035417 -0.2175992 0.88564289 3490378
-0.15126418 -0.26366207 0.87976837 5002588
-0.14820765 -0.26444268 0.87923133 5528419
-0.15861556 -0.25317997 0.88625067 4739163
-0.15259108 -0.25578713 0.88110822 5002333
-0.14360952 -0.25832665 0.87931681 5397092
-0.13418534 -0.25960925 0.87992412 5332066
-0.12805052 -0.26098579 0.88087976 4740695
-0.15889952 -0.24685372 0.8839407 4082256
-0.15263128 -0.24859282 0.88071173 5068120
-0.13055114 -0.25477946 0.87883753 5200736
-0.1216714 -0.25512666 0.88093102 4345175
-0.1142798 -0.25645623 0.8826462 4278096
-0.11636405 -0.24630031 0.88230991 4147028
-0.11182533 -0.24997061 0.88476795 3819087
-0.10985291 -0.24181402 0.88527554 3687502
-0.14771825 -0.28088596 0.88215041 5528423
-0.14344373 -0.28149489 0.8816905 5397348
-0.15534492 -0.26915762 0.88316083 4804702
-0.14635646 -0.27134019 0.88097239 5462626
-0.13713421 -0.27444118 0.88191521 5003105
-0.12833811 -0.27398077 0.88309252 4804440
-0.16110046 -0.25934717 0.89076078 3817824
-0.1565804 -0.26180953 0.88450527 4673622
-0.14125691 -0.2657229 0.88181263 5660265
-0.13373913 -0.26624843 0.8813327 5069150
-0.12423935 -0.26717579 0.88290358 4475986
-0.1177721 -0.26498264 0.88408637 4014924
-0.11970817 -0.26163971 0.88380873 4606547
-0.11350137 -0.26129985 0.88446325 3620428
-0.15586111 -0.28850842 0.88590521 4079956
-0.14988683 -0.28974798 0.88235819 5266270
-0.14411634 -0.29199356 0.88354838 5002845
-0.15682347 -0.28170899 0.8876915 4079963
-0.15035585 -0.28466514 0.88343209 5330781
-0.13961393 -0.28625959 0.88416135 5002331
-0.13472614 -0.28129968 0.88512349 5001816
-0.12987287 -0.28059736 0.88684362 4540755
-0.12360118 -0.27542859 0.88842398 4213074
-0.15303998 -0.30491975 0.88996118 5265766
-0.15300642 -0.29945302 0.88992077 5068639
-0.14420974 -0.29997119 0.88886136 4214103
-0.15905795 -0.28965002 0.88995808 1580089
-0.13826562 -0.29366046 0.88786709 4145996
-0.13395345 -0.28923732 0.8896631 4212054
-0.15943193 -0.30576566 0.89309347 3618132
-0.15451217 -0.30800635 0.89163524 5199718
-0.14789453 -0.30871212 0.89106607 4214875
-0.16677839 -0.36575854 0.87575281 528927
-0.1620841 -0.36755612 0.87456673 1517876
-0.16563001 -0.38166502 0.88014954 4419983
-0.17809774 -0.37134039 0.88431156 1651559
-0.17272562 -0.37041539 0.88108212 1782104
-0.16194227 -0.37434307 0.87601799 4154236
-0.15593868 -0.37477848 0.88008887 3028033
-0.16775498 -0.36801642 0.88842863 2369321
-0.1603826 -0.36814809 0.88398451 2040105
-0.16207559 -0.35022005 0.89436835 4146252
-0.17908128 -0.38062111 0.89041501 5077683
-0.17335767 -0.38371423 0.88686776 4617364
-0.16446556 -0.38632345 0.8851012 4549258
-0.15786168 -0.38181332 0.88456392 6582660
-0.1767529 -0.36889631 0.89276499 7695014
-0.16828388 -0.36804888 0.89387137 2040625
-0.16019395 -0.36867431 0.8925401 2172202
-0.1551936 -0.3744022 0.88897657 2760198
-0.17712645 -0.39574608 0.89059341 4683677
-0.17168204 -0.39713651 0.88963675 3831442
-0.18239759 -0.38763845 0.89426339 3299734
-0.17634287 -0.39044601 0.89080036 4683420
-0.16828549 -0.39343706 0.88992584 3960460
-0.20499527 -0.46056205 0.86728394 3829135
-0.19708788 -0.46214956 0.86615497 4223637
-0.19127391 -0.46403676 0.86489064 3960467
-0.20300272 -0.45266467 0.87200457 3498881
-0.19482669 -0.45413774 0.8704716 3895695
-0.18692562 -0.455167 0.87014675 3631246
-0.1996448 -0.44195992 0.87488496 3499128
-0.19296011 -0.44438601 0.87327665 4025235
-0.18423465 -0.44670889 0.87385565 3499655
-0.19632961 -0.43337572 0.87765521 3826560
-0.18989685 -0.43531492 0.87693006 4156303
-0.18240339 -0.43900061 0.87746453 3630985
-0.19323193 -0.42717317 0.88483369 3893387
-0.18686618 -0.4277212 0.88254821 4157333
-0.17965676 -0.43016219 0.88332051 3762828
-0.18906747 -0.42166096 0.89040452 3762325
-0.18293384 -0.4190498 0.88756394 4420507
-0.17700234 -0.4219088 0.88843626 3828877
-0.18608162 -0.41002867 0.89735663 4222878
-0.17983632 -0.41136038 0.8920573 4552347
-0.17399029 -0.4147273 0.89332592 3631755
-0.18551821 -0.40021402 0.89672375 3627913
-0.1778052 -0.40266275 0.89266551 4683676
-0.17052987 -0.40487075 0.89460933 3892613
-0.16735122 -0.3969357 0.89550424 3563127
-0.20933881 -0.47105137 0.86739165 3033484
-0.20162976 -0.47513452 0.86755902 2897991
-0.19177976 -0.47667962 0.86584097 3891064
-0.18431666 -0.47876251 0.86636955 2638186
-0.21052618 -0.46186781 0.87128842 666715
-0.20077761 -0.46637085 0.86836082 4813457
-0.18693031 -0.46726462 0.86752164 3499654
-0.17997546 -0.47082159 0.86952865 3561592
-0.20778933 -0.45235163 0.8769694 6722
-0.18423702 -0.4594028 0.87220567 3694979
-0.17785081 -0.46183127 0.87293851 3233144
-0.17965606 -0.45124584 0.8770268 3104639
-0.17512143 -0.45402259 0.87897009 2640231
-0.17744862 -0.44310451 0.88188994 2907007
-0.17323817 -0.44661769 0.88498884 3099492
-0.19525118 -0.42757308 0.89164454 4089741
-0.17499027 -0.43532383 0.88694727 3496061
-0.17045438 -0.43785483 0.89074534 4278874
-0.19065079 -0.42149371 0.89521199 2972810
-0.17254443 -0.42718664 0.89297843 3757171
-0.16916174 -0.43090081 0.89491212 3748927
-0.18783808 -0.41703045 0.89784336 3630740
-0.16982691 -0.42059386 0.89530361 3953004
-0.20398848 -0.48277694 0.86904639 984897
-0.19282833 -0.48214704 0.86918449 4350584
-0.17588539 -0.46529943 0.87975883 4674411
-0.17338386 -0.45949632 0.88593066 6974583
-0.17178029 -0.44996393 0.89164603 3815753
-0.19901611 -0.43184674 0.89966053 5799072
-0.16820945 -0.44075829 0.89361745 5064001
-0.17731565 -0.47660363 0.8873769 7039097
-0.1758496 -0.4723047 0.89110637 7565430
-0.17395633 -0.46484786 0.89517409 8223350
-0.17186928 -0.45558339 0.89526653 9076613
