# .PCD v0.7 - Point Cloud Data file format
VERSION 0.7
FIELDS x y z rgba
SIZE 4 4 4 4
TYPE F F F U
COUNT 1 1 1 1
WIDTH 174
HEIGHT 1
VIEWPOINT 0 0 0 1 0 0 0
POINTS 174
DATA ascii
-0.12032901 -0.19930974 0.88536823 5134174
-0.11440846 -0.20229733 0.88335228 5134176
-0.11935167 -0.19554684 0.8880173 4871515
-0.13361895 -0.21492153 0.88280475 4936281
-0.12447035 -0.21959271 0.87965131 5199967
-0.1198283 -0.22085349 0.87882847 5397348
-0.13936165 -0.20740148 0.88763225 4673880
-0.13214752 -0.20870757 0.88446987 4870232
-0.12303838 -0.21153024 0.88348699 5068382
-0.11359455 -0.21408737 0.88248456 5068384
-0.1056769 -0.21545741 0.88279343 4476504
-0.13681103 -0.19916327 0.89176846 4607822
-0.13006045 -0.20021053 0.8894946 4673623
-0.11983499 -0.20363313 0.88722992 5134174
-0.10963343 -0.2056334 0.88596141 4739419
-0.1023071 -0.20857203 0.88556802 4081746
-0.13442199 -0.19356099 0.8977598 4410445
-0.12611228 -0.19316287 0.89448375 4213839
-0.11614124 -0.19542988 0.89302534 4345429
-0.10668172 -0.19835471 0.89109945 4016211
-0.099052921 -0.20139022 0.89048105 3621193
-0.12384962 -0.18909203 0.89736527 3884109
-0.11461271 -0.19075541 0.89632022 3752784
-0.10471391 -0.19350223 0.89452475 3621192
-0.09811271 -0.19623375 0.89269704 3686459
-0.14547765 -0.22820197 0.88607991 4673626
-0.13799842 -0.22938091 0.88188308 4870741
-0.12964518 -0.23276095 0.87984914 5265754
-0.11984414 -0.23496333 0.87876016 5397604
-0.1109051 -0.23674116 0.88124549 4608350
-0.14359537 -0.21868484 0.88797516 4673629
-0.13608336 -0.22080183 0.88394415 4870744
-0.12852405 -0.22401312 0.88138574 5134174
-0.11616941 -0.22602564 0.88093305 5397606
-0.10808547 -0.22994775 0.88337755 4476760
-0.1009015 -0.22967546 0.88632619 4015442
-0.14769462 -0.21304582 0.89736742 3883351
-0.14432174 -0.21095183 0.89252877 4475995
-0.11326529 -0.22082213 0.88382018 5068641
-0.10357983 -0.22189185 0.88570338 4082513
-0.097602203 -0.22509575 0.88896722 3752531
-0.14236811 -0.20218493 0.8972311 4079443
-0.098865271 -0.21501161 0.88991034 3621705
-0.095328845 -0.21980114 0.89038622 3751503
-0.098028153 -0.20784566 0.89311022 3490378
-0.14030556 -0.25202525 0.88358599 5002588
-0.13726811 -0.25286812 0.883035 5528419
-0.14741124 -0.24177082 0.89067775 4739163
-0.14139844 -0.24422005 0.88544476 5002333
-0.13247767 -0.24692738 0.88359636 5397092
-0.12310952 -0.24855907 0.8842324 5332066
-0.11703685 -0.25019941 0.88516837 4740695
-0.14745776 -0.23529625 0.88880271 4082256
-0.1412017 -0.23701805 0.88554102 5068120
-0.11930644 -0.24378935 0.88352442 5200736
-0.11047426 -0.24457136 0.88570023 4345175
-0.10315527 -0.24625805 0.88741285 4278096
-0.10490705 -0.23603943 0.88774621 4147028
-0.10052529 -0.24001634 0.89000392 3819087
-0.098299593 -0.23198278 0.89109308 3687502
-0.13735023 -0.26947898 0.88482803 5528423
-0.13309115 -0.27019617 0.88438106 5397348
-0.1446103 -0.25760081 0.88654304 4804702
-0.1356653 -0.25992545 0.88432306 5462626
-0.12656231 -0.26338646 0.88516688 5003105
-0.11777429 -0.26329812 0.88648295 4804440
-0.15015917 -0.24814484 0.89472383 3817824
-0.14562881 -0.25032431 0.88837159 4673622
-0.1304009 -0.25454989 0.88560945 5660265
-0.12289761 -0.25528976 0.88518888 5069150
-0.11345671 -0.25663525 0.88681138 4475986
-0.10694051 -0.25474253 0.88822234 4014924
-0.10876389 -0.25132632 0.88814986 4606547
-0.1025597 -0.25123706 0.8889038 3620428
-0.14578819 -0.27706575 0.88795024 4079956
-0.13980517 -0.27825809 0.8844018 5266270
-0.13412797 -0.28076887 0.8855077 5002845
-0.1465579 -0.27037537 0.89018542 4079963
-0.14012645 -0.27324727 0.88581502 5330781
-0.12945323 -0.27524179 0.88656789 5002331
-0.12442335 -0.27052304 0.88792825 5001816
-0.11957592 -0.27010006 0.88975304 4540755
-0.11316542 -0.26526079 0.89176172 4213074
-0.14355576 -0.2937991 0.89090872 5265766
-0.14334604 -0.28834635 0.89124292 5068639
-0.13455588 -0.28908178 0.8902607 4214103
-0.14907946 -0.27837396 0.89187521 1580089
-0.12839811 -0.28291798 0.8897751 4145996
-0.12397304 -0.27877212 0.89192337 4212054
-0.1500171 -0.29464424 0.89389551 3618132
-0.14515087 -0.296942 0.89234912 5199718
-0.13855164 -0.29782578 0.8918159 4214875
-0.15903032 -0.35304385 0.87239987 528927
-0.15437922 -0.35491082 0.87115246 1517876
-0.15845841 -0.36924165 0.87571198 4419983
-0.17064807 -0.35881743 0.88041431 1651559
-0.16520198 -0.35785308 0.87732321 1782104
-0.15447688 -0.36178169 0.87213755 4154236
-0.14855105 -0.36269102 0.87624395 3028033
-0.1602657 -0.3561247 0.88487834 2369321
-0.15283665 -0.35619754 0.88052821 2040105
-0.1541058 -0.33897075 0.89209247 4146252
-0.17201909 -0.36845401 0.88585562 5077683
-0.16634612 -0.37148631 0.88217694 4617364
-0.15751731 -0.37426186 0.88034743 4549258
-0.15076478 -0.36994636 0.88020271 6582660
-0.16935021 -0.35699946 0.88903135 7695014
-0.16087557 -0.3565096 0.89029896 2040625
-0.15279114 -0.35731012 0.88902944 2172202
-0.14792538 -0.36294463 0.88514519 2760198
-0.17055394 -0.38361245 0.88502312 4683677
-0.16514349 -0.38511378 0.88404179 3831442
-0.17561547 -0.37560329 0.88917297 3299734
-0.16960366 -0.37836748 0.88560206 4683420
-0.16163449 -0.38155687 0.88462579 3960460
-0.20014365 -0.44573724 0.85698617 3829135
-0.19227555 -0.44750482 0.85585034 4223637
-0.18650718 -0.44949284 0.85453266 3960467
-0.19796827 -0.43824926 0.8622607 3498881
-0.18982208 -0.43988413 0.86073303 3895695
-0.18195419 -0.44114947 0.86043745 3631246
-0.19431107 -0.42788193 0.86590862 3499128
-0.18768477 -0.43041268 0.86422193 4025235
-0.1790479 -0.43305665 0.86474973 3499655
-0.19076306 -0.41962016 0.86930102 3826560
-0.18438591 -0.42171717 0.86852551 4156303
-0.17702338 -0.42567629 0.8689003 3630985
-0.18757389 -0.41402575 0.87692529 3893387
-0.18119605 -0.41462725 0.87468755 4157333
-0.17408091 -0.41735202 0.87538123 3762828
-0.18331712 -0.4090457 0.88291198 3762325
-0.17706156 -0.40645161 0.88033372 4420507
-0.17123848 -0.40955776 0.88108253 3828877
-0.180062 -0.39801794 0.89068055 4222878
-0.17378524 -0.39919204 0.88538116 4552347
-0.16806972 -0.40282878 0.88648945 3631755
-0.17917435 -0.38820699 0.89072782 3627913
-0.17148499 -0.39062774 0.88660842 4683676
-0.16431379 -0.39320204 0.88848752 3892613
-0.16089542 -0.38545561 0.88996303 3563127
-0.204823 -0.45606032 0.85632151 3033484
-0.19725238 -0.46039796 0.8563056 2897991
-0.18743283 -0.46214741 0.85460925 3891064
-0.18004909 -0.46450695 0.85508746 2638186
-0.20577207 -0.44712871 0.86082238 666715
-0.19613108 -0.45174205 0.85771579 4813457
-0.18230876 -0.45303389 0.85699081 3499654
-0.17550212 -0.456947 0.85883665 3561592
-0.20281503 -0.4381164 0.86717504 6722
-0.17943367 -0.44560203 0.86223513 3694979
-0.17314029 -0.44828442 0.86287999 3233144
-0.17466465 -0.43794757 0.86766011 3104639
-0.1702507 -0.44099832 0.86946547 2640231
-0.17226878 -0.43023309 0.87309617 2907007
-0.16821951 -0.43408602 0.87599987 3099492
-0.18970516 -0.41482079 0.88366705 4089741
-0.16963661 -0.42289972 0.87870443 3496061
-0.16524085 -0.42583156 0.88237691 4278874
-0.18496495 -0.4091534 0.88769943 2972810
-0.16701986 -0.41527665 0.88530833 3757171
-0.16378707 -0.41922343 0.88702554 3748927
-0.18204944 -0.40497473 0.89066505 3630740
-0.16412655 -0.40895063 0.88811302 3953004
-0.19987702 -0.46804169 0.85723692 984897
-0.18870565 -0.46779186 0.85755748 4350584
-0.17138804 -0.45227128 0.86947107 4674411
-0.16879267 -0.446987 0.87605637 6974583
-0.16696817 -0.43792343 0.8824302 3815753
-0.19372319 -0.41950274 0.89132404 5799072
-0.16313292 -0.42899615 0.88507146 5064001
-0.17329282 -0.46401376 0.87627929 7039097
-0.17174459 -0.46002913 0.8803122 7565430
-0.16967295 -0.45293269 0.88490403 8223350
-0.16729099 -0.44376999 0.8856563 9076613
