# .PCD v0.7 - Point Cloud Data file format
VERSION 0.7
FIELDS x y z rgba
SIZE 4 4 4 4
TYPE F F F U
COUNT 1 1 1 1
WIDTH 174
HEIGHT 1
VIEWPOINT 0 0 0 1 0 0 0
POINTS 174
DATA ascii
-0.098707557 -0.18252507 0.90001661 5134174
-0.09285751 -0.18537873 0.89763409 5134176
-0.097646654 -0.17882355 0.9027195 4871515
-0.11192242 -0.19823338 0.89766318 4936281
-0.10288398 -0.20269653 0.89394188 5199967
-0.098273002 -0.20387354 0.89286071 5397348
-0.11751118 -0.19092388 0.90297091 4673880
-0.11044469 -0.19204858 0.89942825 4870232
-0.1013617 -0.19472393 0.8979277 5068382
-0.091948509 -0.19712898 0.8963989 5068384
-0.084009685 -0.1984033 0.89628631 4476504
-0.11485908 -0.18276922 0.90720761 4607822
-0.10821536 -0.18366553 0.90458173 4673623
-0.098072805 -0.18689093 0.90173066 5134174
-0.08792232 -0.18872218 0.89991516 4739419
-0.080589831 -0.19155288 0.89908612 4081746
-0.11224715 -0.17730209 0.91323066 4410445
-0.10411199 -0.17670591 0.9095692 4213839
-0.094197854 -0.1788016 0.9075678 4345429
-0.084809616 -0.18154873 0.90510595 4016211
-0.077184871 -0.18446618 0.90403497 3621193
-0.10175967 -0.17268614 0.91245067 3884109
-0.0925657 -0.1741994 0.9109143 3752784
-0.082734481 -0.17676641 0.90856642 3621192
-0.076198474 -0.17936037 0.90634614 3686459
-0.12345097 -0.21175236 0.90113527 4673626
-0.11617158 -0.21271817 0.89655054 4870741
-0.10788815 -0.2159318 0.89402151 5265754
-0.098126568 -0.21797523 0.89239901 5397604
-0.089056909 -0.2197033 0.89439869 4608350
-0.12159047 -0.2022668 0.90320253 4673629
-0.11425927 -0.20417435 0.89875555 4870744
-0.10679629 -0.20721535 0.89574599 5134174
-0.094455563 -0.20905301 0.89464068 5397606
-0.086216748 -0.21293445 0.89658105 4476760
-0.078901455 -0.21264897 0.89918542 4015442
-0.12529357 -0.19694081 0.91293585 3883351
-0.12218502 -0.19467136 0.90800023 4475995
-0.091475613 -0.20389286 0.89752835 5068641
-0.08169809 -0.20488693 0.89891052 4082513
-0.075531483 -0.20810044 0.90179086 3752531
-0.12010782 -0.18601152 0.91284585 4079443
-0.07686539 -0.19806325 0.9030754 3621705
-0.073254034 -0.20281735 0.90324569 3751503
-0.075957656 -0.19097714 0.90643007 3490378
-0.11812722 -0.23542884 0.8977294 5002588
-0.11511049 -0.23621653 0.89700896 5528419
-0.12499909 -0.22546598 0.90544015 4739163
-0.11921983 -0.22769235 0.89985627 5002333
-0.11036845 -0.23023124 0.89750391 5397092
-0.10096195 -0.23175707 0.89764059 5332066
-0.094832078 -0.23334283 0.89823568 4740695
-0.1252128 -0.21894372 0.90375119 4082256
-0.11910316 -0.2204937 0.9001441 5068120
-0.097254068 -0.22692046 0.89688313 5200736
-0.088317871 -0.2276461 0.89860684 4345175
-0.080904908 -0.22928312 0.89991587 4278096
-0.082758181 -0.21910125 0.90061891 4147028
-0.078225352 -0.22308075 0.90255022 3819087
-0.076043695 -0.21505156 0.90375459 3687502
-0.1149103 -0.2528699 0.89833891 5528423
-0.11066991 -0.25351882 0.89766669 5397348
-0.12221718 -0.24113899 0.90073407 4804702
-0.11336417 -0.24328488 0.89802027 5462626
-0.10419093 -0.24664834 0.89832604 5003105
-0.095350891 -0.24648114 0.89921778 4804440
-0.12747183 -0.23198363 0.90943462 3817824
-0.12323079 -0.23392916 0.90281236 4673622
-0.10810684 -0.23787814 0.89920044 5660265
-0.10062476 -0.23850806 0.89839715 5069150
-0.091100931 -0.23977384 0.89952326 4475986
-0.084546432 -0.23783536 0.90066993 4014924
-0.086411141 -0.23444258 0.90078115 4606547
-0.08017908 -0.23429283 0.90123653 3620428
-0.12309668 -0.26064888 0.90165204 4079956
-0.11727989 -0.2616654 0.89778662 5266270
-0.11152652 -0.26413104 0.89854622 5002845
-0.12383512 -0.25403279 0.90410793 4079963
-0.11759079 -0.25669974 0.89935321 5330781
-0.10687089 -0.25857434 0.89953327 5002331
-0.10183649 -0.25382918 0.90078026 5001816
-0.096911266 -0.25339293 0.90237975 4540755
-0.090467826 -0.24852698 0.90421069 4213074
-0.12052667 -0.27742624 0.90403032 5265766
-0.12036494 -0.2719824 0.90450627 5068639
-0.11162498 -0.27257568 0.90308017 4214103
-0.1261774 -0.26210684 0.90569335 1580089
-0.1055709 -0.26632094 0.90246993 4145996
-0.10109547 -0.26217782 0.90451688 4212054
-0.12682459 -0.2784372 0.90730119 3618132
-0.12201278 -0.28062794 0.90545774 5199718
-0.11543742 -0.28141046 0.90458167 4214875
-0.13618754 -0.33634001 0.88464254 528927
-0.1315811 -0.33811119 0.88312012 1517876
-0.13526505 -0.35261348 0.88746917 4419983
-0.14733286 -0.342482 0.89304465 1651559
-0.14205539 -0.34136239 0.88972211 1782104
-0.13155006 -0.34500712 0.88391638 4154236
-0.12542109 -0.34595084 0.88770449 3028033
-0.13677782 -0.33977681 0.89707518 2369321
-0.12956898 -0.33963352 0.8923707 2040105
-0.13047577 -0.32274747 0.90445971 4146252
-0.14832421 -0.35228088 0.89827442 5077683
-0.14280184 -0.35513702 0.89424258 4617364
-0.13404059 -0.35774583 0.89191157 4549258
-0.1273542 -0.35334006 0.89156133 6582660
-0.1456385 -0.34088355 0.9016363 7695014
-0.13711855 -0.34031776 0.90250611 2040625
-0.12909666 -0.34097749 0.90082538 2172202
-0.12435994 -0.34643954 0.89655459 2760198
-0.14672354 -0.36739045 0.89694881 4683677
-0.14135003 -0.36879352 0.89566547 3831442
-0.15167071 -0.35956463 0.90156066 3299734
-0.14580782 -0.36215132 0.89762741 4683420
-0.13785873 -0.36520833 0.89617842 3960460
-0.17691188 -0.42910698 0.86864954 3829135
-0.16908818 -0.43073976 0.86708575 4223637
-0.16336787 -0.43261543 0.86543572 3960467
-0.17457035 -0.42173821 0.87401998 3498881
-0.16648954 -0.423224 0.87205523 3895695
-0.15863107 -0.4243778 0.87134445 3631246
-0.17086181 -0.41142756 0.87777519 3499128
-0.16429624 -0.41382438 0.87570006 4025235
-0.15561348 -0.41636863 0.8757357 3499655
-0.16725007 -0.40321594 0.88122165 3826560
-0.16089407 -0.4052074 0.88008052 4156303
-0.15347607 -0.40907866 0.87998819 3630985
-0.16375944 -0.39779091 0.88883626 3893387
-0.15749145 -0.39824754 0.8862769 4157333
-0.1503195 -0.400897 0.88654947 3762828
-0.15927503 -0.39292118 0.89474702 3762325
-0.15318325 -0.390176 0.89194292 4420507
-0.14729457 -0.39322504 0.8923223 3828877
-0.15577523 -0.3820684 0.90265435 4222878
-0.14975053 -0.38301492 0.89702702 4552347
-0.14394556 -0.38660556 0.89775568 3631755
-0.15500152 -0.3722516 0.90293282 3627913
-0.14749393 -0.37445804 0.89838052 4683676
-0.14021005 -0.37698877 0.89983815 3892613
-0.13681506 -0.36924154 0.9013626 3563127
-0.18149656 -0.43946832 0.86792356 3033484
-0.17388532 -0.44370455 0.86742049 2897991
-0.16414014 -0.44527841 0.86520332 3891064
-0.15671468 -0.44755334 0.86525798 2638186
-0.18233018 -0.43067628 0.87271285 666715
-0.17279835 -0.4350765 0.86901623 4813457
-0.15901351 -0.43616718 0.86758822 3499654
-0.15207963 -0.44003993 0.86899281 3561592
-0.17917335 -0.42180318 0.87916458 6722
-0.15597397 -0.42884451 0.8728931 3694979
-0.14962558 -0.43146104 0.87315774 3233144
-0.15103666 -0.42127955 0.87829298 3104639
-0.14650457 -0.42432058 0.87979692 2640231
-0.14846972 -0.41368595 0.88382041 2907007
-0.14423896 -0.41756356 0.88641614 3099492
-0.16555052 -0.39879781 0.89564824 4089741
-0.1456539 -0.40647489 0.88949764 3496061
-0.14105049 -0.40944833 0.89286995 4278874
-0.16068648 -0.39318129 0.89960366 2972810
-0.14280844 -0.39900166 0.89617783 3757171
-0.13944981 -0.40295136 0.8976258 3748927
-0.1576793 -0.38904753 0.9025405 3630740
-0.13985646 -0.39271742 0.89901507 3953004
-0.17637163 -0.45140451 0.8682636 984897
-0.1652016 -0.4510175 0.86805069 4350584
-0.14750794 -0.43560338 0.87954247 4674411
-0.14465725 -0.43046767 0.88613975 6974583
-0.14263114 -0.42155871 0.89266872 3815753
-0.16913584 -0.40373954 0.90335673 5799072
-0.13877691 -0.41265759 0.89536995 5064001
-0.14894111 -0.44755152 0.88610399 7039097
-0.14724527 -0.44365877 0.89016712 7565430
-0.145036 -0.43666404 0.89484996 8223350
-0.14272791 -0.427495 0.895742 9076613
