# .PCD v0.7 - Point Cloud Data file format
VERSION 0.7
FIELDS x y z rgba
SIZE 4 4 4 4
TYPE F F F U
COUNT 1 1 1 1
WIDTH 174
HEIGHT 1
VIEWPOINT 0 0 0 1 0 0 0
POINTS 174
DATA ascii
-0.059560828 -0.079214439 1.043636 5134174
-0.053814054 -0.08125113 1.0403391 5134176
-0.058411703 -0.076168008 1.0470318 4871515
-0.072536923 -0.094485663 1.0386028 4936281
-0.063659415 -0.097676247 1.0334578 5199967
-0.059102662 -0.098413453 1.0318742 5397348
-0.077935129 -0.088746302 1.045727 4673880
-0.071089864 -0.088796161 1.0416172 4870232
-0.062064607 -0.090735584 1.0390301 5068382
-0.052717976 -0.092393167 1.0364566 5068384
-0.044776119 -0.093317375 1.0355998 4476504
-0.075201064 -0.08164224 1.0515182 4607822
-0.068723217 -0.081688449 1.0483761 4673623
-0.058716062 -0.083825275 1.0442903 5134174
-0.048665684 -0.084833018 1.0415233 4739419
-0.041339573 -0.087137222 1.0396566 4081746
-0.072329342 -0.077554554 1.0584488 4410445
-0.064465128 -0.075861871 1.0545461 4213839
-0.054656547 -0.077094749 1.0515529 4345429
-0.045387603 -0.078879654 1.0479965 4016211
-0.037783664 -0.081203952 1.0458581 3621193
-0.062023353 -0.072497338 1.0581115 3884109
-0.052916367 -0.073292375 1.055743 3752784
-0.04320221 -0.07491073 1.0523121 3621192
-0.036766529 -0.076705068 1.0491912 3686459
-0.083502382 -0.10885338 1.0396289 4673626
-0.076516062 -0.10850949 1.0345284 4870741
-0.068342969 -0.11077479 1.0308667 5265754
-0.05866316 -0.11204637 1.0282627 5397604
-0.049445473 -0.11383951 1.0292937 4608350
-0.081729524 -0.10000055 1.0436531 4673629
-0.074660979 -0.10060292 1.038473 4870744
-0.067341559 -0.10262366 1.0344303 5134174
-0.055059843 -0.10371441 1.0322253 5397606
-0.046625502 -0.10762325 1.0327653 4476760
-0.039164912 -0.1076531 1.034937 4015442
-0.084913477 -0.097105905 1.0545298 3883351
-0.082185097 -0.093685433 1.0500543 4475995
-0.052017681 -0.09921696 1.0360153 5068641
-0.042150781 -0.10013185 1.0365684 4082513
-0.035737965 -0.10367464 1.038293 3752531
-0.079996578 -0.086245358 1.0565844 4079443
-0.037215434 -0.094228402 1.0418651 3621705
-0.033492554 -0.098765522 1.0407573 3751503
-0.036254387 -0.088034198 1.0466608 3490378
-0.077869572 -0.13097231 1.0307102 5002588
-0.074888766 -0.13146891 1.0296574 5528419
-0.084452555 -0.12322771 1.0408405 4739163
-0.078998819 -0.1239458 1.0345733 5002333
-0.070263103 -0.12557188 1.0312014 5397092
-0.060835086 -0.12674233 1.0304453 5332066
-0.054644752 -0.12819362 1.0303128 4740695
-0.0849251 -0.11650571 1.0406684 4082256
-0.07902883 -0.11699097 1.0364565 5068120
-0.057296179 -0.12172492 1.0305741 5200736
-0.048252575 -0.12248498 1.0315685 4345175
-0.040734619 -0.12409727 1.0320444 4278096
-0.042771325 -0.11440023 1.0351133 4147028
-0.038032502 -0.11853917 1.0358385 3819087
-0.035961915 -0.11090222 1.0386789 3687502
-0.07422068 -0.14798355 1.0272154 5528423
-0.070019163 -0.14831054 1.0261693 5397348
-0.081623591 -0.13735336 1.0325947 4804702
-0.072918773 -0.13851626 1.0289589 5462626
-0.063670307 -0.14152342 1.0279701 5003105
-0.05479718 -0.14123252 1.0283602 4804440
-0.08651036 -0.13055551 1.0434132 3817824
-0.082665101 -0.13082632 1.0362881 4673622
-0.06772124 -0.13331594 1.0310102 5660265
-0.060294703 -0.13347588 1.029652 5069150
-0.05069131 -0.13460808 1.02991 4475986
-0.044122323 -0.13273202 1.0310775 4014924
-0.046053205 -0.12951945 1.032053 4606547
-0.039809797 -0.12924489 1.0321666 3620428
-0.081993885 -0.1565998 1.0291759 4079956
-0.076418787 -0.15651876 1.0248491 5266270
-0.070573181 -0.15887773 1.0247016 5002845
-0.082722723 -0.15072492 1.0330878 4079963
-0.076741032 -0.15203908 1.0275018 5330781
-0.065991923 -0.15351063 1.0266335 5002331
-0.060997292 -0.14897799 1.0286149 5001816
-0.05598985 -0.14872612 1.0299817 4540755
-0.049554344 -0.14415336 1.0324762 4213074
-0.078890637 -0.17338048 1.0275881 5265766
-0.078823224 -0.16817556 1.0292591 5068639
-0.070183098 -0.16811535 1.02723 4214103
-0.084771231 -0.15903023 1.0329611 1580089
-0.064326525 -0.16166228 1.0276825 4145996
-0.059823737 -0.15791427 1.0303401 4212054
-0.084937856 -0.17532295 1.030911 3618132
-0.080207027 -0.17687152 1.0283474 5199718
-0.073686272 -0.17719744 1.0269371 4214875
-0.094422922 -0.22706357 0.99646169 528927
-0.089885741 -0.22828203 0.9943161 1517876
-0.09294571 -0.24351332 0.99551862 4419983
-0.10485489 -0.23532236 1.0039117 1651559
-0.099831544 -0.23330009 1.0006222 1782104
-0.089644857 -0.23517689 0.99354678 4154236
-0.083262667 -0.23671071 0.9966644 3028033
-0.09412507 -0.23319134 1.0078235 2369321
-0.087242357 -0.23174278 1.0028586 2040105
-0.087748721 -0.21800339 1.0184495 4146252
-0.1052793 -0.24606675 1.0068662 5077683
-0.099966533 -0.24775214 1.0019833 4617364
-0.091317773 -0.24945438 0.9986217 4549258
-0.084771082 -0.24483734 0.99887693 6582660
-0.10264291 -0.23560777 1.0125296 7695014
-0.094099663 -0.2349354 1.0130063 2040625
-0.086190939 -0.23490992 1.0107564 2172202
-0.081617728 -0.23911051 1.0051038 2760198
-0.10342203 -0.26043656 1.0021043 4683677
-0.098112509 -0.26132113 1.000229 3831442
-0.10823724 -0.25401616 1.0086296 3299734
-0.10258455 -0.25544828 1.0038829 4683420
-0.094678402 -0.2578128 1.0013266 3960460
-0.13396204 -0.31540966 0.96252674 3829135
-0.12622112 -0.3163656 0.96018451 4223637
-0.1205786 -0.31761652 0.95782661 3960467
-0.13144611 -0.30933428 0.96926337 3498881
-0.1234781 -0.31004855 0.96654898 3895695
-0.11565804 -0.31072563 0.96514177 3631246
-0.12773885 -0.29998368 0.97500688 3499128
-0.12126876 -0.30161703 0.97206956 4025235
-0.11254596 -0.30378413 0.97102964 3499655
-0.12410007 -0.29261354 0.97998619 3826560
-0.11778766 -0.29406673 0.97806042 4156303
-0.1103045 -0.29754511 0.97667289 3630985
-0.12024735 -0.28888744 0.98840463 3893387
-0.11415009 -0.28853384 0.98544747 4157333
-0.10691673 -0.29091164 0.98470247 3762828
-0.1155012 -0.28528798 0.99498332 3762325
-0.10966909 -0.28176671 0.99251431 4420507
-0.10369981 -0.28460485 0.9918586 3828877
-0.1117448 -0.27633762 1.0048999 4222878
-0.10607839 -0.27578998 0.99886239 4552347
-0.10015751 -0.27923641 0.99843031 3631755
-0.11117999 -0.26680541 1.0073212 3627913
-0.10393545 -0.26766914 1.0019615 4683676
-0.096516117 -0.27018997 1.0023896 3892613
-0.093207821 -0.26285404 1.0054076 3563127
-0.13834536 -0.32551372 0.9597702 3033484
-0.13068774 -0.3292495 0.95789015 2897991
-0.1210737 -0.32993227 0.95481354 3891064
-0.11361018 -0.33188748 0.95392555 2638186
-0.13906743 -0.3180396 0.96644467 666715
-0.12969755 -0.32115614 0.96130896 4813457
-0.11601326 -0.32139426 0.95887297 3499654
-0.10891576 -0.32522392 0.95896965 3561592
-0.13570237 -0.31070811 0.97452223 6722
-0.11280417 -0.31532353 0.96549487 3694979
-0.10639367 -0.31769782 0.96479756 3233144
-0.10770122 -0.30896783 0.97215295 3104639
-0.10301242 -0.31209755 0.97267216 2640231
-0.10495536 -0.30269983 0.97907943 2907007
-0.10047704 -0.306898 0.9804914 3099492
-0.12156842 -0.29144526 0.99491137 4089741
-0.10194271 -0.29682866 0.98605168 3496061
-0.097062901 -0.30030423 0.98839968 4278874
-0.11658773 -0.28667051 0.99973249 2972810
-0.09884131 -0.29092336 0.99405664 3757171
-0.095305979 -0.29496932 0.99438655 3748927
-0.11349167 -0.28318304 1.0033392 3630740
-0.095856108 -0.28532046 0.99805057 3953004
-0.13293676 -0.33703095 0.95713323 984897
-0.12181599 -0.33619505 0.95636219 4350584
-0.10377115 -0.32307208 0.96995974 4674411
-0.10061634 -0.31942588 0.97736096 6974583
-0.098375112 -0.31211823 0.9855876 3815753
-0.12453097 -0.29810214 1.0015148 5799072
-0.094558664 -0.30390203 0.98998195 5064001
-0.10450052 -0.33622235 0.973755 7039097
-0.10263395 -0.33326781 0.97847998 7565430
-0.10028605 -0.3274093 0.98447174 8223350
-0.098135792 -0.31858772 0.98725575 9076613
